4.793181419372558594e+00 -5.442539215087890625e+00 -6.344938278198242188e-01 7.000000000000000000e+00
2.226512527465819957e+01 -2.531711387634276988e+01 -5.884951353073120117e-01 6.000000000000000000e+00
1.718299984931946023e+00 -1.959345579147339089e+00 -6.982938051223754883e-01 1.400000000000000000e+01
1.990792274475098100e+00 -2.271662712097167969e+00 -6.973482966423034668e-01 1.300000000000000000e+01
2.371334791183472124e+00 -2.706846714019774947e+00 -6.995058059692382812e-01 1.200000000000000000e+01
2.926308393478393999e+00 -3.342695236206055132e+00 -7.036422491073608398e-01 1.000000000000000000e+01
3.843998432159423828e+00 -4.394058227539063388e+00 -7.168354988098144531e-01 1.600000000000000000e+01
4.737429618835449219e+00 -5.417243003845214844e+00 -6.296131014823913574e-01 7.000000000000000000e+00
2.202403831481933949e+01 -2.521995925903319957e+01 -5.844461917877197266e-01 6.000000000000000000e+00
1.711450099945067915e+00 -1.965331673622130904e+00 -6.982938051223754883e-01 1.400000000000000000e+01
1.976454257965087891e+00 -2.271247625350952148e+00 -6.950987577438354492e-01 1.200000000000000000e+01
2.368314266204833984e+00 -2.722513914108275923e+00 -7.014138698577880859e-01 1.100000000000000000e+01
2.919806241989136186e+00 -3.358852863311768022e+00 -7.048937082290649414e-01 1.000000000000000000e+01
3.815618753433227983e+00 -4.392463207244873047e+00 -7.143980860710144043e-01 2.000000000000000000e+01
4.714572429656982422e+00 -5.429233551025390625e+00 -6.290901303291320801e-01 1.000000000000000000e+01
2.192276763916015980e+01 -2.528157615661621094e+01 -5.840971469879150391e-01 6.000000000000000000e+00
1.703315734863281028e+00 -1.969832420349121094e+00 -6.977761387825012207e-01 1.500000000000000000e+01
1.977432966232300027e+00 -2.288454532623291016e+00 -6.982480883598327637e-01 1.200000000000000000e+01
2.354946374893188032e+00 -2.726307153701781782e+00 -7.002689838409423828e-01 1.200000000000000000e+01
2.915808439254761186e+00 -3.377996444702147993e+00 -7.067708969116210938e-01 1.000000000000000000e+01
3.784704208374022993e+00 -4.387717247009277344e+00 -7.114732265472412109e-01 3.300000000000000000e+01
4.562881946563720703e+00 -5.291748523712158203e+00 -6.113103628158569336e-01 8.000000000000000000e+00
2.184743309020996094e+01 -2.537310028076171875e+01 -5.844461917877197266e-01 6.000000000000000000e+00
1.701463341712952104e+00 -1.981628894805907981e+00 -6.998466849327087402e-01 1.600000000000000000e+01
1.964356899261475053e+00 -2.289427280426024947e+00 -6.964484453201293945e-01 1.200000000000000000e+01
2.342859268188477007e+00 -2.731530427932738814e+00 -6.995058059692382812e-01 1.200000000000000000e+01
2.903999090194702148e+00 -3.388154029846190962e+00 -7.067708969116210938e-01 1.000000000000000000e+01
3.769365072250366211e+00 -4.400901794433593750e+00 -7.114732265472412109e-01 4.100000000000000000e+01
4.611764430999755859e+00 -5.386343002319335938e+00 -6.203745603561401367e-01 8.000000000000000000e+00
2.165997123718262074e+01 -2.533369445800780895e+01 -5.817934274673461914e-01 6.000000000000000000e+00
1.688269019126892090e+00 -1.980205655097960982e+00 -6.972585320472717285e-01 1.400000000000000000e+01
1.961408495903014915e+00 -2.302203893661499023e+00 -6.982480883598327637e-01 1.100000000000000000e+01
2.339674711227416992e+00 -2.747165203094481978e+00 -7.014138698577880859e-01 1.100000000000000000e+01
2.899836301803588867e+00 -3.407296180725098100e+00 -7.086481451988220215e-01 1.000000000000000000e+01
3.726973056793212891e+00 -4.382277011871337891e+00 -7.063547372817993164e-01 4.300000000000000000e+01
4.600677490234375000e+00 -5.411515712738037109e+00 -6.214204430580139160e-01 8.000000000000000000e+00
1.680098295211791992e+00 -1.984612226486206055e+00 -6.967408657073974609e-01 1.700000000000000000e+01
1.954618930816649947e+00 -2.310524225234984907e+00 -6.986979842185974121e-01 1.200000000000000000e+01
2.327535629272460938e+00 -2.752317190170288086e+00 -7.006506323814392090e-01 1.100000000000000000e+01
2.886649847030640093e+00 -3.415889024734497070e+00 -7.083352804183959961e-01 1.100000000000000000e+01
3.710372686386107954e+00 -4.393743038177490234e+00 -7.061109542846679688e-01 2.800000000000000000e+01
4.601037979125976562e+00 -5.450378894805908203e+00 -6.240351200103759766e-01 7.000000000000000000e+00
1.678132772445678933e+00 -1.996379971504210982e+00 -6.988114118576049805e-01 1.500000000000000000e+01
1.944035053253174050e+00 -2.314348697662353960e+00 -6.977981925010681152e-01 1.300000000000000000e+01
2.320439100265502930e+00 -2.763432025909423828e+00 -7.014138698577880859e-01 1.100000000000000000e+01
2.868360042572021040e+00 -3.418378353118896040e+00 -7.067708969116210938e-01 1.100000000000000000e+01
3.702665805816649947e+00 -4.415794849395751953e+00 -7.075734138488769531e-01 2.400000000000000000e+01
4.616541385650634766e+00 -5.507633686065673828e+00 -6.287415027618408203e-01 7.000000000000000000e+00
1.676105380058289018e+00 -2.008158206939696822e+00 -7.008819580078125000e-01 1.600000000000000000e+01
1.935944557189940962e+00 -2.321120500564575195e+00 -6.977981925010681152e-01 1.200000000000000000e+01
2.312036037445067915e+00 -2.773022890090941939e+00 -7.017954587936401367e-01 1.200000000000000000e+01
2.861467838287353960e+00 -3.434440612792969194e+00 -7.080224156379699707e-01 1.000000000000000000e+01
3.678338050842285156e+00 -4.418013572692871094e+00 -7.058672308921813965e-01 2.200000000000000000e+01
4.599836826324462891e+00 -5.526777744293212891e+00 -6.290901303291320801e-01 7.000000000000000000e+00
1.665387272834778054e+00 -2.009534358978271040e+00 -6.993290781974792480e-01 1.500000000000000000e+01
1.932802438735961914e+00 -2.333867549896239790e+00 -6.995977759361267090e-01 1.300000000000000000e+01
2.298586368560791016e+00 -2.776539802551269975e+00 -7.006506323814392090e-01 1.100000000000000000e+01
2.859535217285155806e+00 -3.456584453582764116e+00 -7.105253338813781738e-01 1.000000000000000000e+01
3.659099578857421875e+00 -4.426236629486083984e+00 -7.051360011100769043e-01 2.400000000000000000e+01
4.617323398590087891e+00 -5.587339401245117188e+00 -6.341452002525329590e-01 7.000000000000000000e+00
1.732006454467773082e+01 -2.097360038757323863e+01 -1.425526738166809082e+00 1.300000000000000000e+01
1.653452515602112038e+00 -2.009368419647216797e+00 -6.972585320472717285e-01 1.400000000000000000e+01
1.928357005119323953e+00 -2.345115661621094194e+00 -7.009474635124206543e-01 1.400000000000000000e+01
2.291373729705810991e+00 -2.787579774856566939e+00 -7.014138698577880859e-01 1.100000000000000000e+01
2.843690633773804155e+00 -3.461965560913085938e+00 -7.095867395401000977e-01 1.100000000000000000e+01
3.623475313186645952e+00 -4.414432048797607422e+00 -7.012361884117126465e-01 2.000000000000000000e+01
4.601583480834960938e+00 -5.608043193817138672e+00 -6.346681118011474609e-01 9.000000000000000000e+00
1.721382141113280895e+01 -2.099377441406250000e+01 -1.422805309295654075e+00 1.300000000000000000e+01
1.648873090744018999e+00 -2.018119812011719194e+00 -6.982938051223754883e-01 1.400000000000000000e+01
1.917694449424744096e+00 -2.348813533782958984e+00 -7.000476717948913574e-01 1.100000000000000000e+01
2.281629323959351030e+00 -2.795561075210570845e+00 -7.014138698577880859e-01 1.200000000000000000e+01
2.830340385437012163e+00 -3.470340013504027876e+00 -7.092738747596740723e-01 1.100000000000000000e+01
3.618076801300048828e+00 -4.439363479614257812e+00 -7.031860947608947754e-01 1.800000000000000000e+01
4.498922348022460938e+00 -5.522124767303466797e+00 -6.231635808944702148e-01 1.100000000000000000e+01
1.711017036437987926e+01 -2.101656150817871094e+01 -1.420293211936950906e+00 1.300000000000000000e+01
1.650337934494018999e+00 -2.034364938735961914e+00 -7.019172310829162598e-01 1.700000000000000000e+01
1.902120828628540039e+00 -2.346410512924193892e+00 -6.973482966423034668e-01 1.300000000000000000e+01
2.278037309646606001e+00 -2.811135053634643999e+00 -7.033219337463378906e-01 1.000000000000000000e+01
2.816966056823730025e+00 -3.478663444519042969e+00 -7.089610099792480469e-01 1.100000000000000000e+01
3.605056047439575195e+00 -4.455052375793457031e+00 -7.036736011505126953e-01 1.600000000000000000e+01
4.351809024810791016e+00 -5.379794120788574219e+00 -6.053838133811950684e-01 1.300000000000000000e+01
1.698899459838866832e+01 -2.101713562011719105e+01 -1.416315674781799094e+00 1.200000000000000000e+01
1.640802979469299094e+00 -2.037104368209838867e+00 -7.008819580078125000e-01 1.400000000000000000e+01
1.893918752670288086e+00 -2.353035688400268999e+00 -6.973482966423034668e-01 1.100000000000000000e+01
2.268210887908935991e+00 -2.819069623947143999e+00 -7.033219337463378906e-01 1.100000000000000000e+01
2.810995101928710938e+00 -3.496172904968262163e+00 -7.105253338813781738e-01 1.100000000000000000e+01
3.582023143768310991e+00 -4.458323955535888672e+00 -7.022111415863037109e-01 1.600000000000000000e+01
4.439052104949951172e+00 -5.526990890502929688e+00 -6.202002763748168945e-01 1.000000000000000000e+01
1.689052391052246094e+01 -2.104515647888183949e+01 -1.414222240447998047e+00 1.200000000000000000e+01
1.634888648986815962e+00 -2.044328212738037109e+00 -7.013996243476867676e-01 1.400000000000000000e+01
1.896642684936522993e+00 -2.373333454132080078e+00 -7.013973593711853027e-01 1.300000000000000000e+01
2.254680633544921875e+00 -2.822368383407593218e+00 -7.021771073341369629e-01 1.200000000000000000e+01
2.802471160888671875e+00 -3.510595083236693892e+00 -7.114639282226562500e-01 1.100000000000000000e+01
3.562725067138671875e+00 -4.466145038604736328e+00 -7.014799118041992188e-01 1.800000000000000000e+01
4.422216415405273438e+00 -5.545567512512207031e+00 -6.205489039421081543e-01 8.000000000000000000e+00
1.678708839416503906e+01 -2.106649971008301137e+01 -1.411710143089293990e+00 1.200000000000000000e+01
1.621736288070678933e+00 -2.042457818984984907e+00 -6.988114118576049805e-01 1.400000000000000000e+01
1.889557957649230957e+00 -2.381466150283813032e+00 -7.018473148345947266e-01 1.300000000000000000e+01
2.249694824218750000e+00 -2.836374044418334961e+00 -7.037035822868347168e-01 1.100000000000000000e+01
2.788972854614257812e+00 -3.518808126449584961e+00 -7.111510634422302246e-01 1.100000000000000000e+01
3.545881032943726030e+00 -4.476997852325438565e+00 -7.012361884117126465e-01 3.300000000000000000e+01
4.469616413116455078e+00 -5.645322322845458984e+00 -6.299617290496826172e-01 7.000000000000000000e+00
1.668370819091796875e+01 -2.108737754821776988e+01 -1.409197926521301047e+00 1.200000000000000000e+01
1.615792870521544966e+00 -2.049623489379882812e+00 -6.993290781974792480e-01 1.400000000000000000e+01
1.884851336479187012e+00 -2.392639875411986861e+00 -7.031970024108886719e-01 1.200000000000000000e+01
2.248282909393310991e+00 -2.855006694793701172e+00 -7.063748836517333984e-01 1.200000000000000000e+01
2.770565032958983931e+00 -3.520760059356689009e+00 -7.095867395401000977e-01 1.100000000000000000e+01
3.532685995101929155e+00 -4.492468833923339844e+00 -7.017236948013305664e-01 3.100000000000000000e+01
4.456039905548095703e+00 -5.668721675872802734e+00 -6.308332681655883789e-01 7.000000000000000000e+00
1.657051849365234020e+01 -2.109522628784180043e+01 -1.405848503112792969e+00 1.200000000000000000e+01
1.611009836196898970e+00 -2.058293819427489790e+00 -7.003643512725830078e-01 1.500000000000000000e+01
1.868083953857422097e+00 -2.388459682464600053e+00 -7.000476717948913574e-01 1.300000000000000000e+01
2.235884904861450195e+00 -2.859743833541870117e+00 -7.056116461753845215e-01 1.200000000000000000e+01
2.763123035430908203e+00 -3.536636352539062944e+00 -7.108381986618041992e-01 1.100000000000000000e+01
3.507210016250609907e+00 -4.492255210876464844e+00 -6.997737884521484375e-01 2.900000000000000000e+01
4.468096256256104404e+00 -5.725078582763671875e+00 -6.353653669357299805e-01 1.100000000000000000e+01
1.640834617614746094e+01 -2.103954505920410156e+01 -1.398312091827393022e+00 2.500000000000000000e+01
1.609742164611815962e+00 -2.071531772613524947e+00 -7.029525041580200195e-01 1.500000000000000000e+01
1.865711331367492898e+00 -2.402661800384521040e+00 -7.022972106933593750e-01 1.300000000000000000e+01
2.219869613647460938e+00 -2.859776973724364790e+00 -7.037035822868347168e-01 1.100000000000000000e+01
2.759236097335814986e+00 -3.557185888290404829e+00 -7.130283117294311523e-01 1.000000000000000000e+01
3.474481821060181108e+00 -4.482505321502686435e+00 -6.963614225387573242e-01 3.600000000000000000e+01
4.505440235137938565e+00 -5.814662456512451172e+00 -6.435580253601074219e-01 7.000000000000000000e+00
1.628589439392089844e+01 -2.103352355957030895e+01 -1.394125223159790039e+00 1.200000000000000000e+01
1.604861497879028098e+00 -2.080197334289550781e+00 -7.039877772331237793e-01 1.700000000000000000e+01
1.854933500289916992e+00 -2.406073093414307085e+00 -7.013973593711853027e-01 1.200000000000000000e+01
2.215865612030028853e+00 -2.875283479690552202e+00 -7.056116461753845215e-01 1.200000000000000000e+01
2.749212980270386186e+00 -3.569925785064696822e+00 -7.136540412902832031e-01 1.000000000000000000e+01
3.461235284805297852e+00 -4.497752189636229581e+00 -6.968489289283752441e-01 3.100000000000000000e+01
4.470537662506104404e+00 -5.811403751373291016e+00 -6.414662599563598633e-01 9.000000000000000000e+00
1.616855430603026988e+01 -2.103323936462401988e+01 -1.390357017517090066e+00 1.200000000000000000e+01
1.588192820549011008e+00 -2.073517322540283203e+00 -6.998466849327087402e-01 1.500000000000000000e+01
1.857183218002318892e+00 -2.426460742950439009e+00 -7.054464817047119141e-01 1.200000000000000000e+01
2.204622745513916016e+00 -2.881441593170166016e+00 -7.052300572395324707e-01 1.200000000000000000e+01
2.740334272384643999e+00 -3.584208488464355025e+00 -7.145926356315612793e-01 1.100000000000000000e+01
3.509386777877808061e+00 -4.593409538269042969e+00 -7.097670435905456543e-01 1.800000000000000000e+01
4.461108684539794922e+00 -5.841224193572998047e+00 -6.430350542068481445e-01 9.000000000000000000e+00
1.610715293884276988e+01 -2.110542678833008168e+01 -1.391403675079345925e+00 1.200000000000000000e+01
1.583283901214600053e+00 -2.082123994827270952e+00 -7.008819580078125000e-01 1.500000000000000000e+01
1.846343994140625000e+00 -2.429825544357299805e+00 -7.045466899871826172e-01 1.300000000000000000e+01
2.193363666534423828e+00 -2.887556314468383789e+00 -7.048484086990356445e-01 1.200000000000000000e+01
2.717057466506958008e+00 -3.579591035842895952e+00 -7.117767930030822754e-01 1.000000000000000000e+01
3.506527423858643022e+00 -4.623029232025145596e+00 -7.124481797218322754e-01 2.400000000000000000e+01
4.457544803619384766e+00 -5.878987312316895419e+00 -6.454754471778869629e-01 7.000000000000000000e+00
1.580662131309509055e+00 -2.093805313110352007e+00 -7.029525041580200195e-01 1.600000000000000000e+01
1.834330320358275923e+00 -2.431588411331177202e+00 -7.031970024108886719e-01 1.300000000000000000e+01
2.189181089401245117e+00 -2.903032541275023970e+00 -7.067565321922302246e-01 1.300000000000000000e+01
2.714056253433227983e+00 -3.601674318313599077e+00 -7.142797708511352539e-01 1.000000000000000000e+01
3.476039409637451172e+00 -4.616211891174316406e+00 -7.095233201980590820e-01 1.600000000000000000e+01
4.433401107788085938e+00 -5.889736175537109375e+00 -6.449524760246276855e-01 7.000000000000000000e+00
1.576027870178223100e+00 -2.102126836776732954e+00 -7.039877772331237793e-01 1.500000000000000000e+01
1.828593611717223899e+00 -2.440777063369750977e+00 -7.040967941284179688e-01 1.300000000000000000e+01
2.179542303085327148e+00 -2.910276174545288086e+00 -7.067565321922302246e-01 1.200000000000000000e+01
2.702097892761230025e+00 -3.610654830932617188e+00 -7.142797708511352539e-01 1.000000000000000000e+01
3.423858404159545898e+00 -4.578431606292724609e+00 -7.019674181938171387e-01 1.800000000000000000e+01
4.430546760559082031e+00 -5.926746368408203125e+00 -6.473928689956665039e-01 7.000000000000000000e+00
1.639816284179687855e+01 -2.195181083679198863e+01 -1.435993909835814986e+00 1.300000000000000000e+01
1.568680405616760032e+00 -2.107615470886230025e+00 -7.039877772331237793e-01 1.500000000000000000e+01
1.816573619842529075e+00 -2.442454338073730025e+00 -7.027471065521240234e-01 1.100000000000000000e+01
2.167027473449707031e+00 -2.914715290069580078e+00 -7.059932947158813477e-01 1.300000000000000000e+01
2.689477920532227007e+00 -3.620064735412598100e+00 -7.142797708511352539e-01 1.000000000000000000e+01
3.327392578125000000e+00 -4.481971740722656250e+00 -6.853932142257690430e-01 1.900000000000000000e+01
4.411018848419188565e+00 -5.943775653839111328e+00 -6.475671529769897461e-01 7.000000000000000000e+00
1.554058551788330078e+00 -2.104027271270751953e+00 -7.008819580078125000e-01 1.600000000000000000e+01
1.815710067749022993e+00 -2.460071325302124023e+00 -7.058964371681213379e-01 1.300000000000000000e+01
2.160992383956909180e+00 -2.928957462310791016e+00 -7.075197696685791016e-01 1.600000000000000000e+01
2.673847198486328125e+00 -3.626718044281005859e+00 -7.136540412902832031e-01 1.100000000000000000e+01
3.299168586730957031e+00 -4.478155136108398438e+00 -6.829558014869689941e-01 2.100000000000000000e+01
4.375026702880859375e+00 -5.940651416778563565e+00 -6.454754471778869629e-01 1.200000000000000000e+01
1.730372047424316051e+01 -2.351312637329101918e+01 -1.529989361763000044e+00 1.400000000000000000e+01
1.545562386512755904e+00 -2.107881069183350053e+00 -7.003643512725830078e-01 1.400000000000000000e+01
1.801352977752685991e+00 -2.458534717559814009e+00 -7.036468982696533203e-01 1.100000000000000000e+01
2.150755167007445845e+00 -2.936482906341553178e+00 -7.075197696685791016e-01 1.700000000000000000e+01
2.663504600524901900e+00 -3.639217376708983931e+00 -7.142797708511352539e-01 1.000000000000000000e+01
3.274142026901245117e+00 -4.476825714111328125e+00 -6.810058951377868652e-01 2.100000000000000000e+01
4.351911544799804688e+00 -5.952670097351074219e+00 -6.451268196105957031e-01 1.100000000000000000e+01
2.847899246215819957e+01 -3.901152420043945312e+01 -8.430908322334289551e-01 1.300000000000000000e+01
1.547290086746216042e+00 -2.125758647918701172e+00 -7.045054435729980469e-01 1.400000000000000000e+01
1.793906331062316895e+00 -2.466383457183837891e+00 -7.040967941284179688e-01 1.200000000000000000e+01
2.142800807952880859e+00 -2.947148323059082031e+00 -7.082830071449279785e-01 1.600000000000000000e+01
2.650785207748413086e+00 -3.648492574691772017e+00 -7.142797708511352539e-01 1.000000000000000000e+01
3.299313783645629883e+00 -4.544450759887695312e+00 -6.895367503166198730e-01 1.700000000000000000e+01
4.310041904449462891e+00 -5.938800334930419922e+00 -6.419891715049743652e-01 1.300000000000000000e+01
1.542123198509216087e+00 -2.134278297424315962e+00 -7.055407166481018066e-01 1.500000000000000000e+01
1.788708448410033958e+00 -2.477370262145996094e+00 -7.054464817047119141e-01 1.200000000000000000e+01
2.130202293395996094e+00 -2.951426267623900923e+00 -7.075197696685791016e-01 1.600000000000000000e+01
2.647277355194091797e+00 -3.670540571212768999e+00 -7.167826890945434570e-01 1.100000000000000000e+01
3.202186107635498047e+00 -4.443208694458007812e+00 -6.724750399589538574e-01 2.200000000000000000e+01
4.297437667846679688e+00 -5.965124607086181641e+00 -6.432093977928161621e-01 9.000000000000000000e+00
1.533537864685059038e+00 -2.138078689575194868e+00 -7.050230503082275391e-01 1.500000000000000000e+01
1.777779459953308105e+00 -2.480431079864501953e+00 -7.045466899871826172e-01 1.100000000000000000e+01
2.119886875152587891e+00 -2.958844184875487837e+00 -7.075197696685791016e-01 1.700000000000000000e+01
2.643647909164429155e+00 -3.692608356475830078e+00 -7.192856669425964355e-01 1.000000000000000000e+01
3.193587064743041992e+00 -4.464046478271484375e+00 -6.739374399185180664e-01 2.200000000000000000e+01
4.305563449859619141e+00 -6.020604610443115234e+00 -6.475671529769897461e-01 7.000000000000000000e+00
1.519342422485352007e+00 -2.133976221084595171e+00 -7.019172310829162598e-01 1.400000000000000000e+01
1.773629069328308105e+00 -2.492973089218140093e+00 -7.063463330268859863e-01 1.100000000000000000e+01
2.112959384918212891e+00 -2.971025705337523970e+00 -7.086645960807800293e-01 1.500000000000000000e+01
2.626165151596068892e+00 -3.695373296737670898e+00 -7.180342078208923340e-01 1.000000000000000000e+01
3.229706287384033203e+00 -4.547999858856201172e+00 -6.849057078361511230e-01 1.700000000000000000e+01
4.289134502410888672e+00 -6.042096138000488281e+00 -6.482644081115722656e-01 9.000000000000000000e+00
1.516344070434570090e+00 -2.145577192306518999e+00 -7.039877772331237793e-01 1.500000000000000000e+01
1.769412755966186968e+00 -2.505516290664672852e+00 -7.081459164619445801e-01 1.100000000000000000e+01
2.102575540542602983e+00 -2.978383064270019975e+00 -7.086645960807800293e-01 1.400000000000000000e+01
2.606417894363402876e+00 -3.694832801818848100e+00 -7.161569595336914062e-01 1.100000000000000000e+01
3.269852876663208008e+00 -4.638748645782470703e+00 -6.968489289283752441e-01 1.400000000000000000e+01
4.251950740814208984e+00 -6.034229755401611328e+00 -6.458240747451782227e-01 1.100000000000000000e+01
1.509954810142517090e+00 -2.152438640594481978e+00 -7.045054435729980469e-01 1.500000000000000000e+01
1.753944516181946023e+00 -2.502103090286254883e+00 -7.054464817047119141e-01 1.000000000000000000e+01
2.095546245574951172e+00 -2.990527868270874023e+00 -7.098094820976257324e-01 1.400000000000000000e+01
2.604834794998168945e+00 -3.720089673995972124e+00 -7.192856669425964355e-01 1.000000000000000000e+01
3.170564174652100053e+00 -4.531400680541992188e+00 -6.790559887886047363e-01 1.500000000000000000e+01
4.232003211975097656e+00 -6.050667762756347656e+00 -6.459983587265014648e-01 7.000000000000000000e+00
1.656847381591796875e+01 -2.370623588562012074e+01 -1.515753984451293945e+00 1.400000000000000000e+01
1.510159611701965110e+00 -2.168793916702270952e+00 -7.081289291381835938e-01 1.500000000000000000e+01
1.756330013275146040e+00 -2.524206399917602983e+00 -7.099454998970031738e-01 1.000000000000000000e+01
2.086215496063231978e+00 -2.999436140060424805e+00 -7.101910710334777832e-01 1.400000000000000000e+01
2.586196660995482954e+00 -3.721049308776855025e+00 -7.177213430404663086e-01 1.100000000000000000e+01
3.227197647094727007e+00 -4.646789073944091797e+00 -6.946552395820617676e-01 1.500000000000000000e+01
4.232445240020751953e+00 -6.096499443054199219e+00 -6.493102908134460449e-01 9.000000000000000000e+00
1.638316345214844105e+01 -2.361623191833496094e+01 -1.506333470344543013e+00 1.400000000000000000e+01
1.498186469078063965e+00 -2.167695283889770952e+00 -7.060583829879760742e-01 1.500000000000000000e+01
1.740863680839539018e+00 -2.520700931549071822e+00 -7.072461247444152832e-01 1.000000000000000000e+01
2.072386741638184038e+00 -3.001853227615356001e+00 -7.090462446212768555e-01 1.300000000000000000e+01
2.581043958663939986e+00 -3.741436004638671875e+00 -7.199113965034484863e-01 1.100000000000000000e+01
3.263910293579102007e+00 -4.734842300415039062e+00 -7.061109542846679688e-01 1.800000000000000000e+01
4.179484367370604581e+00 -6.065299510955811435e+00 -6.444295644760131836e-01 7.000000000000000000e+00
1.624852371215819957e+01 -2.359760665893555043e+01 -1.501518607139586958e+00 1.400000000000000000e+01
1.486239314079284890e+00 -2.166539669036864790e+00 -7.039877772331237793e-01 1.600000000000000000e+01
1.740868687629699929e+00 -2.539621114730834961e+00 -7.108453512191772461e-01 1.100000000000000000e+01
2.064115047454833984e+00 -3.012307882308959961e+00 -7.098094820976257324e-01 1.400000000000000000e+01
2.567968130111693892e+00 -3.750422716140747070e+00 -7.199113965034484863e-01 1.000000000000000000e+01
3.205888032913208008e+00 -4.685588836669921875e+00 -6.970926523208618164e-01 1.900000000000000000e+01
4.188655853271484375e+00 -6.124254226684570312e+00 -6.491359472274780273e-01 6.000000000000000000e+00
1.620662307739258168e+01 -2.371354293823241832e+01 -1.505286812782288042e+00 1.400000000000000000e+01
1.476493120193481001e+00 -2.168520689010620117e+00 -7.029525041580200195e-01 1.600000000000000000e+01
1.727608323097229004e+00 -2.539237499237060991e+00 -7.090457081794738770e-01 1.100000000000000000e+01
2.060212135314940962e+00 -3.029235124588013139e+00 -7.120991945266723633e-01 1.300000000000000000e+01
2.552640438079833984e+00 -3.756096363067626953e+00 -7.192856669425964355e-01 1.100000000000000000e+01
3.167208433151245117e+00 -4.663906574249267578e+00 -6.922178864479064941e-01 2.400000000000000000e+01
4.114658355712890625e+00 -6.061360836029052734e+00 -6.409433484077453613e-01 6.000000000000000000e+00
1.606993293762207031e+01 -2.369063186645508168e+01 -1.500262498855591042e+00 1.400000000000000000e+01
1.476486325263977051e+00 -2.184865713119506836e+00 -7.065759897232055664e-01 1.400000000000000000e+01
1.718734264373779075e+00 -2.545252561569213867e+00 -7.090457081794738770e-01 1.200000000000000000e+01
2.047428846359252930e+00 -3.033153533935546875e+00 -7.113359570503234863e-01 1.300000000000000000e+01
2.543931961059569868e+00 -3.771534442901610884e+00 -7.205371260643005371e-01 1.000000000000000000e+01
3.130938529968262163e+00 -4.645304203033447266e+00 -6.878305673599243164e-01 1.500000000000000000e+01
4.100154876708984375e+00 -6.085600852966308594e+00 -6.419891715049743652e-01 7.000000000000000000e+00
1.600944709777832031e+01 -2.377971839904785156e+01 -1.502355933189392090e+00 1.400000000000000000e+01
1.473155021667480025e+00 -2.196424007415771040e+00 -7.086465358734130859e-01 1.400000000000000000e+01
1.709839224815369096e+00 -2.551236629486083984e+00 -7.090457081794738770e-01 1.100000000000000000e+01
2.037921428680419922e+00 -3.041913032531737837e+00 -7.117175459861755371e-01 1.100000000000000000e+01
2.537344932556151900e+00 -3.790240526199340820e+00 -7.224143743515014648e-01 1.000000000000000000e+01
3.119119167327880859e+00 -4.662804603576660156e+00 -6.888055205345153809e-01 1.700000000000000000e+01
4.108789443969726562e+00 -6.144593715667724609e+00 -6.466956138610839844e-01 6.000000000000000000e+00
1.590858840942382990e+01 -2.380888557434082031e+01 -1.500681161880492942e+00 1.400000000000000000e+01
2.815062713623046875e+01 -4.216224288940429688e+01 -8.849068284034729004e-01 1.300000000000000000e+01
1.464408636093140093e+00 -2.199944734573363814e+00 -7.081289291381835938e-01 1.500000000000000000e+01
1.700923323631287065e+00 -2.557189464569091797e+00 -7.090457081794738770e-01 1.200000000000000000e+01
2.025116682052611861e+00 -3.045738458633422852e+00 -7.109543085098266602e-01 1.000000000000000000e+01
2.529564857482910156e+00 -3.807301044464110884e+00 -7.239786982536315918e-01 1.100000000000000000e+01
3.073179006576538086e+00 -4.629011154174804688e+00 -6.822245717048645020e-01 1.500000000000000000e+01
4.096129417419433594e+00 -6.172179222106933594e+00 -6.480901241302490234e-01 7.000000000000000000e+00
1.580330657958984020e+01 -2.383098220825194957e+01 -1.498587727546691895e+00 1.400000000000000000e+01
1.447136759757996050e+00 -2.190536260604857954e+00 -7.034701704978942871e-01 1.400000000000000000e+01
1.698428273200988992e+00 -2.572869300842285156e+00 -7.117451429367065430e-01 1.100000000000000000e+01
2.011228799819945845e+00 -3.047873020172119141e+00 -7.098094820976257324e-01 9.000000000000000000e+00
2.510822296142578125e+00 -3.807862043380736861e+00 -7.224143743515014648e-01 1.000000000000000000e+01
3.091951847076416016e+00 -4.692754745483398438e+00 -6.900241971015930176e-01 5.400000000000000000e+01
4.090998172760009766e+00 -6.211398601531982422e+00 -6.507048010826110840e-01 6.000000000000000000e+00
1.567830085754395064e+01 -2.382260131835937855e+01 -1.494610190391540971e+00 1.400000000000000000e+01
1.441600084304810014e+00 -2.198805570602416992e+00 -7.045054435729980469e-01 1.500000000000000000e+01
1.687301039695739968e+00 -2.575522184371947798e+00 -7.108453512191772461e-01 1.200000000000000000e+01
2.014559984207152876e+00 -3.076226234436035156e+00 -7.147704958915710449e-01 1.000000000000000000e+01
2.491025209426879883e+00 -3.806685686111450195e+00 -7.205371260643005371e-01 1.000000000000000000e+01
3.073379278182982954e+00 -4.700195789337158203e+00 -6.895367503166198730e-01 4.300000000000000000e+01
4.280767917633056641e+00 -6.549180984497070312e+00 -6.845211982727050781e-01 5.000000000000000000e+00
1.555573177337645951e+01 -2.381698608398437855e+01 -1.490842103958130105e+00 1.400000000000000000e+01
1.440237402915955034e+00 -2.213539838790893999e+00 -7.076112627983093262e-01 1.500000000000000000e+01
1.676176071166991965e+00 -2.578128576278686968e+00 -7.099454998970031738e-01 1.400000000000000000e+01
2.003809690475463867e+00 -3.083239555358887163e+00 -7.147704958915710449e-01 1.000000000000000000e+01
2.486329317092895952e+00 -3.828611135482788086e+00 -7.230401039123535156e-01 1.000000000000000000e+01
2.649532127380371094e+01 -4.081481170654296875e+01 5.974766254425048828e+00 4.900000000000000000e+01
3.081807136535644975e+00 -4.749195575714111328e+00 -6.951427459716796875e-01 2.100000000000000000e+01
4.302335739135742188e+00 -6.632616519927979404e+00 -6.916679739952087402e-01 6.000000000000000000e+00
1.544425487518311080e+01 -2.382756423950194957e+01 -1.488120555877685991e+00 1.400000000000000000e+01
2.772467231750487926e+01 -4.282303237915039062e+01 1.366926860809325994e+01 1.600000000000000000e+01
1.433549880981445090e+00 -2.220176696777344194e+00 -7.081289291381835938e-01 1.600000000000000000e+01
1.662940502166748047e+00 -2.577413797378540039e+00 -7.081459164619445801e-01 1.100000000000000000e+01
1.990906715393065962e+00 -3.086915493011475053e+00 -7.140072584152221680e-01 9.000000000000000000e+00
2.477230072021483931e+00 -3.843908548355102983e+00 -7.242915630340576172e-01 1.000000000000000000e+01
3.038341760635375977e+00 -4.718199729919433594e+00 -6.890492439270019531e-01 4.700000000000000000e+01
4.226315021514892578e+00 -6.565504074096679688e+00 -6.831266880035400391e-01 5.000000000000000000e+00
1.530696392059325994e+01 -2.379734039306640980e+01 -1.482887029647826926e+00 1.300000000000000000e+01
1.422664523124695046e+00 -2.220287322998046875e+00 -7.065759897232055664e-01 1.500000000000000000e+01
1.656035065650939941e+00 -2.586485147476195845e+00 -7.090457081794738770e-01 1.000000000000000000e+01
1.982235908508301003e+00 -3.097153425216674805e+00 -7.147704958915710449e-01 1.000000000000000000e+01
2.468054294586182085e+00 -3.859189033508300781e+00 -7.255430221557617188e-01 1.100000000000000000e+01
3.023991346359252930e+00 -4.732121944427490234e+00 -6.895367503166198730e-01 3.600000000000000000e+01
4.205516338348388672e+00 -6.583574771881104404e+00 -6.834753155708312988e-01 4.000000000000000000e+00
1.520446014404297053e+01 -2.382032394409180043e+01 -1.481002926826477051e+00 1.300000000000000000e+01
1.410759329795836958e+00 -2.218719005584716797e+00 -7.045054435729980469e-01 1.200000000000000000e+01
1.653266787528991921e+00 -2.602118968963623047e+00 -7.117451429367065430e-01 1.100000000000000000e+01
1.964044928550719993e+00 -3.092453002929687944e+00 -7.120991945266723633e-01 9.000000000000000000e+00
2.450334310531616211e+00 -3.861109018325806108e+00 -7.242915630340576172e-01 1.000000000000000000e+01
3.077618122100830078e+00 -4.853293895721436435e+00 -7.056235074996948242e-01 1.600000000000000000e+01
4.234777927398681641e+00 -6.680671215057373047e+00 -6.920166015625000000e-01 5.000000000000000000e+00
1.514045619964599965e+01 -2.390362358093262074e+01 -1.482887029647826926e+00 1.300000000000000000e+01
1.404036879539489968e+00 -2.225263833999633789e+00 -7.050230503082275391e-01 1.300000000000000000e+01
1.648330807685852051e+00 -2.614468097686768022e+00 -7.135447263717651367e-01 1.100000000000000000e+01
1.958472132682800071e+00 -3.107594728469849077e+00 -7.140072584152221680e-01 1.000000000000000000e+01
2.434736251831055132e+00 -3.866295814514160156e+00 -7.236658334732055664e-01 1.000000000000000000e+01
2.529048156738280895e+01 -4.017615127563477273e+01 5.829010486602783203e+00 4.500000000000000000e+01
3.039513826370238814e+00 -4.830404281616210938e+00 -7.007487416267395020e-01 2.100000000000000000e+01
4.222040176391601562e+00 -6.712277889251708984e+00 -6.937597393989562988e-01 5.000000000000000000e+00
1.498465251922607067e+01 -2.384133911132812855e+01 -1.475769281387329102e+00 1.300000000000000000e+01
2.678921508789062855e+01 -4.267256927490233664e+01 1.350051879882813033e+01 1.600000000000000000e+01
1.400361299514770952e+00 -2.236700773239136186e+00 -7.070936560630798340e-01 1.300000000000000000e+01
1.628859162330626997e+00 -2.603685140609741211e+00 -7.090457081794738770e-01 1.100000000000000000e+01
1.951776385307312012e+00 -3.121070384979248047e+00 -7.155337333679199219e-01 1.000000000000000000e+01
2.427506446838378906e+00 -3.884822368621826172e+00 -7.255430221557617188e-01 1.000000000000000000e+01
3.014223098754882812e+00 -4.827514171600341797e+00 -6.987988352775573730e-01 3.800000000000000000e+01
3.817757844924927202e+00 -6.116814136505126953e+00 -6.308332681655883789e-01 3.000000000000000000e+00
1.488020133972167969e+01 -2.385960769653319957e+01 -1.473675847053528054e+00 1.300000000000000000e+01
2.642073631286621094e+01 -4.239719009399414062e+01 1.338560295104979936e+01 1.600000000000000000e+01
1.399681329727173074e+00 -2.253062248229980025e+00 -7.107170820236206055e-01 1.300000000000000000e+01
1.624899506568908913e+00 -2.617633342742919922e+00 -7.112952470779418945e-01 9.000000000000000000e+00
1.933624029159545898e+00 -3.116187095642089844e+00 -7.128624320030212402e-01 1.100000000000000000e+01
2.411849260330200195e+00 -3.889914512634276900e+00 -7.249172925949096680e-01 1.000000000000000000e+01
2.994217157363892046e+00 -4.832943916320800781e+00 -6.980676054954528809e-01 4.000000000000000000e+01
4.154097080230712891e+00 -6.707712173461914062e+00 -6.902734637260437012e-01 3.000000000000000000e+00
1.475899028778075994e+01 -2.385026168823241832e+01 -1.469907641410828081e+00 1.300000000000000000e+01
2.618520736694335938e+01 -4.234785079956054688e+01 1.334108638763427912e+01 1.500000000000000000e+01
1.387753248214721902e+00 -2.251356124877930132e+00 -7.086465358734130859e-01 1.400000000000000000e+01
1.620862364768981934e+00 -2.631585597991942915e+00 -7.135447263717651367e-01 1.100000000000000000e+01
1.928910493850708008e+00 -3.132948398590087891e+00 -7.151521444320678711e-01 1.100000000000000000e+01
2.408606767654418945e+00 -3.915134429931641069e+00 -7.280460000038146973e-01 1.000000000000000000e+01
2.975249767303466797e+00 -4.839984416961669922e+00 -6.975800991058349609e-01 4.200000000000000000e+01
4.086847305297851562e+00 -6.650876045227050781e+00 -6.829524040222167969e-01 5.000000000000000000e+00
1.467773723602294922e+01 -2.390503883361816051e+01 -1.470116972923279031e+00 1.300000000000000000e+01
2.617461967468262074e+01 -4.266294097900391336e+01 1.341148567199707031e+01 1.600000000000000000e+01
1.375854372978210005e+00 -2.249594449996947798e+00 -7.065759897232055664e-01 1.500000000000000000e+01
1.611666560173034890e+00 -2.637227535247803178e+00 -7.135447263717651367e-01 1.100000000000000000e+01
1.915915846824645996e+00 -3.136311769485474077e+00 -7.143889069557189941e-01 1.100000000000000000e+01
2.396984100341796875e+00 -3.926890373229980025e+00 -7.286717295646667480e-01 1.000000000000000000e+01
2.970740795135498047e+00 -4.870676994323729581e+00 -7.005049586296081543e-01 2.600000000000000000e+01
4.094721317291259766e+00 -6.716135501861572266e+00 -6.881817579269409180e-01 6.000000000000000000e+00
1.373399257659912109e+00 -2.262401580810546875e+00 -7.091642022132873535e-01 1.600000000000000000e+01
1.602912306785583052e+00 -2.642557382583618164e+00 -7.135447263717651367e-01 1.100000000000000000e+01
1.909576535224914995e+00 -3.149362802505493164e+00 -7.159153223037719727e-01 1.100000000000000000e+01
2.377807378768920898e+00 -3.924680709838867188e+00 -7.267945408821105957e-01 1.000000000000000000e+01
2.987469911575316939e+00 -4.934842586517333984e+00 -7.083046436309814453e-01 1.600000000000000000e+01
4.198272228240966797e+00 -6.937635898590087891e+00 -7.094477415084838867e-01 6.000000000000000000e+00
1.367487072944640891e+00 -2.270491600036621094e+00 -7.101994752883911133e-01 1.600000000000000000e+01
1.590663790702820046e+00 -2.643127441406250000e+00 -7.121950387954711914e-01 1.000000000000000000e+01
1.900595664978026900e+00 -3.159373998641968218e+00 -7.166785597801208496e-01 1.100000000000000000e+01
2.366128683090209961e+00 -3.936342954635620117e+00 -7.274202704429626465e-01 1.000000000000000000e+01
2.962049007415771040e+00 -4.931626796722412109e+00 -7.063547372817993164e-01 1.800000000000000000e+01
4.175055503845214844e+00 -6.953956604003906250e+00 -7.096220850944519043e-01 8.000000000000000000e+00
2.615108299255371094e+01 -4.362612915039063211e+01 1.362889289855957031e+01 1.600000000000000000e+01
1.361932754516602007e+00 -2.278330087661743164e+00 -7.112347483634948730e-01 1.500000000000000000e+01
1.579891443252563032e+00 -2.645041704177856001e+00 -7.112952470779418945e-01 9.000000000000000000e+00
1.890108346939086914e+00 -3.165659189224243164e+00 -7.166785597801208496e-01 1.100000000000000000e+01
2.363182783126831055e+00 -3.961131811141968218e+00 -7.305489778518676758e-01 1.100000000000000000e+01
2.937547206878662109e+00 -4.927781581878662109e+00 -7.044048309326171875e-01 1.600000000000000000e+01
4.158092021942138672e+00 -6.978032588958740234e+00 -7.106679081916809082e-01 8.000000000000000000e+00
1.432438755035400035e+01 -2.405801582336426137e+01 -1.467395544052124023e+00 1.300000000000000000e+01
2.597889137268066051e+01 -4.368393707275391336e+01 1.361854076385498047e+01 1.600000000000000000e+01
1.351015329360961914e+00 -2.278085470199584961e+00 -7.096818089485168457e-01 1.500000000000000000e+01
1.578596591949462891e+00 -2.663952589035034180e+00 -7.148944735527038574e-01 1.000000000000000000e+01
1.878046035766602007e+00 -3.170548439025878906e+00 -7.162969708442687988e-01 1.000000000000000000e+01
2.349341630935668945e+00 -3.969356775283813032e+00 -7.305489778518676758e-01 1.200000000000000000e+01
2.397094154357910156e+01 -4.051650619506835938e+01 5.780262947082520419e+00 4.400000000000000000e+01
2.900118350982666016e+00 -4.903832435607910156e+00 -6.995300054550170898e-01 1.500000000000000000e+01
4.129652976989746094e+00 -6.985644340515136719e+00 -7.099706530570983887e-01 7.000000000000000000e+00
1.424032211303710938e+01 -2.410787010192871094e+01 -1.467395544052124023e+00 1.300000000000000000e+01
2.604809951782226918e+01 -4.415038681030272727e+01 1.373552703857422053e+01 1.600000000000000000e+01
1.339136600494384988e+00 -2.276127338409423828e+00 -7.076112627983093262e-01 1.400000000000000000e+01
1.569288015365601030e+00 -2.669446706771851030e+00 -7.148944735527038574e-01 9.000000000000000000e+00
1.867962002754210982e+00 -3.178777456283568892e+00 -7.166785597801208496e-01 1.100000000000000000e+01
2.337471961975098100e+00 -3.980940103530883789e+00 -7.311747074127197266e-01 1.100000000000000000e+01
2.918141365051269975e+00 -4.973851680755615234e+00 -7.080608606338500977e-01 1.600000000000000000e+01
4.066942691802979404e+00 -6.934708595275878906e+00 -7.033468484878540039e-01 5.000000000000000000e+00
1.407530117034911932e+01 -2.401957702636719105e+01 -1.459021806716918945e+00 1.300000000000000000e+01
1.332157135009766069e+00 -2.282456398010253906e+00 -7.081289291381835938e-01 1.400000000000000000e+01
1.557996869087219016e+00 -2.671541452407836914e+00 -7.139946222305297852e-01 1.000000000000000000e+01
1.859820842742919922e+00 -3.190366744995117188e+00 -7.178234457969665527e-01 1.000000000000000000e+01
2.321573257446289062e+00 -3.985661268234252930e+00 -7.305489778518676758e-01 1.100000000000000000e+01
2.368750190734862926e+01 -4.068286895751953125e+01 5.780262947082520419e+00 4.400000000000000000e+01
2.864814281463623047e+00 -4.922243595123291016e+00 -6.992862820625305176e-01 1.400000000000000000e+01
4.023674964904785156e+00 -6.916141510009765625e+00 -7.000349164009094238e-01 5.000000000000000000e+00
1.397129631042479936e+01 -2.403402709960937855e+01 -1.456928372383117898e+00 1.300000000000000000e+01
1.321847200393676980e+00 -2.283979654312133789e+00 -7.070936560630798340e-01 1.400000000000000000e+01
1.548194766044616921e+00 -2.677233695983887163e+00 -7.139946222305297852e-01 1.200000000000000000e+01
1.851062536239624023e+00 -3.202260971069335938e+00 -7.189682722091674805e-01 1.100000000000000000e+01
2.306949377059936968e+00 -3.994143486022949219e+00 -7.305489778518676758e-01 1.100000000000000000e+01
2.838816165924071822e+00 -4.918956279754638672e+00 -6.973363757133483887e-01 1.500000000000000000e+01
4.013232707977294922e+00 -6.956729888916015625e+00 -7.026495933532714844e-01 5.000000000000000000e+00
1.384920120239257990e+01 -2.402624130249023082e+01 -1.453369498252869096e+00 1.300000000000000000e+01
1.327332258224487083e+00 -2.312035083770751953e+00 -7.143405675888061523e-01 1.400000000000000000e+01
1.537870407104491965e+00 -2.680931329727172852e+00 -7.135447263717651367e-01 1.000000000000000000e+01
1.834990382194519043e+00 -3.200187206268310991e+00 -7.170602083206176758e-01 1.000000000000000000e+01
2.296921253204346147e+00 -4.009027957916259766e+00 -7.318004369735717773e-01 1.100000000000000000e+01
2.851215600967406782e+00 -4.980518341064453125e+00 -7.046485543251037598e-01 1.800000000000000000e+01
3.974081277847290039e+00 -6.944756984710693359e+00 -7.000349164009094238e-01 4.000000000000000000e+00
1.371964645385742010e+01 -2.399468040466308949e+01 -1.448554635047913042e+00 1.300000000000000000e+01
2.618969726562500000e+01 -4.585961532592772727e+01 1.415067291259765980e+01 1.700000000000000000e+01
1.310649871826172097e+00 -2.301545619964600053e+00 -7.096818089485168457e-01 1.500000000000000000e+01
1.532357811927794966e+00 -2.693058013916016069e+00 -7.153443694114685059e-01 1.100000000000000000e+01
1.824779152870178001e+00 -3.208279609680175781e+00 -7.174417972564697266e-01 1.100000000000000000e+01
2.288769245147705078e+00 -4.027325630187988281e+00 -7.336776256561279297e-01 1.100000000000000000e+01
2.823030471801757812e+00 -4.971452713012695312e+00 -7.019674181938171387e-01 1.600000000000000000e+01
3.949815273284912109e+00 -6.958587169647216797e+00 -7.000349164009094238e-01 3.000000000000000000e+00
1.361609935760498047e+01 -2.400767898559569957e+01 -1.446461200714111106e+00 1.300000000000000000e+01
1.301657795906066895e+00 -2.304424762725830078e+00 -7.091642022132873535e-01 1.600000000000000000e+01
1.530610561370850053e+00 -2.711967468261719194e+00 -7.189435958862304688e-01 1.000000000000000000e+01
1.815498352050781028e+00 -3.218049526214600053e+00 -7.182050347328186035e-01 1.100000000000000000e+01
2.272757291793822798e+00 -4.031848907470703125e+00 -7.330518960952758789e-01 1.100000000000000000e+01
2.817349910736083984e+00 -5.002031803131104404e+00 -7.048922777175903320e-01 2.000000000000000000e+01
3.905951976776123047e+00 -6.937609195709229404e+00 -6.965487003326416016e-01 3.000000000000000000e+00
1.355767440795898082e+01 -2.410032081604003906e+01 -1.449182629585265891e+00 1.300000000000000000e+01
2.576740264892578125e+01 -4.582322692871093750e+01 1.213700962066650035e+01 1.600000000000000000e+01
2.618496513366698863e+01 -4.660386276245117188e+01 1.432356357574463068e+01 1.800000000000000000e+01
1.294550180435181108e+00 -2.310639619827270952e+00 -7.096818089485168457e-01 1.500000000000000000e+01
1.517327070236206055e+00 -2.710492134094237837e+00 -7.171439528465270996e-01 1.100000000000000000e+01
1.807130217552185059e+00 -3.229506969451903853e+00 -7.193499207496643066e-01 1.000000000000000000e+01
2.250957489013671875e+00 -4.025964260101318359e+00 -7.305489778518676758e-01 1.100000000000000000e+01
2.795999765396118164e+00 -5.004903793334960938e+00 -7.039173245429992676e-01 2.200000000000000000e+01
3.987593889236450195e+00 -7.140810966491699219e+00 -7.155486345291137695e-01 4.000000000000000000e+00
1.348514366149901988e+01 -2.416842842102051137e+01 -1.450438737869262917e+00 1.300000000000000000e+01
1.285538315773010032e+00 -2.313455820083618164e+00 -7.091642022132873535e-01 1.500000000000000000e+01
1.500288844108581987e+00 -2.702142000198363814e+00 -7.135447263717651367e-01 1.000000000000000000e+01
1.796798944473267046e+00 -3.237512111663817915e+00 -7.197315096855163574e-01 1.000000000000000000e+01
2.238806724548339844e+00 -4.037251949310302734e+00 -7.311747074127197266e-01 1.100000000000000000e+01
2.807375192642211914e+00 -5.066724300384520596e+00 -7.112295031547546387e-01 1.800000000000000000e+01
3.960712909698485884e+00 -7.151201248168945312e+00 -7.152000069618225098e-01 4.000000000000000000e+00
1.334460830688476918e+01 -2.411399650573730113e+01 -1.444367766380310059e+00 1.300000000000000000e+01
2.564777183532714844e+01 -4.640341567993164062e+01 1.420657730102539062e+01 1.700000000000000000e+01
1.286779522895812988e+00 -2.334848165512084961e+00 -7.143405675888061523e-01 1.500000000000000000e+01
1.492727398872375044e+00 -2.710776567459106001e+00 -7.144445776939392090e-01 1.100000000000000000e+01
1.787380337715148926e+00 -3.247204065322875977e+00 -7.204947471618652344e-01 9.000000000000000000e+00
2.230412006378173828e+00 -4.055427551269531250e+00 -7.330518960952758789e-01 1.100000000000000000e+01
2.784891843795775923e+00 -5.067794322967529297e+00 -7.100107669830322266e-01 2.000000000000000000e+01
3.937644958496094194e+00 -7.168475627899169922e+00 -7.155486345291137695e-01 5.000000000000000000e+00
1.326611900329590021e+01 -2.417093658447265980e+01 -1.444995760917664018e+00 1.300000000000000000e+01
2.564423370361328125e+01 -4.676261901855468750e+01 1.429043483734131037e+01 1.800000000000000000e+01
1.274915337562561035e+00 -2.332545042037963867e+00 -7.122700214385986328e-01 1.400000000000000000e+01
1.569793605804443004e+01 -2.873236274719237926e+01 5.714964866638183594e-01 2.400000000000000000e+01
1.488860249519347922e+00 -2.726232528686522993e+00 -7.171439528465270996e-01 1.100000000000000000e+01
1.773212432861327903e+00 -3.248253822326660156e+00 -7.193499207496643066e-01 1.000000000000000000e+01
2.221917629241942915e+00 -4.073593616485595703e+00 -7.349291443824768066e-01 1.100000000000000000e+01
2.736786603927611861e+00 -5.021707057952880859e+00 -7.022111415863037109e-01 2.000000000000000000e+01
3.938332796096802202e+00 -7.229416370391845703e+00 -7.202550768852233887e-01 6.000000000000000000e+00
1.319503307342528942e+01 -2.424165534973144887e+01 -1.446461200714111106e+00 1.300000000000000000e+01
2.508513832092285156e+01 -4.614344406127929688e+01 1.407302665710449041e+01 1.700000000000000000e+01
1.261241793632507102e+00 -2.326790809631348100e+00 -7.091642022132873535e-01 1.300000000000000000e+01
1.479334831237792969e+00 -2.731413125991820845e+00 -7.171439528465270996e-01 1.100000000000000000e+01
1.764667153358459029e+00 -3.259603261947631836e+00 -7.204947471618652344e-01 9.000000000000000000e+00
2.207684755325316939e+00 -4.081324577331542969e+00 -7.349291443824768066e-01 1.200000000000000000e+01
2.295720100402832031e+01 -4.245845413208007812e+01 5.926506042480468750e+00 4.800000000000000000e+01
2.706027030944824219e+00 -5.006780624389648438e+00 -6.987988352775573730e-01 2.100000000000000000e+01
3.597716808319091797e+00 -6.659393310546875000e+00 -6.622093319892883301e-01 3.000000000000000000e+00
1.311033439636229936e+01 -2.428756713867187855e+01 -1.446461200714111106e+00 1.300000000000000000e+01
1.563432788848876953e+01 -2.898759841918944957e+01 -5.748822689056396484e-01 5.000000000000000000e+00
2.500718307495116832e+01 -4.636580276489257812e+01 1.411547279357909979e+01 1.700000000000000000e+01
1.257685542106627974e+00 -2.339687108993529829e+00 -7.117523550987243652e-01 1.400000000000000000e+01
1.551021575927734020e+01 -2.886591529846191051e+01 5.719851851463317871e-01 2.400000000000000000e+01
1.473479747772217019e+00 -2.743427276611328125e+00 -7.189435958862304688e-01 1.000000000000000000e+01
1.533860111236572088e+01 -2.857043838500976918e+01 1.699453115463257058e+00 1.700000000000000000e+01
1.756992816925049050e+00 -3.272662162780762163e+00 -7.220212221145629883e-01 9.000000000000000000e+00
