-2.437024116516112837e+00 -1.104457616806030051e+00 -7.169287800788879395e-01 2.100000000000000000e+01
-2.859923601150513139e+00 -1.294912219047545943e+00 -7.247923016548156738e-01 1.300000000000000000e+01
-3.419823646545410156e+00 -1.547703862190247026e+00 -7.296535968780517578e-01 1.200000000000000000e+01
-4.278454780578613281e+00 -1.934493899345397949e+00 -7.436894178390502930e-01 1.200000000000000000e+01
-5.760101318359375000e+00 -2.601995706558227983e+00 -7.760639786720275879e-01 9.000000000000000000e+00
-8.825129508972167969e+00 -3.984698772430419922e+00 -8.471538424491882324e-01 1.000000000000000000e+00
-1.261308383941650035e+01 -5.689726352691650391e+00 -7.251670360565185547e-01 1.200000000000000000e+01
-4.705793380737304688e+01 -2.120793342590332031e+01 -9.009630084037780762e-01 1.400000000000000000e+01
-2.439102172851562944e+00 -1.095152735710144043e+00 -7.164111137390136719e-01 1.900000000000000000e+01
-2.859091997146606001e+00 -1.282528519630431907e+00 -7.234426140785217285e-01 1.200000000000000000e+01
-3.423413991928101030e+00 -1.534953713417053001e+00 -7.292720079421997070e-01 1.200000000000000000e+01
-4.281575679779052734e+00 -1.917932510375977007e+00 -7.430636882781982422e-01 1.100000000000000000e+01
-5.781832218170166016e+00 -2.587549686431885210e+00 -7.777701616287231445e-01 9.000000000000000000e+00
-8.849897384643554688e+00 -3.958750247955321822e+00 -8.481996655464172363e-01 1.000000000000000000e+00
-1.265474891662598012e+01 -5.655442714691162109e+00 -7.264230847358703613e-01 1.200000000000000000e+01
-4.720471572875977273e+01 -2.107615280151366832e+01 -9.023592472076416016e-01 1.400000000000000000e+01
-2.446440458297729048e+00 -1.088202357292175071e+00 -7.174463868141174316e-01 1.900000000000000000e+01
-2.859989881515502930e+00 -1.270957827568053977e+00 -7.225427627563476562e-01 1.100000000000000000e+01
-3.428751230239868164e+00 -1.522994518280029075e+00 -7.292720079421997070e-01 1.200000000000000000e+01
-4.284633636474609375e+00 -1.901372790336609109e+00 -7.424379587173461914e-01 1.100000000000000000e+01
-5.796273708343505859e+00 -2.569765329360961914e+00 -7.785013914108276367e-01 9.000000000000000000e+00
-8.870947837829589844e+00 -3.931062936782836914e+00 -8.488969206809997559e-01 1.000000000000000000e+00
-1.276024913787841975e+01 -5.649235725402832031e+00 -7.313426733016967773e-01 8.000000000000000000e+00
-4.720484542846679688e+01 -2.087889289855957031e+01 -9.009630084037780762e-01 1.400000000000000000e+01
-2.457295417785644975e+00 -1.082771897315979004e+00 -7.195169329643249512e-01 1.900000000000000000e+01
-2.855491161346435991e+00 -1.257041096687316895e+00 -7.202932834625244141e-01 1.300000000000000000e+01
-3.432249546051024947e+00 -1.510225892066956010e+00 -7.288903594017028809e-01 1.100000000000000000e+01
-4.296669483184813565e+00 -1.888789892196655051e+00 -7.433765530586242676e-01 1.200000000000000000e+01
-5.774310111999511719e+00 -2.535947084426879883e+00 -7.743577957153320312e-01 1.100000000000000000e+01
-8.855425834655761719e+00 -3.887260198593140093e+00 -8.461079597473144531e-01 1.000000000000000000e+00
-1.278537750244140980e+01 -5.607066154479979581e+00 -7.316566705703735352e-01 1.200000000000000000e+01
-2.453977823257445845e+00 -1.071096539497375044e+00 -7.174463868141174316e-01 1.900000000000000000e+01
-2.875938177108765093e+00 -1.254076242446898970e+00 -7.243424057960510254e-01 1.100000000000000000e+01
-3.433900833129882812e+00 -1.496667146682739036e+00 -7.281271219253540039e-01 1.200000000000000000e+01
-4.317725181579589844e+00 -1.880089163780211958e+00 -7.458795309066772461e-01 1.200000000000000000e+01
-5.790408611297607422e+00 -2.518943071365356001e+00 -7.753327488899230957e-01 1.100000000000000000e+01
-8.872595787048339844e+00 -3.857914447784423828e+00 -8.464565873146057129e-01 1.000000000000000000e+00
-1.290196228027343928e+01 -5.604578495025634766e+00 -7.372042536735534668e-01 8.000000000000000000e+00
-4.723939132690429688e+01 -2.050107002258301137e+01 -8.988687396049499512e-01 1.400000000000000000e+01
-2.452381849288939986e+00 -1.060224175453186035e+00 -7.158935070037841797e-01 1.900000000000000000e+01
-2.880298376083374023e+00 -1.244029760360717995e+00 -7.243424057960510254e-01 1.200000000000000000e+01
-3.433696746826171875e+00 -1.482336997985840066e+00 -7.269822955131530762e-01 1.200000000000000000e+01
-4.317006111145020419e+00 -1.861876845359802024e+00 -7.446280717849731445e-01 1.200000000000000000e+01
-5.033282852172852273e+01 -2.169757080078125000e+01 6.729868888854979581e+00 5.800000000000000000e+01
-5.788227558135986328e+00 -2.494002342224121094e+00 -7.738703489303588867e-01 1.100000000000000000e+01
-8.878688812255859375e+00 -3.823767423629761186e+00 -8.457593321800231934e-01 1.000000000000000000e+00
-1.293062019348145064e+01 -5.563455104827880859e+00 -7.377276420593261719e-01 1.700000000000000000e+01
-4.731066513061522727e+01 -2.033604812622069957e+01 -8.988687396049499512e-01 1.400000000000000000e+01
-2.452516078948975053e+00 -1.050136566162108931e+00 -7.148581743240356445e-01 1.900000000000000000e+01
-2.879248142242432085e+00 -1.231668710708617942e+00 -7.229927182197570801e-01 1.200000000000000000e+01
-3.440655469894409180e+00 -1.471114039421081987e+00 -7.273638844490051270e-01 1.200000000000000000e+01
-4.305313110351563388e+00 -1.839036703109740989e+00 -7.414993643760681152e-01 1.200000000000000000e+01
-5.811504364013671875e+00 -2.480015516281127930e+00 -7.758202552795410156e-01 1.100000000000000000e+01
-8.877320289611816406e+00 -3.786498069763184038e+00 -8.443648219108581543e-01 1.000000000000000000e+00
-1.295731163024901988e+01 -5.521416664123535156e+00 -7.381463050842285156e-01 1.700000000000000000e+01
-5.072415924072266336e+01 -2.159384346008301137e+01 1.477183818817139027e+01 1.900000000000000000e+01
-2.468616485595703125e+00 -1.046848773956299050e+00 -7.184816598892211914e-01 1.700000000000000000e+01
-2.874558210372924805e+00 -1.217809796333312988e+00 -7.207431793212890625e-01 1.200000000000000000e+01
-3.445769548416138139e+00 -1.459094882011414018e+00 -7.273638844490051270e-01 1.200000000000000000e+01
-4.306248664855957031e+00 -1.821688294410706010e+00 -7.405607700347900391e-01 1.100000000000000000e+01
-5.798183917999267578e+00 -2.450441360473632812e+00 -7.728953957557678223e-01 1.100000000000000000e+01
-8.879471778869628906e+00 -3.750835657119750977e+00 -8.433189392089843750e-01 1.000000000000000000e+00
-1.302618885040283025e+01 -5.497119903564453125e+00 -7.409724593162536621e-01 1.700000000000000000e+01
-5.399930191040039062e+01 -2.277688789367676137e+01 1.353035640716552912e+01 2.000000000000000000e+01
-2.477599143981934038e+00 -1.040469288825988992e+00 -7.200345993041992188e-01 1.400000000000000000e+01
-2.878791570663452148e+00 -1.207768321037292036e+00 -7.207431793212890625e-01 1.100000000000000000e+01
-3.452652215957642046e+00 -1.447817206382751021e+00 -7.277455329895019531e-01 1.200000000000000000e+01
-4.323513031005859375e+00 -1.811225175857543945e+00 -7.424379587173461914e-01 1.100000000000000000e+01
-5.790221214294433594e+00 -2.423289537429810014e+00 -7.707017064094543457e-01 1.100000000000000000e+01
-8.881482124328613281e+00 -3.715204477310181108e+00 -8.422731161117553711e-01 1.000000000000000000e+00
-1.308215427398681996e+01 -5.467019081115722656e+00 -7.430658936500549316e-01 2.100000000000000000e+01
-2.477648496627808061e+00 -1.030331015586853027e+00 -7.189993262290954590e-01 1.500000000000000000e+01
-2.873991727828979048e+00 -1.193973898887634055e+00 -7.184936404228210449e-01 1.300000000000000000e+01
-3.444993019104003906e+00 -1.430486202239990012e+00 -7.250741720199584961e-01 1.200000000000000000e+01
-4.329809188842773438e+00 -1.796122312545775923e+00 -7.424379587173461914e-01 1.100000000000000000e+01
-5.807814121246337891e+00 -2.406862974166870117e+00 -7.719204425811767578e-01 1.100000000000000000e+01
-8.905441284179687500e+00 -3.688754558563231978e+00 -8.433189392089843750e-01 1.000000000000000000e+00
-1.313806819915770951e+01 -5.436594009399414062e+00 -7.451593279838562012e-01 2.500000000000000000e+01
-2.470511913299560991e+00 -1.017262816429137962e+00 -7.158935070037841797e-01 1.300000000000000000e+01
-2.892559766769409180e+00 -1.189865350723267046e+00 -7.220928668975830078e-01 1.300000000000000000e+01
-3.451781034469604048e+00 -1.419198751449584961e+00 -7.254558205604553223e-01 1.200000000000000000e+01
-4.328743457794188565e+00 -1.777995347976685014e+00 -7.411864995956420898e-01 1.100000000000000000e+01
-5.832708835601806641e+00 -2.393357515335083008e+00 -7.741140723228454590e-01 1.100000000000000000e+01
-8.896142005920410156e+00 -3.648573875427246094e+00 -8.412272334098815918e-01 1.000000000000000000e+00
-1.316990184783936080e+01 -5.396000862121582031e+00 -7.458920478820800781e-01 1.200000000000000000e+01
-5.132474136352539062e+01 -2.099750518798828125e+01 1.485880184173583984e+01 1.900000000000000000e+01
-2.482992172241210938e+00 -1.012279391288757102e+00 -7.184816598892211914e-01 1.300000000000000000e+01
-2.898500442504882812e+00 -1.180496215820312944e+00 -7.225427627563476562e-01 1.100000000000000000e+01
-3.458532333374022993e+00 -1.407881379127501997e+00 -7.258374094963073730e-01 1.100000000000000000e+01
-4.334923267364501953e+00 -1.762874364852905051e+00 -7.411864995956420898e-01 1.100000000000000000e+01
-5.839188575744628906e+00 -2.372235774993896040e+00 -7.738703489303588867e-01 1.100000000000000000e+01
-8.908823966979980469e+00 -3.617498397827147993e+00 -8.412272334098815918e-01 1.000000000000000000e+00
-1.324788284301757990e+01 -5.374021053314208984e+00 -7.492415308952331543e-01 1.700000000000000000e+01
-2.491884946823120117e+00 -1.005775213241576926e+00 -7.200345993041992188e-01 1.000000000000000000e+01
-2.889951944351195845e+00 -1.165270090103148970e+00 -7.193934917449951172e-01 1.200000000000000000e+01
-3.467067480087279829e+00 -1.397267937660217063e+00 -7.266006469726562500e-01 1.200000000000000000e+01
-4.330055713653563565e+00 -1.743305444717407005e+00 -7.393093109130859375e-01 1.100000000000000000e+01
-5.821649551391601562e+00 -2.341468572616577148e+00 -7.704579830169677734e-01 1.100000000000000000e+01
-8.921397209167480469e+00 -3.586378574371337891e+00 -8.412272334098815918e-01 1.000000000000000000e+00
-1.320539855957031072e+01 -5.303182601928710938e+00 -7.457873821258544922e-01 4.000000000000000000e+00
-5.097877502441406250e+01 -2.044167900085448863e+01 1.471696853637694957e+01 1.900000000000000000e+01
-2.509732246398925781e+00 -1.002805113792418990e+00 -7.241756916046142578e-01 1.000000000000000000e+01
-2.892192125320435014e+00 -1.154452800750731978e+00 -7.189435958862304688e-01 1.100000000000000000e+01
-3.462806463241577148e+00 -1.381519675254821999e+00 -7.246925830841064453e-01 1.200000000000000000e+01
-4.350794792175292969e+00 -1.734030961990356001e+00 -7.418122291564941406e-01 1.100000000000000000e+01
-5.837164402008056641e+00 -2.324069976806641069e+00 -7.714329361915588379e-01 1.100000000000000000e+01
-5.222414016723632812e+01 -2.079306793212890980e+01 8.902997970581054688e+00 2.800000000000000000e+01
-8.922754287719726562e+00 -3.550795316696166992e+00 -8.401813507080078125e-01 3.000000000000000000e+00
-1.335374832153319957e+01 -5.308702945709229404e+00 -7.531144022941589355e-01 4.000000000000000000e+00
-5.048385238647460938e+01 -2.005935287475585938e+01 1.254147148132324041e+01 1.700000000000000000e+01
-2.500642299652100053e+00 -9.890646934509277344e-01 -7.205522060394287109e-01 1.100000000000000000e+01
-2.903453826904296875e+00 -1.147214531898498979e+00 -7.207431793212890625e-01 1.200000000000000000e+01
-3.463955640792847124e+00 -1.367981553077697976e+00 -7.239293456077575684e-01 1.200000000000000000e+01
-4.354983806610107422e+00 -1.718108296394347922e+00 -7.414993643760681152e-01 1.200000000000000000e+01
-5.826773166656494141e+00 -2.296401739120482954e+00 -7.689955830574035645e-01 1.100000000000000000e+01
-8.938802719116210938e+00 -3.521087884902954102e+00 -8.405299782752990723e-01 1.000000000000000000e+00
-1.359893989562987926e+01 -5.351282119750976562e+00 -7.658843994140625000e-01 8.000000000000000000e+00
-4.839135742187500000e+01 -1.902284812927246094e+01 -9.075949192047119141e-01 1.400000000000000000e+01
-2.496883869171143022e+00 -9.775127768516540527e-01 -7.184816598892211914e-01 1.100000000000000000e+01
-2.909255504608153853e+00 -1.137782454490662065e+00 -7.211930751800537109e-01 1.200000000000000000e+01
-3.459567070007324219e+00 -1.352308034896851030e+00 -7.220212221145629883e-01 1.100000000000000000e+01
-4.355434417724609375e+00 -1.700740575790405051e+00 -7.405607700347900391e-01 1.200000000000000000e+01
-5.810711860656738281e+00 -2.266670227050780806e+00 -7.658269405364990234e-01 1.300000000000000000e+01
-8.921338081359863281e+00 -3.478284358978271040e+00 -8.377410173416137695e-01 1.000000000000000000e+00
-1.364917469024658025e+01 -5.316102981567382812e+00 -7.676637768745422363e-01 1.300000000000000000e+01
-4.864382553100585938e+01 -1.892632293701171875e+01 -9.110854268074035645e-01 1.400000000000000000e+01
-2.511088848114014116e+00 -9.729789495468139648e-01 -7.215874791145324707e-01 1.200000000000000000e+01
-2.909574747085570845e+00 -1.126213431358336958e+00 -7.202932834625244141e-01 1.200000000000000000e+01
-3.482576608657836914e+00 -1.347307205200195090e+00 -7.258374094963073730e-01 1.100000000000000000e+01
-4.366872310638427734e+00 -1.687663197517395020e+00 -7.414993643760681152e-01 1.200000000000000000e+01
-5.861181735992431641e+00 -2.262817144393920898e+00 -7.714329361915588379e-01 1.100000000000000000e+01
-8.937142372131347656e+00 -3.448556423187255859e+00 -8.380896449089050293e-01 1.000000000000000000e+00
-1.373473739624023082e+01 -5.294286727905273438e+00 -7.714319825172424316e-01 1.700000000000000000e+01
-4.880290222167968750e+01 -1.879233932495116832e+01 -9.128306508064270020e-01 1.400000000000000000e+01
-5.145754241943358664e+01 -1.980423927307128906e+01 1.477390861511229936e+01 1.900000000000000000e+01
-2.507086992263793945e+00 -9.618785381317138672e-01 -7.195169329643249512e-01 1.100000000000000000e+01
-2.906014680862427202e+00 -1.113769054412842019e+00 -7.184936404228210449e-01 1.200000000000000000e+01
-3.485191822052001953e+00 -1.335048913955688032e+00 -7.254558205604553223e-01 1.100000000000000000e+01
-4.368754863739013672e+00 -1.671760797500609907e+00 -7.408736348152160645e-01 1.200000000000000000e+01
-5.850111007690429688e+00 -2.236280202865601030e+00 -7.689955830574035645e-01 1.100000000000000000e+01
-8.955974578857421875e+00 -3.421745061874390093e+00 -8.387868404388427734e-01 1.000000000000000000e+00
-1.379886817932129084e+01 -5.266515731811523438e+00 -7.740488052368164062e-01 2.100000000000000000e+01
-5.439351272583007812e+01 -2.074910926818848012e+01 1.344037532806395951e+01 1.900000000000000000e+01
-4.895837402343750000e+01 -1.866601943969726918e+01 -9.145759344100952148e-01 1.400000000000000000e+01
-2.519459486007689986e+00 -9.565497636795043945e-01 -7.221051454544067383e-01 2.500000000000000000e+01
-2.904418468475341797e+00 -1.101545214653014915e+00 -7.171439528465270996e-01 1.100000000000000000e+01
-3.484323501586914062e+00 -1.320787549018860085e+00 -7.243109345436096191e-01 1.100000000000000000e+01
-4.374563694000244141e+00 -1.656500816345215066e+00 -7.408736348152160645e-01 1.200000000000000000e+01
-5.857881069183349609e+00 -2.215845823287963867e+00 -7.689955830574035645e-01 1.100000000000000000e+01
-8.975317955017089844e+00 -3.393280506134033203e+00 -8.394840955734252930e-01 1.000000000000000000e+00
-1.384145736694335938e+01 -5.227490425109863281e+00 -7.754095196723937988e-01 1.700000000000000000e+01
-4.916542816162108664e+01 -1.854865455627441051e+01 -9.172286987304687500e-01 1.400000000000000000e+01
-2.508480072021483931e+00 -9.418764710426330566e-01 -7.179640531539916992e-01 1.600000000000000000e+01
-2.913910150527954102e+00 -1.092945694923401101e+00 -7.184936404228210449e-01 1.300000000000000000e+01
-3.481787681579589844e+00 -1.305251359939574973e+00 -7.227844595909118652e-01 1.100000000000000000e+01
-4.373206138610839844e+00 -1.637685179710387962e+00 -7.396221756935119629e-01 1.200000000000000000e+01
-5.862245082855224609e+00 -2.192969799041748047e+00 -7.685080766677856445e-01 1.100000000000000000e+01
-8.935441017150878906e+00 -3.340824365615845171e+00 -8.346033692359924316e-01 1.000000000000000000e+00
-1.385678195953368963e+01 -5.175326347351074219e+00 -7.752001881599426270e-01 1.700000000000000000e+01
-4.937172317504882812e+01 -1.842005538940430043e+01 -9.198116064071655273e-01 1.400000000000000000e+01
-5.119900512695313211e+01 -1.910179519653319957e+01 1.464242839813232067e+01 1.800000000000000000e+01
-2.495454311370850053e+00 -9.270597100257873535e-01 -7.133052945137023926e-01 1.600000000000000000e+01
-2.926842451095581055e+00 -1.086157679557800071e+00 -7.207431793212890625e-01 1.200000000000000000e+01
-3.486322641372681108e+00 -1.293089747428894043e+00 -7.227844595909118652e-01 1.100000000000000000e+01
-4.391862392425537109e+00 -1.627213954925537109e+00 -7.418122291564941406e-01 1.100000000000000000e+01
-5.869863986968994141e+00 -2.172493457794189009e+00 -7.685080766677856445e-01 1.100000000000000000e+01
-8.920886993408203125e+00 -3.299936294555664062e+00 -8.321630358695983887e-01 1.000000000000000000e+00
-1.395719432830811080e+01 -5.157385349273681641e+00 -7.798057198524475098e-01 1.300000000000000000e+01
-5.135567092895507812e+01 -1.894610786437987926e+01 1.466727542877197088e+01 1.800000000000000000e+01
-2.494888544082642046e+00 -9.174458980560302734e-01 -7.122700214385986328e-01 1.400000000000000000e+01
-2.921282052993773970e+00 -1.073086261749268022e+00 -7.184936404228210449e-01 1.200000000000000000e+01
-3.492434501647949219e+00 -1.282198190689086914e+00 -7.231661081314086914e-01 1.100000000000000000e+01
-4.382397174835205078e+00 -1.607199788093566895e+00 -7.393093109130859375e-01 1.200000000000000000e+01
-5.873308181762695312e+00 -2.151650667190552202e+00 -7.680206298828125000e-01 1.100000000000000000e+01
-8.901845932006835938e+00 -3.259375095367432085e+00 -8.293740749359130859e-01 1.000000000000000000e+00
-1.406237983703612926e+01 -5.143317222595214844e+00 -7.847253084182739258e-01 9.000000000000000000e+00
-2.503522157669066939e+00 -9.107127189636230469e-01 -7.138229012489318848e-01 1.600000000000000000e+01
-2.914020538330078125e+00 -1.058889150619507058e+00 -7.157942652702331543e-01 1.200000000000000000e+01
-3.496888875961304155e+00 -1.269999504089355025e+00 -7.231661081314086914e-01 1.100000000000000000e+01
-4.382410049438476562e+00 -1.589871525764465110e+00 -7.383706569671630859e-01 1.200000000000000000e+01
-5.873317718505859375e+00 -2.128430366516112837e+00 -7.670456767082214355e-01 1.100000000000000000e+01
-8.950635910034179688e+00 -3.241851806640625000e+00 -8.328602910041809082e-01 1.000000000000000000e+00
-1.420420360565186080e+01 -5.139046192169188565e+00 -7.916336655616760254e-01 9.000000000000000000e+00
-2.513956785202025923e+00 -9.045845866203308105e-01 -7.158935070037841797e-01 2.200000000000000000e+01
-2.923200607299805132e+00 -1.050688385963439941e+00 -7.171439528465270996e-01 1.400000000000000000e+01
-3.492062568664550781e+00 -1.254466652870178001e+00 -7.212579846382141113e-01 1.100000000000000000e+01
-4.399088859558104581e+00 -1.578567504882812944e+00 -7.402479052543640137e-01 1.200000000000000000e+01
-5.876974105834960938e+00 -2.106576204299927202e+00 -7.665581703186035156e-01 1.100000000000000000e+01
-8.920632362365722656e+00 -3.195805549621582031e+00 -8.290254473686218262e-01 1.000000000000000000e+00
-1.446275711059569957e+01 -5.175569057464599609e+00 -8.050316572189331055e-01 9.000000000000000000e+00
-5.253806686401367188e+01 -1.878032112121582031e+01 1.494990539550781072e+01 1.900000000000000000e+01
-2.509819030761719194e+00 -8.932127952575683594e-01 -7.138229012489318848e-01 2.400000000000000000e+01
-2.930522918701171875e+00 -1.041783571243285911e+00 -7.180437445640563965e-01 1.400000000000000000e+01
-3.494570255279541016e+00 -1.241612076759337935e+00 -7.208763957023620605e-01 1.100000000000000000e+01
-4.410157203674316406e+00 -1.565184354782104048e+00 -7.411864995956420898e-01 1.200000000000000000e+01
-5.876807689666748047e+00 -2.083395719528197798e+00 -7.655832171440124512e-01 1.100000000000000000e+01
-8.935489654541015625e+00 -3.165978193283081055e+00 -8.293740749359130859e-01 1.000000000000000000e+00
-1.459746932983398082e+01 -5.166368007659912109e+00 -8.115213513374328613e-01 9.000000000000000000e+00
-5.265026473999022727e+01 -1.860308074951171875e+01 1.496232891082764027e+01 1.900000000000000000e+01
-2.505632638931273970e+00 -8.818809986114501953e-01 -7.117523550987243652e-01 2.500000000000000000e+01
-2.935979843139647993e+00 -1.032194137573241965e+00 -7.184936404228210449e-01 1.200000000000000000e+01
-3.497030735015869141e+00 -1.228755474090575950e+00 -7.204947471618652344e-01 1.100000000000000000e+01
-4.402546405792236328e+00 -1.545201063156127930e+00 -7.389963865280151367e-01 1.200000000000000000e+01
-5.889664173126220703e+00 -2.064839363098144975e+00 -7.663144469261169434e-01 9.000000000000000000e+00
-8.923922538757324219e+00 -3.126862049102783203e+00 -8.272823095321655273e-01 1.000000000000000000e+00
-1.464557647705077947e+01 -5.125938415527343750e+00 -8.131960630416870117e-01 9.000000000000000000e+00
-2.501397609710692915e+00 -8.705893158912658691e-01 -7.096818089485168457e-01 2.200000000000000000e+01
-2.930361747741699219e+00 -1.018739819526671919e+00 -7.162441611289978027e-01 1.300000000000000000e+01
-3.505007505416870117e+00 -1.217829704284667969e+00 -7.212579846382141113e-01 1.100000000000000000e+01
-4.394849777221679688e+00 -1.525290131568908913e+00 -7.368063330650329590e-01 1.100000000000000000e+01
-5.898711681365966797e+00 -2.044918298721313032e+00 -7.665581703186035156e-01 1.100000000000000000e+01
-8.897131919860839844e+00 -3.082647085189818892e+00 -8.237960934638977051e-01 1.000000000000000000e+00
-1.477473831176757990e+01 -5.113324165344238281e+00 -8.193717598915100098e-01 1.300000000000000000e+01
-5.416330337524414062e+01 -1.872397041320801137e+01 1.535573387145995916e+01 2.000000000000000000e+01
-2.515381574630736861e+00 -8.656243085861206055e-01 -7.127876281738281250e-01 2.100000000000000000e+01
-2.926528215408325195e+00 -1.005970835685729980e+00 -7.144445776939392090e-01 1.400000000000000000e+01
-3.509237289428710938e+00 -1.205587506294250044e+00 -7.212579846382141113e-01 1.100000000000000000e+01
-4.407621383666992188e+00 -1.512504696846008079e+00 -7.380577921867370605e-01 1.200000000000000000e+01
-5.905813694000244141e+00 -2.024315357208251953e+00 -7.665581703186035156e-01 1.100000000000000000e+01
-8.892759323120117188e+00 -3.046406030654906782e+00 -8.224015831947326660e-01 1.000000000000000000e+00
-1.485674667358398082e+01 -5.083704471588134766e+00 -8.229305744171142578e-01 1.300000000000000000e+01
-5.324246215820313211e+01 -1.820820808410644887e+01 1.299092292785645064e+01 1.800000000000000000e+01
-2.518387794494628906e+00 -8.568387031555175781e-01 -7.127876281738281250e-01 2.200000000000000000e+01
-2.931867122650146040e+00 -9.963762164115905762e-01 -7.148944735527038574e-01 1.200000000000000000e+01
-3.509706258773804155e+00 -1.192067861557007058e+00 -7.204947471618652344e-01 1.200000000000000000e+01
-4.409132480621337891e+00 -1.495840668678283913e+00 -7.374320626258850098e-01 1.100000000000000000e+01
-5.886522769927979404e+00 -1.994768500328063965e+00 -7.631458044052124023e-01 1.100000000000000000e+01
-8.952403068542480469e+00 -3.031962871551514116e+00 -8.269336819648742676e-01 1.000000000000000000e+00
-1.500116062164306996e+01 -5.074694633483886719e+00 -8.299435973167419434e-01 1.300000000000000000e+01
-5.327093124389647727e+01 -1.798977470397948863e+01 1.506585693359375000e+01 1.900000000000000000e+01
-2.512208223342895952e+00 -8.449633717536926270e-01 -7.101994752883911133e-01 1.800000000000000000e+01
-2.931632518768310991e+00 -9.848948121070861816e-01 -7.139946222305297852e-01 1.200000000000000000e+01
-3.511984825134276900e+00 -1.179184556007385032e+00 -7.201131582260131836e-01 1.100000000000000000e+01
-4.423691749572753906e+00 -1.483581304550170898e+00 -7.389963865280151367e-01 1.200000000000000000e+01
-5.900979042053222656e+00 -1.976730704307555930e+00 -7.641207575798034668e-01 1.100000000000000000e+01
-8.902474403381347656e+00 -2.980453968048096147e+00 -8.213557004928588867e-01 1.000000000000000000e+00
-1.506424331665039062e+01 -5.037501811981201172e+00 -8.324556946754455566e-01 9.000000000000000000e+00
-5.226302337646483664e+01 -1.746668052673339844e+01 1.272188186645507990e+01 1.700000000000000000e+01
-2.505976438522338867e+00 -8.331416249275207520e-01 -7.076112627983093262e-01 1.800000000000000000e+01
-2.949848175048828125e+00 -9.795687198638916016e-01 -7.175938487052917480e-01 1.300000000000000000e+01
-3.512352943420410156e+00 -1.165681481361388938e+00 -7.193499207496643066e-01 1.100000000000000000e+01
-4.425093173980712891e+00 -1.466887593269347922e+00 -7.383706569671630859e-01 1.200000000000000000e+01
-5.898420810699462891e+00 -1.953000545501708984e+00 -7.629020810127258301e-01 9.000000000000000000e+00
-8.916606903076171875e+00 -2.950612306594849077e+00 -8.217043280601501465e-01 1.000000000000000000e+00
-1.506846141815186080e+01 -4.980499744415283203e+00 -8.317230343818664551e-01 1.300000000000000000e+01
-5.357559585571289062e+01 -1.768731880187987926e+01 1.511762046813965021e+01 2.000000000000000000e+01
-2.514375209808350053e+00 -8.261982202529907227e-01 -7.091642022132873535e-01 1.900000000000000000e+01
-2.951397895812987837e+00 -9.686581492424011230e-01 -7.171439528465270996e-01 1.300000000000000000e+01
-3.521996736526488814e+00 -1.155249595642090066e+00 -7.204947471618652344e-01 1.200000000000000000e+01
-4.418923377990722656e+00 -1.447742104530334029e+00 -7.364934682846069336e-01 1.200000000000000000e+01
-5.910861968994140625e+00 -1.934251546859740989e+00 -7.636333107948303223e-01 1.100000000000000000e+01
-8.949576377868652344e+00 -2.926901340484619141e+00 -8.237960934638977051e-01 1.000000000000000000e+00
-1.532497024536132990e+01 -5.006011962890625000e+00 -8.449116945266723633e-01 1.400000000000000000e+01
-2.515406370162963867e+00 -8.168197274208068848e-01 -7.086465358734130859e-01 2.000000000000000000e+01
-2.939931869506835938e+00 -9.535402059555053711e-01 -7.135447263717651367e-01 1.200000000000000000e+01
-3.526007890701293945e+00 -1.142948508262634055e+00 -7.204947471618652344e-01 1.100000000000000000e+01
-4.423950195312500000e+00 -1.432308435440063032e+00 -7.364934682846069336e-01 1.200000000000000000e+01
-5.917577743530273438e+00 -1.913607001304626021e+00 -7.636333107948303223e-01 1.100000000000000000e+01
-5.311143112182617188e+01 -1.716476249694823863e+01 8.840424537658691406e+00 2.700000000000000000e+01
-8.959738731384277344e+00 -2.895643711090087891e+00 -8.237960934638977051e-01 1.000000000000000000e+00
-1.541267585754395064e+01 -4.975188255310058594e+00 -8.487845659255981445e-01 1.400000000000000000e+01
-2.527439832687377930e+00 -8.109855651855468750e-01 -7.112347483634948730e-01 1.900000000000000000e+01
-2.945098161697388139e+00 -9.438668489456176758e-01 -7.139946222305297852e-01 1.200000000000000000e+01
-3.526236772537231001e+00 -1.129435777664185014e+00 -7.197315096855163574e-01 1.100000000000000000e+01
-4.428922653198242188e+00 -1.416857242584228960e+00 -7.364934682846069336e-01 1.200000000000000000e+01
-5.905312538146972656e+00 -1.886897206306457964e+00 -7.611958980560302734e-01 7.000000000000000000e+00
-8.950811386108398438e+00 -2.858289957046508789e+00 -8.220529556274414062e-01 1.000000000000000000e+00
-1.530626583099365057e+01 -4.881909370422363281e+00 -8.419808745384216309e-01 1.400000000000000000e+01
-2.521047592163085938e+00 -7.992391586303710938e-01 -7.086465358734130859e-01 1.800000000000000000e+01
-2.957664012908935991e+00 -9.365221261978149414e-01 -7.162441611289978027e-01 1.300000000000000000e+01
-3.522670507431029829e+00 -1.114750742912292036e+00 -7.182050347328186035e-01 1.100000000000000000e+01
-4.437608718872070312e+00 -1.402579426765441895e+00 -7.371191978454589844e-01 1.200000000000000000e+01
-5.908077239990234375e+00 -1.865077137947082964e+00 -7.607084512710571289e-01 9.000000000000000000e+00
-5.285028839111328125e+01 -1.668391609191894887e+01 8.777851104736328125e+00 2.600000000000000000e+01
-8.934133529663085938e+00 -2.818635940551757812e+00 -8.196126222610473633e-01 1.000000000000000000e+00
-1.529463958740234020e+01 -4.819446563720703125e+00 -8.404107689857482910e-01 9.000000000000000000e+00
-3.206436920166016336e+01 -1.009140205383300959e+01 -5.867499113082885742e-01 6.000000000000000000e+00
-2.521978616714477983e+00 -7.898567914962768555e-01 -7.081289291381835938e-01 1.900000000000000000e+01
-2.959055185317993164e+00 -9.256104826927185059e-01 -7.157942652702331543e-01 1.400000000000000000e+01
-3.519045114517211914e+00 -1.100104451179503950e+00 -7.166785597801208496e-01 1.100000000000000000e+01
-4.438706398010253906e+00 -1.385903239250183105e+00 -7.364934682846069336e-01 1.200000000000000000e+01
-5.924026966094970703e+00 -1.847397565841675027e+00 -7.619271278381347656e-01 9.000000000000000000e+00
-8.962939262390136719e+00 -2.793360948562622070e+00 -8.213557004928588867e-01 3.000000000000000000e+00
-1.552114009857177912e+01 -4.831325531005859375e+00 -8.519247174263000488e-01 4.000000000000000000e+00
-3.227507781982421875e+01 -1.003403091430664062e+01 -5.899611711502075195e-01 6.000000000000000000e+00
-2.519183635711669922e+00 -7.793357968330383301e-01 -7.065759897232055664e-01 1.800000000000000000e+01
-2.964130163192749023e+00 -9.158510565757751465e-01 -7.162441611289978027e-01 1.300000000000000000e+01
-3.534118890762329102e+00 -1.091289401054382102e+00 -7.189682722091674805e-01 1.100000000000000000e+01
-4.424640655517578125e+00 -1.364579200744628906e+00 -7.333647608757019043e-01 1.200000000000000000e+01
-5.928542137145996094e+00 -1.826123237609863059e+00 -7.616834044456481934e-01 9.000000000000000000e+00
-8.949785232543945312e+00 -2.755023241043090820e+00 -8.192639946937561035e-01 1.000000000000000000e+00
-1.595026969909667969e+01 -4.903896331787109375e+00 -8.745338320732116699e-01 1.000000000000000000e+01
-3.246283340454102273e+01 -9.968268394470214844e+00 -5.927535295486450195e-01 6.000000000000000000e+00
-2.532973766326903853e+00 -7.739244699478149414e-01 -7.096818089485168457e-01 1.800000000000000000e+01
-2.954261779785155806e+00 -9.015172719955444336e-01 -7.130948305130004883e-01 1.300000000000000000e+01
-3.541662454605102983e+00 -1.080091714859009011e+00 -7.197315096855163574e-01 1.200000000000000000e+01
-4.429376602172851562e+00 -1.349125981330872026e+00 -7.333647608757019043e-01 1.200000000000000000e+01
-5.923485279083251953e+00 -1.801951289176940918e+00 -7.602209448814392090e-01 7.000000000000000000e+00
-8.963159561157226562e+00 -2.724925041198730025e+00 -8.196126222610473633e-01 1.000000000000000000e+00
-1.603608894348144887e+01 -4.869079589843750000e+00 -8.783020377159118652e-01 5.000000000000000000e+00
-3.257780456542968750e+01 -9.879264831542968750e+00 -5.942195057868957520e-01 6.000000000000000000e+00
-2.543057918548583984e+00 -7.673102021217346191e-01 -7.117523550987243652e-01 1.800000000000000000e+01
-2.957390546798706055e+00 -8.911994695663452148e-01 -7.130948305130004883e-01 1.400000000000000000e+01
-3.534131765365601030e+00 -1.064325690269469993e+00 -7.174417972564697266e-01 1.100000000000000000e+01
-4.437842369079589844e+00 -1.334794282913208008e+00 -7.339904904365539551e-01 1.200000000000000000e+01
-5.922134876251220703e+00 -1.778979063034058061e+00 -7.592459917068481445e-01 7.000000000000000000e+00
-5.308086013793945312e+01 -1.593512058258056996e+01 8.777851104736328125e+00 2.600000000000000000e+01
-8.957350730895996094e+00 -2.689038276672362837e+00 -8.182181119918823242e-01 1.000000000000000000e+00
-1.642795944213866832e+01 -4.925498962402343750e+00 -8.988177180290222168e-01 5.000000000000000000e+00
-2.541885852813721147e+00 -7.577690482139587402e-01 -7.107170820236206055e-01 2.000000000000000000e+01
-2.964065074920653853e+00 -8.824996948242187500e-01 -7.139946222305297852e-01 1.300000000000000000e+01
-3.537641763687133789e+00 -1.052600264549254927e+00 -7.174417972564697266e-01 1.100000000000000000e+01
-4.442244529724121094e+00 -1.320070624351501021e+00 -7.339904904365539551e-01 1.200000000000000000e+01
-5.928001403808593750e+00 -1.759330749511718972e+00 -7.592459917068481445e-01 9.000000000000000000e+00
-8.977680206298828125e+00 -2.662719011306763139e+00 -8.192639946937561035e-01 1.000000000000000000e+00
-1.662804412841796875e+01 -4.925451278686523438e+00 -9.088662266731262207e-01 1.100000000000000000e+01
-2.527836084365845171e+00 -7.439826130867004395e-01 -7.060583829879760742e-01 2.100000000000000000e+01
-2.974606037139893022e+00 -8.743460178375244141e-01 -7.157942652702331543e-01 1.400000000000000000e+01
-3.541294574737548828e+00 -1.040245175361633079e+00 -7.174417972564697266e-01 1.100000000000000000e+01
-4.443034172058104581e+00 -1.303444027900696023e+00 -7.333647608757019043e-01 1.200000000000000000e+01
-5.937916755676270419e+00 -1.739743709564208984e+00 -7.597334980964660645e-01 7.000000000000000000e+00
-8.952501296997070312e+00 -2.621287345886230025e+00 -8.161263465881347656e-01 1.000000000000000000e+00
-1.680616188049316051e+01 -4.914465904235839844e+00 -9.176586270332336426e-01 1.100000000000000000e+01
-2.535983085632324219e+00 -7.367712259292602539e-01 -7.076112627983093262e-01 1.900000000000000000e+01
-2.975768566131591797e+00 -8.634143471717834473e-01 -7.153443694114685059e-01 1.200000000000000000e+01
-3.546789646148682085e+00 -1.028424143791198953e+00 -7.178234457969665527e-01 1.200000000000000000e+01
-4.424787998199462891e+00 -1.281333565711975098e+00 -7.296103239059448242e-01 1.100000000000000000e+01
-5.938232421875000000e+00 -1.717351436614990012e+00 -7.590022683143615723e-01 5.000000000000000000e+00
-8.950113296508789062e+00 -2.586702108383179155e+00 -8.150805234909057617e-01 1.000000000000000000e+00
-1.654688835144042969e+01 -4.776014328002929688e+00 -9.025859236717224121e-01 5.000000000000000000e+00
-2.538539409637451172e+00 -7.279145121574401855e-01 -7.076112627983093262e-01 2.000000000000000000e+01
-2.958156347274779829e+00 -8.471203446388244629e-01 -7.103954553604125977e-01 1.400000000000000000e+01
-3.550358057022095171e+00 -1.016037225723267046e+00 -7.178234457969665527e-01 1.200000000000000000e+01
-4.436830997467041016e+00 -1.268051624298095925e+00 -7.308618426322937012e-01 1.200000000000000000e+01
-5.936555385589599609e+00 -1.694433450698852983e+00 -7.580273151397705078e-01 7.000000000000000000e+00
-8.947591781616210938e+00 -2.552165746688843218e+00 -8.140346407890319824e-01 1.000000000000000000e+00
-1.680548667907714844e+01 -4.787168979644775391e+00 -9.157745838165283203e-01 1.100000000000000000e+01
-2.550359249114989790e+00 -7.216789126396179199e-01 -7.101994752883911133e-01 2.100000000000000000e+01
-2.968596696853638139e+00 -8.389090895652770996e-01 -7.121950387954711914e-01 1.400000000000000000e+01
-3.544436216354370117e+00 -1.000970125198364036e+00 -7.159153223037719727e-01 1.100000000000000000e+01
-4.433625698089599609e+00 -1.250411748886107954e+00 -7.296103239059448242e-01 1.100000000000000000e+01
-5.930969238281250000e+00 -1.670471668243407981e+00 -7.565648555755615234e-01 7.000000000000000000e+00
-8.956445693969726562e+00 -2.520917177200316939e+00 -8.140346407890319824e-01 1.000000000000000000e+00
-1.675287628173828125e+01 -4.709021091461181641e+00 -9.120063781738281250e-01 1.100000000000000000e+01
-3.326111984252929688e+01 -9.336752891540527344e+00 -6.030155420303344727e-01 6.000000000000000000e+00
-2.549141407012939009e+00 -7.117331027984619141e-01 -7.091642022132873535e-01 2.100000000000000000e+01
-2.977138280868529829e+00 -8.301118016242980957e-01 -7.135447263717651367e-01 1.500000000000000000e+01
-3.544126272201538086e+00 -9.875377416610717773e-01 -7.151521444320678711e-01 1.100000000000000000e+01
-4.441769599914550781e+00 -1.235986948013306108e+00 -7.302360534667968750e-01 1.200000000000000000e+01
-5.950152397155761719e+00 -1.653478980064392090e+00 -7.582710385322570801e-01 7.000000000000000000e+00
-8.976709365844726562e+00 -2.492836713790893999e+00 -8.150805234909057617e-01 1.000000000000000000e+00
-1.690778350830078125e+01 -4.688943386077880859e+00 -9.195427298545837402e-01 5.000000000000000000e+00
-2.542297840118408203e+00 -7.002655267715454102e-01 -7.065759897232055664e-01 1.900000000000000000e+01
-2.987533569335937944e+00 -8.217819929122924805e-01 -7.153443694114685059e-01 1.500000000000000000e+01
-4.521068572998046875e+01 -1.242763233184813920e+01 2.457277774810791016e+00 3.900000000000000000e+01
-3.547551870346068892e+00 -9.751604199409484863e-01 -7.151521444320678711e-01 1.200000000000000000e+01
-4.447961807250976562e+00 -1.220997691154479980e+00 -7.305489778518676758e-01 1.300000000000000000e+01
-5.944401264190673828e+00 -1.629550099372863992e+00 -7.568086385726928711e-01 7.000000000000000000e+00
-8.939238548278808594e+00 -2.448853015899658203e+00 -8.108970522880554199e-01 1.000000000000000000e+00
-1.685469436645508168e+01 -4.610922813415527344e+00 -9.157745838165283203e-01 1.100000000000000000e+01
-4.510013961791992188e+01 -1.232108211517333984e+01 -8.160745501518249512e-01 1.200000000000000000e+01
-2.544726848602294922e+00 -6.913869380950927734e-01 -7.065759897232055664e-01 1.900000000000000000e+01
-4.514452362060546875e+01 -1.225703525543213068e+01 8.165282607078552246e-01 5.400000000000000000e+01
-2.980980157852172852e+00 -8.087971210479736328e-01 -7.130948305130004883e-01 1.400000000000000000e+01
-4.518439483642578125e+01 -1.225092697143555043e+01 2.453509569168090820e+00 3.900000000000000000e+01
-3.556618690490723100e+00 -9.643124938011169434e-01 -7.162969708442687988e-01 1.200000000000000000e+01
-4.431222915649414062e+00 -1.199785113334655984e+00 -7.271074056625366211e-01 1.100000000000000000e+01
-5.936639308929443359e+00 -1.605163455009460005e+00 -7.551024556159973145e-01 5.000000000000000000e+00
-8.978506088256835938e+00 -2.425949573516846147e+00 -8.136860132217407227e-01 1.000000000000000000e+00
-1.697095870971680043e+01 -4.579116344451904297e+00 -9.212175011634826660e-01 5.000000000000000000e+00
-4.509267044067382812e+01 -1.215005207061767933e+01 -8.151670098304748535e-01 1.200000000000000000e+01
-2.550856828689575195e+00 -6.834999918937683105e-01 -7.076112627983093262e-01 1.900000000000000000e+01
-4.515226364135742188e+01 -1.209006690979004084e+01 8.159000277519226074e-01 5.400000000000000000e+01
-2.974372625350952148e+00 -7.958680987358093262e-01 -7.108453512191772461e-01 1.500000000000000000e+01
-4.517285919189453125e+01 -1.207868385314941051e+01 2.450578927993773970e+00 3.800000000000000000e+01
-3.563756227493286133e+00 -9.529059529304504395e-01 -7.170602083206176758e-01 1.200000000000000000e+01
-4.427749633789063388e+00 -1.182271599769592063e+00 -7.258559465408325195e-01 1.100000000000000000e+01
-5.944124221801757812e+00 -1.584942340850830078e+00 -7.553461790084838867e-01 7.000000000000000000e+00
-8.940714836120605469e+00 -2.382282495498656782e+00 -8.095025420188903809e-01 1.000000000000000000e+00
-1.741532325744628906e+01 -4.633859157562255859e+00 -9.444546699523925781e-01 6.000000000000000000e+00
-2.556962490081787109e+00 -6.755786538124084473e-01 -7.086465358734130859e-01 2.000000000000000000e+01
-4.514778900146483664e+01 -1.192013168334960938e+01 8.150622844696044922e-01 5.400000000000000000e+01
-2.971479892730712891e+00 -7.839893102645874023e-01 -7.094956040382385254e-01 1.400000000000000000e+01
-4.516453170776367188e+01 -1.190768814086914062e+01 2.447857379913330078e+00 3.800000000000000000e+01
-3.548077106475830078e+00 -9.354552030563354492e-01 -7.132440209388732910e-01 1.200000000000000000e+01
-4.443311214447020596e+00 -1.169826269149780051e+00 -7.277331352233886719e-01 1.100000000000000000e+01
-5.941941261291503906e+00 -1.562164902687072976e+00 -7.543712258338928223e-01 7.000000000000000000e+00
-8.975954055786132812e+00 -2.358146667480469194e+00 -8.119428753852844238e-01 1.000000000000000000e+00
-1.770571899414062855e+01 -4.645008563995361328e+00 -9.593181014060974121e-01 1.900000000000000000e+01
-3.377493667602539062e+01 -8.848088264465332031e+00 -6.094380617141723633e-01 7.000000000000000000e+00
-2.557435750961304155e+00 -6.661621332168579102e-01 -7.081289291381835938e-01 2.100000000000000000e+01
-4.517751312255858664e+01 -1.175944137573242010e+01 8.148528337478637695e-01 5.400000000000000000e+01
-2.981742382049560991e+00 -7.755743861198425293e-01 -7.112952470779418945e-01 1.400000000000000000e+01
-4.519422531127929688e+01 -1.174694824218750000e+01 2.447229385375977007e+00 3.800000000000000000e+01
-3.557021141052246094e+00 -9.245460629463195801e-01 -7.143889069557189941e-01 1.200000000000000000e+01
-4.443543434143066406e+00 -1.153316497802733931e+00 -7.271074056625366211e-01 1.100000000000000000e+01
-5.939671516418457031e+00 -1.539421916007996050e+00 -7.533962726593017578e-01 7.000000000000000000e+00
-8.972558021545410156e+00 -2.323803186416625977e+00 -8.108970522880554199e-01 1.000000000000000000e+00
-1.776823234558105113e+01 -4.595177650451660156e+00 -9.618301987648010254e-01 1.200000000000000000e+01
-3.369718933105468750e+01 -8.702137947082519531e+00 -6.074833869934082031e-01 6.000000000000000000e+00
-2.550389766693114790e+00 -6.548287868499755859e-01 -7.055407166481018066e-01 1.900000000000000000e+01
-4.514855575561522727e+01 -1.158377933502197088e+01 8.135963082313537598e-01 5.300000000000000000e+01
-2.991982221603393999e+00 -7.670972943305969238e-01 -7.130948305130004883e-01 1.300000000000000000e+01
-4.516917037963867188e+01 -1.157226562500000000e+01 2.443670511245727983e+00 3.800000000000000000e+01
-3.562128543853760210e+00 -9.126113653182983398e-01 -7.147704958915710449e-01 1.200000000000000000e+01
-4.439887523651123047e+00 -1.135840296745300071e+00 -7.258559465408325195e-01 1.100000000000000000e+01
-5.935392379760742188e+00 -1.516222596168518066e+00 -7.521775960922241211e-01 5.000000000000000000e+00
-8.942005157470703125e+00 -2.282613039016724077e+00 -8.074107766151428223e-01 1.000000000000000000e+00
-1.781513023376464844e+01 -4.541019916534423828e+00 -9.635049700736999512e-01 6.000000000000000000e+00
-3.402967453002929688e+01 -8.661406517028808594e+00 -6.129285097122192383e-01 7.000000000000000000e+00
-2.554532766342163086e+00 -6.463961601257324219e-01 -7.060583829879760742e-01 2.200000000000000000e+01
-4.514606475830078125e+01 -1.141532707214354936e+01 8.128283619880676270e-01 5.300000000000000000e+01
-2.998420476913452148e+00 -7.576034069061279297e-01 -7.139946222305297852e-01 1.300000000000000000e+01
-4.515695190429688211e+01 -1.140969467163085938e+01 2.440948963165283203e+00 3.800000000000000000e+01
-3.567195892333983931e+00 -9.006522297859191895e-01 -7.151521444320678711e-01 1.200000000000000000e+01
-4.436163425445556641e+00 -1.118403673171997070e+00 -7.246044278144836426e-01 1.100000000000000000e+01
-5.971449375152587891e+00 -1.503248691558837891e+00 -7.560774087905883789e-01 7.000000000000000000e+00
-8.949918746948242188e+00 -2.251385688781737837e+00 -8.074107766151428223e-01 1.000000000000000000e+00
-1.799358940124512074e+01 -4.519677162170410156e+00 -9.722973704338073730e-01 6.000000000000000000e+00
-2.785680198669433949e+01 -6.986808300018311435e+00 -5.013028979301452637e-01 4.000000000000000000e+00
-2.560522556304932085e+00 -6.384099721908569336e-01 -7.070936560630798340e-01 2.100000000000000000e+01
-4.515070724487304688e+01 -1.124896621704101918e+01 8.122000694274902344e-01 5.300000000000000000e+01
-2.982136487960814986e+00 -7.424245476722717285e-01 -7.094956040382385254e-01 1.400000000000000000e+01
-4.518296051025391336e+01 -1.124025249481200994e+01 2.440111637115478960e+00 3.800000000000000000e+01
-3.577938795089722124e+00 -8.900907635688781738e-01 -7.166785597801208496e-01 1.100000000000000000e+01
-4.447708606719970703e+00 -1.104816555976867898e+00 -7.258559465408325195e-01 1.100000000000000000e+01
-5.967026710510253906e+00 -1.480005860328674094e+00 -7.548587322235107422e-01 7.000000000000000000e+00
-8.957722663879394531e+00 -2.220130920410155806e+00 -8.074107766151428223e-01 1.000000000000000000e+00
-2.560639619827270952e+00 -6.299012303352355957e-01 -7.065759897232055664e-01 2.000000000000000000e+01
-4.517029190063477273e+01 -1.110324764251708984e+01 8.119208812713623047e-01 5.300000000000000000e+01
-2.984454154968262163e+00 -7.330522537231445312e-01 -7.094956040382385254e-01 1.400000000000000000e+01
-4.515404510498046875e+01 -1.109089756011963068e+01 2.436762094497681108e+00 3.800000000000000000e+01
-3.569277524948120117e+00 -8.760381340980529785e-01 -7.143889069557189941e-01 1.100000000000000000e+01
-4.447320461273193359e+00 -1.089897871017456055e+00 -7.252301573753356934e-01 1.100000000000000000e+01
-5.935010910034179688e+00 -1.452287912368773970e+00 -7.502276897430419922e-01 9.000000000000000000e+00
-8.976265907287597656e+00 -2.194817781448363814e+00 -8.084566593170166016e-01 3.000000000000000000e+00
-3.404566574096679688e+01 -8.299439430236816406e+00 -6.116719245910644531e-01 7.000000000000000000e+00
-2.557190179824829102e+00 -6.195943355560302734e-01 -7.050230503082275391e-01 2.100000000000000000e+01
-4.513880538940429688e+01 -1.092856597900390980e+01 8.106642961502075195e-01 5.300000000000000000e+01
-2.994571208953856978e+00 -7.244629859924316406e-01 -7.112952470779418945e-01 1.300000000000000000e+01
-4.518471908569335938e+01 -1.093133449554443004e+01 2.436343431472777876e+00 3.800000000000000000e+01
-3.558955669403076172e+00 -8.603445291519165039e-01 -7.117175459861755371e-01 1.200000000000000000e+01
-4.447257518768311435e+00 -1.073440194129944070e+00 -7.246044278144836426e-01 1.200000000000000000e+01
-5.938114166259765625e+00 -1.431096911430359109e+00 -7.499839663505554199e-01 9.000000000000000000e+00
-8.949006080627441406e+00 -2.155075073242187944e+00 -8.053190708160400391e-01 1.000000000000000000e+00
-1.767722320556640980e+01 -4.250452518463134766e+00 -9.528284072875976562e-01 6.000000000000000000e+00
-3.401609802246093750e+01 -8.166542053222656250e+00 -6.106247901916503906e-01 7.000000000000000000e+00
-2.557458162307738814e+00 -6.102159619331359863e-01 -7.045054435729980469e-01 1.900000000000000000e+01
-4.513777542114257812e+01 -1.076166057586669922e+01 8.099662065505981445e-01 5.300000000000000000e+01
-3.002768754959106001e+00 -7.153604626655578613e-01 -7.126449346542358398e-01 1.500000000000000000e+01
-4.517396545410156250e+01 -1.075362491607666016e+01 2.433621883392333984e+00 3.800000000000000000e+01
-3.567666769027709961e+00 -8.492801189422607422e-01 -7.128624320030212402e-01 1.200000000000000000e+01
-4.443289756774902344e+00 -1.056082725524901900e+00 -7.233529686927795410e-01 1.100000000000000000e+01
-5.970113754272460938e+00 -1.416777253150939941e+00 -7.533962726593017578e-01 7.000000000000000000e+00
-8.940965652465820312e+00 -2.120146512985229048e+00 -8.039245605468750000e-01 1.000000000000000000e+00
-1.797182083129883168e+01 -4.254982948303222656e+00 -9.679011702537536621e-01 1.300000000000000000e+01
-3.407553482055664062e+01 -8.055114746093750000e+00 -6.111832857131958008e-01 7.000000000000000000e+00
-2.552050113677978960e+00 -5.995178818702697754e-01 -7.024348974227905273e-01 2.000000000000000000e+01
-4.516338348388671875e+01 -1.060129261016846058e+01 8.097567558288574219e-01 5.300000000000000000e+01
-2.997658491134643999e+00 -7.030944824218750000e-01 -7.108453512191772461e-01 1.500000000000000000e+01
-4.518992996215820312e+01 -1.059920310974120916e+01 2.432575225830078125e+00 3.800000000000000000e+01
-3.568698167800902876e+00 -8.363735079765319824e-01 -7.124807834625244141e-01 1.200000000000000000e+01
-4.435408592224121094e+00 -1.037865877151489036e+00 -7.214757800102233887e-01 1.100000000000000000e+01
-5.959558486938476562e+00 -1.392316222190856934e+00 -7.514463663101196289e-01 7.000000000000000000e+00
-8.952192306518554688e+00 -2.089829683303833008e+00 -8.042731881141662598e-01 2.000000000000000000e+00
-1.809548950195312855e+01 -4.217611789703369141e+00 -9.737628102302551270e-01 1.300000000000000000e+01
