3.985674977302551270e-01 -1.617799639701843040e+00 3.846662938594818115e-01 7.600000000000000000e+01
4.249517917633057196e-01 -1.726191520690917969e+00 -3.103037923574447979e-02 7.300000000000000000e+01
3.943716585636138916e-01 -1.601972341537476030e+00 4.420629143714904785e-01 1.000000000000000000e+02
4.499903917312622070e-01 -1.838958978652954102e+00 -5.072853565216064453e-01 9.000000000000000000e+00
4.165402352809906006e-01 -1.703547239303589089e+00 3.061152063310145985e-02 8.000000000000000000e+01
4.444887042045593262e-01 -1.819225668907165971e+00 -4.323559403419495184e-01 5.300000000000000000e+01
4.100472629070281982e-01 -1.678262114524841087e+00 9.054120630025863647e-02 7.700000000000000000e+01
4.377009570598601740e-01 -1.792801499366760032e+00 -3.587208986282349188e-01 7.400000000000000000e+01
4.018521010875701904e-01 -1.647214174270630105e+00 1.483390778303146085e-01 6.700000000000000000e+01
4.346275925636292059e-01 -1.782914042472838911e+00 -2.906552255153656006e-01 7.000000000000000000e+01
4.016866683959960938e-01 -1.649035692214966042e+00 2.083965837955475131e-01 7.900000000000000000e+01
4.262808859348297119e-01 -1.751331090927124023e+00 -2.213147282600403110e-01 6.600000000000000000e+01
3.926120996475219727e-01 -1.614232420921325906e+00 2.631227672100067139e-01 5.700000000000000000e+01
4.251867830753325861e-01 -1.748163700103759988e+00 -1.574032753705978116e-01 8.300000000000000000e+01
3.964137434959412176e-01 -1.631102442741394043e+00 3.262833952903748114e-01 1.000000000000000000e+02
4.251429140567780096e-01 -1.750644326210021973e+00 -9.441406279802322388e-02 9.400000000000000000e+01
3.910796940326691229e-01 -1.611606001853943093e+00 3.828666806221007746e-01 6.800000000000000000e+01
4.189236760139464777e-01 -1.727664351463318093e+00 -3.103037923574447979e-02 7.800000000000000000e+01
3.915087878704071045e-01 -1.614603877067565918e+00 4.451687633991240900e-01 9.700000000000000000e+01
6.332166790962219238e-01 -2.627434253692626953e+00 -7.241756916046142578e-01 1.300000000000000000e+01
4.091866910457611084e-01 -1.699158549308777078e+00 3.050680644810200084e-02 7.400000000000000000e+01
4.436067044734954834e-01 -1.843502044677733931e+00 -4.377547502517700195e-01 1.000000000000000000e+01
4.048272371292114258e-01 -1.683637499809264915e+00 9.075054526329040527e-02 8.200000000000000000e+01
4.286863505840302069e-01 -1.782865285873413086e+00 -3.564312160015106201e-01 6.500000000000000000e+01
3.979616165161132812e-01 -1.656355857849121094e+00 1.490363180637359897e-01 7.200000000000000000e+01
4.284014105796813965e-01 -1.784420251846313032e+00 -2.906552255153656006e-01 6.900000000000000000e+01
3.977802991867064875e-01 -1.658149123191833052e+00 2.093715369701384943e-01 7.000000000000000000e+01
4.215532243251801092e-01 -1.758599638938904031e+00 -2.220459431409836093e-01 6.400000000000000000e+01
3.840336501598358154e-01 -1.602078795433043990e+00 2.609326839447020929e-01 6.900000000000000000e+01
4.162973463535308838e-01 -1.738011717796325906e+00 -1.563574075698853094e-01 8.300000000000000000e+01
3.856909275054932196e-01 -1.611473679542541948e+00 3.220855891704558771e-01 1.000000000000000000e+02
4.190294444561005194e-01 -1.752117633819580078e+00 -9.441406279802322388e-02 9.200000000000000000e+01
3.877164423465728760e-01 -1.622438073158263938e+00 3.851162195205687921e-01 7.200000000000000000e+01
4.119615554809569757e-01 -1.725226163864135964e+00 -3.096056915819644928e-02 7.300000000000000000e+01
3.815531134605408270e-01 -1.599116086959839089e+00 4.405100047588347834e-01 9.500000000000000000e+01
6.271637678146362305e-01 -2.642786026000977007e+00 -7.277991771697998047e-01 1.400000000000000000e+01
4.027916193008422852e-01 -1.698630690574645996e+00 3.047190234065055847e-02 7.700000000000000000e+01
7.332577109336853027e-01 -3.094660043716431108e+00 -7.342402338981628418e-01 1.000000000000000000e+01
4.010837972164154053e-01 -1.692744493484497070e+00 9.116923809051513672e-02 8.500000000000000000e+01
4.278881549835205078e-01 -1.807276129722594993e+00 -3.610106110572814941e-01 4.100000000000000000e+01
3.930948078632354736e-01 -1.661612629890441895e+00 1.493849456310271939e-01 7.200000000000000000e+01
4.208067059516906738e-01 -1.780137658119202104e+00 -2.897166311740875244e-01 6.600000000000000000e+01
3.915335237979888916e-01 -1.657595515251159890e+00 2.091277986764908114e-01 5.500000000000000000e+01
4.195159375667572021e-01 -1.777448415756226030e+00 -2.242395877838135043e-01 5.200000000000000000e+01
3.822400271892548163e-01 -1.620779275894165039e+00 2.637484967708588202e-01 6.700000000000000000e+01
4.093133509159088135e-01 -1.735575914382935014e+00 -1.560087800025939941e-01 8.300000000000000000e+01
3.746597468852996826e-01 -1.589879155158997026e+00 3.175061643123627264e-01 8.200000000000000000e+01
4.119952917098999023e-01 -1.749681472778320090e+00 -9.420472383499145508e-02 8.700000000000000000e+01
3.865139186382294256e-01 -1.642750978469849077e+00 3.896152377128601074e-01 7.400000000000000000e+01
4.077674746513367254e-01 -1.734440088272094949e+00 -3.110018745064735066e-02 7.100000000000000000e+01
3.764106333255767822e-01 -1.602318882942199929e+00 4.410276412963867188e-01 7.800000000000000000e+01
6.183744072914123535e-01 -2.646840333938599077e+00 -7.283167839050292969e-01 1.400000000000000000e+01
3.973144292831420898e-01 -1.701973676681518999e+00 3.050680644810200084e-02 7.400000000000000000e+01
7.220082283020019531e-01 -3.095302820205688032e+00 -7.337903380393981934e-01 9.000000000000000000e+00
3.942651748657227118e-01 -1.690244197845458984e+00 9.095989167690277100e-02 8.500000000000000000e+01
8.712293505668640137e-01 -3.737973928451538086e+00 -7.460631728172302246e-01 8.000000000000000000e+00
3.881961405277252197e-01 -1.666855573654175027e+00 1.497335731983185092e-01 8.200000000000000000e+01
4.168289005756378174e-01 -1.791215538978577104e+00 -2.912809848785399836e-01 5.800000000000000000e+01
3.884425759315490723e-01 -1.670553207397460938e+00 2.105902284383774081e-01 6.100000000000000000e+01
4.186999201774597168e-01 -1.802105069160460982e+00 -2.271644622087478915e-01 4.200000000000000000e+01
3.804396390914916992e-01 -1.637430906295775923e+00 2.662514448165894110e-01 6.600000000000000000e+01
4.032525718212128241e-01 -1.736994147300719993e+00 -1.560087800025939941e-01 8.600000000000000000e+01
3.722132146358489990e-01 -1.604564666748047097e+00 3.201774954795836847e-01 9.100000000000000000e+01
4.013754427433013916e-01 -1.731652259826659934e+00 -9.315799921751022339e-02 7.300000000000000000e+01
3.785788118839263916e-01 -1.634597778320312944e+00 3.873657286167144775e-01 7.700000000000000000e+01
4.035140872001647949e-01 -1.743645787239074929e+00 -3.123980760574341167e-02 7.300000000000000000e+01
3.677685856819152832e-01 -1.590447664260864036e+00 4.374041855335236151e-01 7.500000000000000000e+01
6.091314554214477539e-01 -2.648982763290404829e+00 -7.283167839050292969e-01 1.400000000000000000e+01
3.931621909141541082e-01 -1.711145877838134988e+00 3.064642660319805145e-02 7.300000000000000000e+01
7.111991643905639648e-01 -3.097804307937622070e+00 -7.337903380393981934e-01 1.000000000000000000e+01
3.856812715530396063e-01 -1.679930329322814941e+00 9.033185988664627075e-02 8.500000000000000000e+01
8.568592071533203125e-01 -3.735251665115356001e+00 -7.449183464050292969e-01 1.100000000000000000e+01
3.841559290885924738e-01 -1.675968647003174050e+00 1.504308134317398071e-01 8.000000000000000000e+01
3.843802213668823242e-01 -1.679639220237731934e+00 2.115651816129683893e-01 6.100000000000000000e+01
3.738409578800200861e-01 -1.634897470474242942e+00 2.656257152557373047e-01 6.700000000000000000e+01
3.980744481086730957e-01 -1.742275834083556907e+00 -1.563574075698853094e-01 8.500000000000000000e+01
3.701056540012360174e-01 -1.621166229248047097e+00 3.232304453849791925e-01 8.600000000000000000e+01
3.975493311882019043e-01 -1.742778897285460982e+00 -9.368136525154113770e-02 7.700000000000000000e+01
3.728706836700438898e-01 -1.635909318923949973e+00 3.873657286167144775e-01 8.000000000000000000e+01
3.956489562988281250e-01 -1.737244606018065962e+00 -3.110018745064735066e-02 7.100000000000000000e+01
3.635006248950958252e-01 -1.597372889518738015e+00 4.389570951461791992e-01 8.000000000000000000e+01
5.998810529708862305e-01 -2.651092767715454102e+00 -7.283167839050292969e-01 1.300000000000000000e+01
3.902736902236937921e-01 -1.726161122322082964e+00 3.089075908064841877e-02 7.700000000000000000e+01
7.025285959243774414e-01 -3.109772205352783203e+00 -7.360398769378662109e-01 1.000000000000000000e+01
3.798148930072783869e-01 -1.681266427040100098e+00 9.033185988664627075e-02 8.500000000000000000e+01
8.429509401321411133e-01 -3.734389781951903853e+00 -7.441551089286804199e-01 1.100000000000000000e+01
3.787417113780974787e-01 -1.679242968559264915e+00 1.506051272153854093e-01 7.600000000000000000e+01
1.063549399375915971e+00 -4.719340801239013672e+00 -7.662159800529479980e-01 9.000000000000000000e+00
3.811313211917877197e-01 -1.692590355873107910e+00 2.130276113748550137e-01 6.700000000000000000e+01
1.505478262901305930e+00 -6.691223621368408203e+00 -8.421171903610229492e-01 1.000000000000000000e+00
3.659637868404387873e-01 -1.626556515693664995e+00 2.640613913536071777e-01 6.000000000000000000e+01
3.919903337955474854e-01 -1.743654727935791016e+00 -1.563574075698853094e-01 8.300000000000000000e+01
3.640142083168029785e-01 -1.620532751083374023e+00 3.228488266468048096e-01 7.100000000000000000e+01
3.927756547927855890e-01 -1.750002384185791016e+00 -9.399537742137908936e-02 8.200000000000000000e+01
3.688637614250183105e-01 -1.644806981086730957e+00 3.891653120517731268e-01 8.000000000000000000e+01
3.878334760665894110e-01 -1.730809807777405007e+00 -3.096056915819644928e-02 7.100000000000000000e+01
3.603135645389556885e-01 -1.607995033264159934e+00 4.415452778339385986e-01 9.500000000000000000e+01
5.889442563056945801e-01 -2.645627975463867188e+00 -7.262462377548217773e-01 1.400000000000000000e+01
3.833775520324707031e-01 -1.723608970642090066e+00 3.082094900310039867e-02 8.000000000000000000e+01
6.950514316558837891e-01 -3.127424001693726030e+00 -7.396390438079833984e-01 1.200000000000000000e+01
3.756770789623259943e-01 -1.690380692481995073e+00 9.075054526329040527e-02 8.500000000000000000e+01
8.286335468292236328e-01 -3.731559753417969194e+00 -7.430102229118347168e-01 1.000000000000000000e+01
3.724461793899536133e-01 -1.678609609603882058e+00 1.504308134317398071e-01 7.200000000000000000e+01
1.047924518585205078e+00 -4.726881980895996094e+00 -7.668417692184448242e-01 9.000000000000000000e+00
3.773673176765441895e-01 -1.703601002693176047e+00 2.142463028430938998e-01 6.600000000000000000e+01
1.491549849510193093e+00 -6.739078044891357422e+00 -8.474794030189514160e-01 3.000000000000000000e+00
3.632719516754149836e-01 -1.641324996948241965e+00 2.662514448165894110e-01 6.500000000000000000e+01
3.850410282611846924e-01 -1.741121649742126021e+00 -1.560087800025939941e-01 7.500000000000000000e+01
3.608967959880828857e-01 -1.633295536041259988e+00 3.251385390758513849e-01 7.100000000000000000e+01
3.840810954570770264e-01 -1.739660978317260964e+00 -9.336734563112258911e-02 8.700000000000000000e+01
3.652190268039702814e-01 -1.655599474906920943e+00 3.914148211479187012e-01 1.000000000000000000e+02
3.817894458770751953e-01 -1.732153058052062988e+00 -3.096056915819644928e-02 7.300000000000000000e+01
3.531710803508759100e-01 -1.603644847869873047e+00 4.399923682212830145e-01 8.200000000000000000e+01
5.792925357818603516e-01 -2.645780563354492188e+00 -7.257286310195922852e-01 1.500000000000000000e+01
3.739398121833801270e-01 -1.709308743476867898e+00 3.054171055555343975e-02 8.000000000000000000e+01
6.824659109115600586e-01 -3.122215986251831055e+00 -7.378394603729248047e-01 1.100000000000000000e+01
3.699051439762114923e-01 -1.693697571754456010e+00 9.085521847009658813e-02 7.500000000000000000e+01
8.181163668632507324e-01 -3.745937824249268022e+00 -7.452999353408813477e-01 1.100000000000000000e+01
3.674340248107910156e-01 -1.683792710304260032e+00 1.507794409990310947e-01 7.000000000000000000e+01
1.027209997177124023e+00 -4.711210727691650391e+00 -7.637130618095397949e-01 8.000000000000000000e+00
3.726859688758850098e-01 -1.710726737976073997e+00 2.149775177240371982e-01 6.300000000000000000e+01
1.467172622680664062e+00 -6.740364074707031250e+00 -8.469919562339782715e-01 1.000000000000000000e+00
3.596411347389221191e-01 -1.652233958244323953e+00 2.678157985210419256e-01 8.000000000000000000e+01
3.815015554428101141e-01 -1.754136323928833008e+00 -1.570546478033066073e-01 5.000000000000000000e+01
3.589453697204589844e-01 -1.651811718940735085e+00 3.285730779170989990e-01 8.200000000000000000e+01
3.780062198638916016e-01 -1.740990996360779031e+00 -9.336734563112258911e-02 8.300000000000000000e+01
3.610902726650238037e-01 -1.664481997489928977e+00 3.932144343852996826e-01 1.000000000000000000e+02
3.774352371692656916e-01 -1.741292476654052956e+00 -3.110018745064735066e-02 7.100000000000000000e+01
3.498974442481995184e-01 -1.614247202873229980e+00 4.425805807113646906e-01 7.300000000000000000e+01
5.728996992111206055e-01 -2.661006450653076172e+00 -7.293520569801330566e-01 1.400000000000000000e+01
3.696530759334564209e-01 -1.718423485755919966e+00 3.068133071064949036e-02 8.000000000000000000e+01
6.715631484985351562e-01 -3.124579191207886186e+00 -7.378394603729248047e-01 1.100000000000000000e+01
3.648294806480408270e-01 -1.698884010314940962e+00 9.106456488370895386e-02 7.300000000000000000e+01
8.075088262557983398e-01 -3.760287761688231978e+00 -7.475896477699279785e-01 1.000000000000000000e+01
3.644801378250122070e-01 -1.698701381683350053e+00 1.519996225833893100e-01 6.900000000000000000e+01
1.015727519989013894e+00 -4.737945556640625000e+00 -7.674674987792968750e-01 9.000000000000000000e+00
3.662963807582855225e-01 -1.710076093673706055e+00 2.147337794303894043e-01 5.800000000000000000e+01
1.445297122001647949e+00 -6.753209114074707031e+00 -8.479669094085693359e-01 1.000000000000000000e+00
3.568874895572661798e-01 -1.668994665145874023e+00 2.703187465667725164e-01 7.600000000000000000e+01
3.837085962295532227e-01 -1.794424295425415039e+00 -1.605408787727355957e-01 1.000000000000000000e+01
3.535874783992766779e-01 -1.654974579811095969e+00 3.289546966552733820e-01 8.800000000000000000e+01
3.719267249107360840e-01 -1.742299914360045943e+00 -9.336734563112258911e-02 8.200000000000000000e+01
3.552779555320739746e-01 -1.665732264518738015e+00 3.932144343852996826e-01 9.200000000000000000e+01
3.730218112468718927e-01 -1.750422477722167969e+00 -3.123980760574341167e-02 7.100000000000000000e+01
3.451855182647705078e-01 -1.621187329292296919e+00 4.441334903240203857e-01 7.000000000000000000e+01
5.641364455223083496e-01 -2.660903215408325195e+00 -7.288344502449035645e-01 1.300000000000000000e+01
3.659102618694304865e-01 -1.727401494979857954e+00 3.082094900310039867e-02 8.200000000000000000e+01
6.617437005043029785e-01 -3.126673698425292969e+00 -7.378394603729248047e-01 1.100000000000000000e+01
3.594904839992523193e-01 -1.700021743774414062e+00 9.106456488370895386e-02 7.000000000000000000e+01
7.944730520248413086e-01 -3.757043600082397017e+00 -7.464447617530822754e-01 1.100000000000000000e+01
3.599654436111450195e-01 -1.703736782073975053e+00 1.523482352495192926e-01 6.700000000000000000e+01
1.002469897270203081e+00 -4.748844146728515625e+00 -7.687189579010009766e-01 9.000000000000000000e+00
3.609222173690795898e-01 -1.711218476295470969e+00 2.147337794303894043e-01 5.800000000000000000e+01
1.422436833381653054e+00 -6.749946594238281250e+00 -8.469919562339782715e-01 1.000000000000000000e+00
3.523412644863129217e-01 -1.671979069709778054e+00 2.706316113471984863e-01 6.900000000000000000e+01
2.168254375457764116e+00 -1.029801177978515980e+01 -9.207132458686828613e-01 2.000000000000000000e+00
3.483864963054656982e-01 -1.656077146530150923e+00 3.289546966552733820e-01 8.100000000000000000e+01
3.664512932300568182e-01 -1.743459820747375044e+00 -9.336734563112258911e-02 6.300000000000000000e+01
3.480406105518341064e-01 -1.657304525375365989e+00 3.909649252891541082e-01 8.700000000000000000e+01
3.658783137798308771e-01 -1.743757367134094016e+00 -3.110018745064735066e-02 7.100000000000000000e+01
3.439441919326782227e-01 -1.639220476150512917e+00 4.487922191619873047e-01 6.600000000000000000e+01
5.552387833595275879e-01 -2.664747476577758789e+00 -7.293520569801330566e-01 1.200000000000000000e+01
3.598782718181610107e-01 -1.728668212890625000e+00 3.082094900310039867e-02 7.700000000000000000e+01
6.500318646430969238e-01 -3.125148773193358931e+00 -7.369396686553955078e-01 1.100000000000000000e+01
3.547732830047606867e-01 -1.707132697105407937e+00 9.137857705354690552e-02 6.600000000000000000e+01
7.801553010940551758e-01 -3.754027366638184038e+00 -7.452999353408813477e-01 1.000000000000000000e+01
3.544211387634276789e-01 -1.706933617591857910e+00 1.525225490331650058e-01 6.500000000000000000e+01
9.866896867752075195e-01 -4.756183147430419922e+00 -7.693446874618530273e-01 9.000000000000000000e+00
3.593785464763640802e-01 -1.733849406242371050e+00 2.174149155616759976e-01 6.700000000000000000e+01
1.404904723167418990e+00 -6.784028530120849609e+00 -8.506480455398559570e-01 3.000000000000000000e+00
3.454102873802185059e-01 -1.669390439987183061e+00 2.700058817863463800e-01 6.600000000000000000e+01
3.449882864952086847e-01 -1.668818831443787065e+00 3.312444090843201239e-01 7.400000000000000000e+01
3.599592447280883789e-01 -1.742772340774535911e+00 -9.326267242431640625e-02 1.600000000000000000e+01
3.454042077064514160e-01 -1.673777461051940918e+00 3.945641517639160156e-01 8.100000000000000000e+01
3.581740260124207098e-01 -1.737189888954163042e+00 -3.096056915819644928e-02 7.300000000000000000e+01
3.379338383674622137e-01 -1.640470147132873979e+00 4.487922191619873047e-01 7.500000000000000000e+01
5.432214736938476562e-01 -2.653421163558959961e+00 -7.257286310195922852e-01 1.200000000000000000e+01
3.546433448791503906e-01 -1.733832120895385964e+00 3.089075908064841877e-02 7.700000000000000000e+01
6.418503522872924805e-01 -3.140763759613037109e+00 -7.400889396667480469e-01 1.200000000000000000e+01
3.512094318866729736e-01 -1.720101952552794966e+00 9.200660884380340576e-02 6.800000000000000000e+01
7.694030404090881348e-01 -3.768269300460814986e+00 -7.475896477699279785e-01 1.000000000000000000e+01
3.476642072200775146e-01 -1.704256057739258035e+00 1.521739214658736905e-01 6.300000000000000000e+01
9.708704948425292969e-01 -4.763469219207763672e+00 -7.699704170227050781e-01 9.000000000000000000e+00
3.529280126094818115e-01 -1.733148097991942915e+00 2.171711772680282870e-01 6.600000000000000000e+01
1.378445148468018022e+00 -6.775274276733398438e+00 -8.489418625831604004e-01 3.000000000000000000e+00
3.386910259723662775e-01 -1.664719581604003906e+00 2.690672874450684149e-01 6.000000000000000000e+01
3.403331339359282892e-01 -1.675784826278686968e+00 3.323892652988433838e-01 7.200000000000000000e+01
5.150827407836914062e+00 -2.538515472412109020e+01 -1.357490062713623047e+00 1.200000000000000000e+01
3.395595252513884943e-01 -1.674973011016845925e+00 3.945641517639160156e-01 7.400000000000000000e+01
3.544897139072418213e-01 -1.750188946723937988e+00 -3.116999752819538116e-02 6.500000000000000000e+01
3.301910161972045898e-01 -1.630221366882323997e+00 4.456863999366760254e-01 7.500000000000000000e+01
5.354793667793273926e-01 -2.662877082824707031e+00 -7.277991771697998047e-01 1.400000000000000000e+01
3.462256789207457941e-01 -1.723296403884887917e+00 3.068133071064949036e-02 7.700000000000000000e+01
6.308831572532653809e-01 -3.142985105514525923e+00 -7.400889396667480469e-01 1.200000000000000000e+01
3.459884822368621826e-01 -1.725233912467956987e+00 9.221595525741577148e-02 6.600000000000000000e+01
7.547005414962768555e-01 -3.763232231140137163e+00 -7.460631728172302246e-01 1.100000000000000000e+01
3.424959480762482245e-01 -1.709366321563720925e+00 1.525225490331650058e-01 6.100000000000000000e+01
9.495840668678283691e-01 -4.743586063385009766e+00 -7.662159800529479980e-01 9.000000000000000000e+00
3.472653329372406006e-01 -1.736316084861754927e+00 2.174149155616759976e-01 6.700000000000000000e+01
1.359454274177551047e+00 -6.803403854370117188e+00 -8.518667221069335938e-01 1.000000000000000000e+00
3.368412554264069159e-01 -1.687258362770081010e+00 2.725088298320770264e-01 5.500000000000000000e+01
3.321773707866669256e-01 -1.665410637855530007e+00 3.300995528697968084e-01 6.800000000000000000e+01
5.093411922454833984e+00 -2.555967903137207031e+01 -1.365863800048827903e+00 1.200000000000000000e+01
3.356132805347443182e-01 -1.685704231262207031e+00 3.968136608600615900e-01 7.200000000000000000e+01
3.514992296695709229e-01 -1.767105937004088911e+00 -3.144923597574234009e-02 4.600000000000000000e+01
3.272261619567871094e-01 -1.646578907966613992e+00 4.498274922370911200e-01 7.200000000000000000e+01
5.280521512031555176e-01 -2.674206256866455078e+00 -7.303873300552368164e-01 1.300000000000000000e+01
3.436914980411530096e-01 -1.742151379585265891e+00 3.099547326564789165e-02 7.300000000000000000e+01
6.180240511894226074e-01 -3.135608196258544922e+00 -7.378394603729248047e-01 1.100000000000000000e+01
3.418935835361481268e-01 -1.736229300498961958e+00 9.273931384086608887e-02 6.100000000000000000e+01
7.434563636779785156e-01 -3.775475025177001953e+00 -7.479712367057800293e-01 9.000000000000000000e+00
3.384500741958618164e-01 -1.720326066017151101e+00 1.533941030502319058e-01 5.800000000000000000e+01
9.364488720893859863e-01 -4.764316082000732422e+00 -7.690318226814270020e-01 7.000000000000000000e+00
3.396722972393035889e-01 -1.729726076126099077e+00 2.164399474859237948e-01 6.300000000000000000e+01
1.335697650909424050e+00 -6.808107852935791016e+00 -8.518667221069335938e-01 1.000000000000000000e+00
3.335260748863220215e-01 -1.699996709823607954e+00 2.743860483169556219e-01 5.500000000000000000e+01
3.271165788173676092e-01 -1.670413255691528098e+00 3.308627903461455744e-01 4.900000000000000000e+01
5.021034240722656250e+00 -2.566354751586914062e+01 -1.370469331741333008e+00 1.200000000000000000e+01
3.301008641719818115e-01 -1.688778042793273926e+00 3.972635567188262939e-01 6.800000000000000000e+01
3.232451975345612127e-01 -1.655239105224608931e+00 4.518980383872985840e-01 6.500000000000000000e+01
5.183466076850891113e-01 -2.674136638641356978e+00 -7.298697233200073242e-01 1.300000000000000000e+01
3.379883468151093084e-01 -1.745303750038146973e+00 3.103037923574447979e-02 5.400000000000000000e+01
6.063346266746520996e-01 -3.133919954299927202e+00 -7.369396686553955078e-01 1.100000000000000000e+01
3.346938192844390869e-01 -1.731529235839843972e+00 9.242530167102813721e-02 5.400000000000000000e+01
7.313907146453857422e-01 -3.783829927444458008e+00 -7.491161227226257324e-01 1.100000000000000000e+01
3.331985175609589178e-01 -1.725409507751465066e+00 1.537427306175231934e-01 5.200000000000000000e+01
9.224320650100708008e-01 -4.781133174896240234e+00 -7.712219357490539551e-01 9.000000000000000000e+00
3.373894691467285156e-01 -1.750393390655518022e+00 2.188773453235625943e-01 5.900000000000000000e+01
1.306669592857361062e+00 -6.785439014434813565e+00 -8.484543561935424805e-01 1.000000000000000000e+00
3.287858366966248114e-01 -1.708966851234436035e+00 2.756375372409821112e-01 5.200000000000000000e+01
3.264717161655426025e-01 -1.698536515235901101e+00 3.362054526805878241e-01 4.300000000000000000e+01
4.917109012603759766e+00 -2.560638236999512074e+01 -1.366491794586182085e+00 1.200000000000000000e+01
3.231024444103240967e-01 -1.684178471565247026e+00 3.959138691425322931e-01 6.500000000000000000e+01
8.753260612487792969e+00 -4.566963577270507812e+01 -8.116765022277832031e-01 1.200000000000000000e+01
3.204461336135864258e-01 -1.673489212989806907e+00 4.565567970275878906e-01 5.600000000000000000e+01
5.090089440345764160e-01 -2.675929784774779829e+00 -7.298697233200073242e-01 1.500000000000000000e+01
3.393607437610626221e-01 -1.785763621330261008e+00 3.172847628593444824e-02 1.200000000000000000e+01
5.982993841171264648e-01 -3.151333570480347124e+00 -7.405388951301574707e-01 1.300000000000000000e+01
3.305085897445679266e-01 -1.742498397827147993e+00 9.294866025447845459e-02 4.900000000000000000e+01
7.170806527137756348e-01 -3.780573368072510210e+00 -7.479712367057800293e-01 1.100000000000000000e+01
3.301412463188170832e-01 -1.742222547531127930e+00 1.551372259855270108e-01 5.000000000000000000e+01
9.057372212409973145e-01 -4.784324169158936435e+00 -7.712219357490539551e-01 9.000000000000000000e+00
3.353353738784790039e-01 -1.773016095161437988e+00 2.215584665536879938e-01 5.600000000000000000e+01
1.283713221549988015e+00 -6.793859958648681641e+00 -8.489418625831604004e-01 1.000000000000000000e+00
3.242171704769135077e-01 -1.715870857238769975e+00 2.765761315822600763e-01 5.000000000000000000e+01
3.278174698352814276e-01 -1.738250613212585005e+00 3.438377976417542059e-01 4.700000000000000000e+01
4.777403354644775391e+00 -2.535646057128905895e+01 -1.352256417274475098e+00 1.200000000000000000e+01
3.193844556808472235e-01 -1.696786642074584961e+00 3.986132740974426270e-01 6.300000000000000000e+01
3.152519166469573975e-01 -1.676441192626952903e+00 4.570744335651398260e-01 5.700000000000000000e+01
4.978932440280913752e-01 -2.668194770812987837e+00 -7.272815108299255371e-01 1.400000000000000000e+01
5.887227654457092285e-01 -3.161066055297852007e+00 -7.423384785652160645e-01 1.100000000000000000e+01
3.295389115810393732e-01 -1.771131277084351030e+00 9.441406279802322388e-02 4.000000000000000000e+01
7.035205364227294922e-01 -3.781123161315917969e+00 -7.475896477699279785e-01 1.000000000000000000e+01
3.247859477996826172e-01 -1.747281908988953081e+00 1.554858386516571045e-01 4.700000000000000000e+01
8.883099555969238281e-01 -4.783572196960449219e+00 -7.705961465835571289e-01 9.000000000000000000e+00
3.291443586349486750e-01 -1.774175763130187988e+00 2.215584665536879938e-01 5.000000000000000000e+01
1.258543372154236062e+00 -6.790492057800292969e+00 -8.479669094085693359e-01 1.000000000000000000e+00
3.207455873489379883e-01 -1.730588197708130105e+00 2.787662148475646973e-01 4.700000000000000000e+01
3.235333561897277832e-01 -1.749036908149719016e+00 3.457458913326262873e-01 4.500000000000000000e+01
4.688863754272460938e+00 -2.537298202514648082e+01 -1.352256417274475098e+00 1.200000000000000000e+01
3.152285814285277765e-01 -1.707472920417786089e+00 4.008627831935883123e-01 6.200000000000000000e+01
3.097485005855559748e-01 -1.679431319236754927e+00 4.575920701026917059e-01 5.500000000000000000e+01
4.899674355983734131e-01 -2.677517890930175781e+00 -7.293520569801330566e-01 1.400000000000000000e+01
5.762845277786254883e-01 -3.155433893203734907e+00 -7.405388951301574707e-01 1.000000000000000000e+01
3.298072516918181818e-01 -1.807637691497802956e+00 9.629815816879272461e-02 7.000000000000000000e+00
6.917271614074707031e-01 -3.791281461715697798e+00 -7.491161227226257324e-01 1.000000000000000000e+01
3.226147890090941828e-01 -1.769966125488281028e+00 1.574032753705978116e-01 4.400000000000000000e+01
8.712528944015502930e-01 -4.784700393676757812e+00 -7.702832818031311035e-01 9.000000000000000000e+00
3.229493200778961182e-01 -1.775313973426819070e+00 2.215584665536879938e-01 4.000000000000000000e+01
1.243350982666016069e+00 -6.841718673706054688e+00 -8.538166284561157227e-01 1.000000000000000000e+00
3.235749304294586182e-01 -1.782285928726196067e+00 2.869008183479309082e-01 4.400000000000000000e+01
3.188275396823883057e-01 -1.757882475852966087e+00 3.472723662853240967e-01 4.900000000000000000e+01
4.600266933441162109e+00 -2.538919448852539062e+01 -1.352256417274475098e+00 1.200000000000000000e+01
3.116961717605590820e-01 -1.721985936164855957e+00 4.040120840072631836e-01 6.500000000000000000e+01
3.049156069755554199e-01 -1.686205267906188965e+00 4.591449797153472900e-01 5.200000000000000000e+01
4.813003838062285822e-01 -2.683014869689940962e+00 -7.303873300552368164e-01 1.200000000000000000e+01
5.638928413391113281e-01 -3.149753093719481978e+00 -7.387392520904541016e-01 1.000000000000000000e+01
3.294730484485626221e-01 -1.842200994491576926e+00 9.807758033275604248e-02 3.000000000000000000e+00
6.798714995384216309e-01 -3.801403284072875977e+00 -7.506425976753234863e-01 1.000000000000000000e+01
8.555871248245239258e-01 -4.793546199798583984e+00 -7.712219357490539551e-01 9.000000000000000000e+00
3.230226337909697931e-01 -1.811607241630553977e+00 2.259457558393478116e-01 1.700000000000000000e+01
1.216676354408263938e+00 -6.830382347106933594e+00 -8.518667221069335938e-01 1.000000000000000000e+00
3.246192038059235174e-01 -1.824245929718018022e+00 2.934710681438446045e-01 5.000000000000000000e+01
3.185309171676635742e-01 -1.791844844818115012e+00 3.537598848342896063e-01 5.500000000000000000e+01
4.506026744842529297e+00 -2.537363433837890980e+01 -1.350581645965575950e+00 1.200000000000000000e+01
3.060238361358643133e-01 -1.724982261657715066e+00 4.044620096683502197e-01 6.800000000000000000e+01
3.021011948585510254e-01 -1.706334233283997026e+00 4.643213748931884766e-01 5.500000000000000000e+01
4.734682142734528143e-01 -2.696177244186400923e+00 -7.334931492805480957e-01 9.000000000000000000e+00
5.526810288429260254e-01 -3.153718233108520952e+00 -7.391891479492187500e-01 1.000000000000000000e+01
3.223744034767150879e-01 -1.841428756713866965e+00 9.797290712594985962e-02 2.400000000000000000e+01
6.649184226989746094e-01 -3.798068046569824219e+00 -7.494977116584777832e-01 1.000000000000000000e+01
8.386920690536499023e-01 -4.800541877746582031e+00 -7.718476653099060059e-01 9.000000000000000000e+00
3.245716691017150879e-01 -1.859711885452270952e+00 2.317954897880553922e-01 2.000000000000000000e+00
1.195725083351135032e+00 -6.858263015747070312e+00 -8.547915816307067871e-01 1.000000000000000000e+00
3.216592371463776190e-01 -1.846830368041991965e+00 2.969126105308533270e-01 6.700000000000000000e+01
3.186918795108795166e-01 -1.831684231758117898e+00 3.613922297954558771e-01 5.400000000000000000e+01
4.411629199981688565e+00 -2.538210678100585938e+01 -1.350162982940674050e+00 1.200000000000000000e+01
2.993660271167755127e-01 -1.724172353744507058e+00 4.040120840072631836e-01 6.500000000000000000e+01
2.964732944965363104e-01 -1.709281802177428977e+00 4.648390114307404120e-01 4.800000000000000000e+01
4.607790112495421808e-01 -2.678774595260620117e+00 -7.283167839050292969e-01 1.000000000000000000e+00
5.426581501960754395e-01 -3.161390304565430132e+00 -7.405388951301574707e-01 1.000000000000000000e+01
3.139193654060363770e-01 -1.830731749534606934e+00 9.734487533569335938e-02 3.000000000000000000e+01
6.506612300872802734e-01 -3.794560909271239790e+00 -7.483528852462768555e-01 1.000000000000000000e+01
3.165354430675507147e-01 -1.847924351692199929e+00 1.640271097421646118e-01 1.000000000000000000e+00
8.259279727935791016e-01 -4.826805114746093750e+00 -7.756021022796630859e-01 9.000000000000000000e+00
1.164427161216736062e+00 -6.819345951080322266e+00 -8.494293093681335449e-01 1.000000000000000000e+00
3.158749341964722235e-01 -1.851836323738097922e+00 2.975383400917053223e-01 8.800000000000000000e+01
3.142748177051544189e-01 -1.844397664070128950e+00 3.636819422245026190e-01 6.100000000000000000e+01
4.318310260772705078e+00 -2.536978721618651988e+01 -1.348697543144226074e+00 1.100000000000000000e+01
2.949790358543395996e-01 -1.734812617301940918e+00 4.062615931034088135e-01 5.800000000000000000e+01
2.927694916725159247e-01 -1.723638296127318892e+00 4.684624671936035156e-01 4.500000000000000000e+01
5.335574150085449219e-01 -3.174795866012572798e+00 -7.432382702827453613e-01 1.000000000000000000e+01
3.061916232109069824e-01 -1.821914434432982954e+00 9.682151675224304199e-02 3.100000000000000000e+01
6.387119293212890625e-01 -3.804553508758544922e+00 -7.498793601989746094e-01 1.000000000000000000e+01
3.057992160320281982e-01 -1.823473691940308061e+00 1.617610603570938110e-01 1.500000000000000000e+01
8.080951571464538574e-01 -4.823813915252686435e+00 -7.746634483337402344e-01 7.000000000000000000e+00
1.146507382392883079e+00 -6.858611583709716797e+00 -8.538166284561157227e-01 1.000000000000000000e+00
3.142950832843781073e-01 -1.884213447570801003e+00 3.713143169879912775e-01 5.200000000000000000e+01
4.240888118743895596e+00 -2.545169067382812855e+01 -1.352256417274475098e+00 1.200000000000000000e+01
2.892415821552277166e-01 -1.737753987312316895e+00 4.067115187644957941e-01 5.300000000000000000e+01
7.758024692535400391e+00 -4.666024398803710938e+01 -8.256384730339050293e-01 1.200000000000000000e+01
2.870679497718811035e-01 -1.726555466651916948e+00 4.689801037311553955e-01 4.400000000000000000e+01
5.218394994735717773e-01 -3.172793149948120117e+00 -7.423384785652160645e-01 1.100000000000000000e+01
2.991881370544434149e-01 -1.821053624153136985e+00 9.671684354543685913e-02 3.300000000000000000e+01
6.273373961448669434e-01 -3.818383693695067915e+00 -7.521690726280212402e-01 1.000000000000000000e+01
2.968509197235106867e-01 -1.808801293373107910e+00 1.603665649890899936e-01 3.900000000000000000e+01
7.902932763099670410e-01 -4.820757389068604404e+00 -7.737248539924621582e-01 9.000000000000000000e+00
1.125764012336730957e+00 -6.882162570953369141e+00 -8.562539815902709961e-01 1.000000000000000000e+00
3.067616522312163752e-01 -1.877390742301940918e+00 3.012927770614624023e-01 7.000000000000000000e+00
3.105623424053192139e-01 -1.902737617492676003e+00 3.747488558292388916e-01 5.000000000000000000e+01
4.152019500732421875e+00 -2.546633911132812855e+01 -1.352256417274475098e+00 1.200000000000000000e+01
2.869328558444976807e-01 -1.761833906173706055e+00 4.121103286743164062e-01 4.600000000000000000e+01
2.844562530517578125e-01 -1.750478029251099077e+00 4.751917719841002863e-01 4.000000000000000000e+01
5.094559788703918457e-01 -3.162962675094604048e+00 -7.396390438079833984e-01 1.000000000000000000e+01
2.925128340721129816e-01 -1.816069006919861062e+00 9.640283137559890747e-02 2.700000000000000000e+01
6.140480041503906250e-01 -3.816566228866577148e+00 -7.514058351516723633e-01 1.000000000000000000e+01
2.940125167369843084e-01 -1.829447150230407937e+00 1.621096879243850986e-01 5.200000000000000000e+01
7.739896178245544434e-01 -4.821401119232177734e+00 -7.734119892120361328e-01 9.000000000000000000e+00
2.944995462894440252e-01 -1.836569428443908913e+00 2.283831536769866943e-01 1.000000000000000000e+00
1.101051926612854004e+00 -6.874097347259520596e+00 -8.547915816307067871e-01 1.000000000000000000e+00
3.030309677124022882e-01 -1.894002199172974077e+00 3.037957251071929932e-01 4.200000000000000000e+01
3.027017712593079168e-01 -1.894063711166382058e+00 3.728407621383666992e-01 5.800000000000000000e+01
4.067546844482421875e+00 -2.547996711730957031e+01 -1.352256417274475098e+00 1.200000000000000000e+01
2.820094227790833075e-01 -1.768548965454102007e+00 4.134600460529326837e-01 4.400000000000000000e+01
2.850330173969268799e-01 -1.789519071578979048e+00 4.855445325374603271e-01 5.800000000000000000e+01
5.002310872077941895e-01 -3.176271677017211914e+00 -7.423384785652160645e-01 1.000000000000000000e+01
2.867932319641112726e-01 -1.821024894714355025e+00 9.661217778921127319e-02 1.300000000000000000e+01
6.007219552993774414e-01 -3.818686485290526900e+00 -7.514058351516723633e-01 1.100000000000000000e+01
2.857691347599030096e-01 -1.818652868270874023e+00 1.610638052225112915e-01 3.300000000000000000e+01
7.565425038337707520e-01 -4.820170402526854581e+00 -7.727862596511840820e-01 9.000000000000000000e+00
2.893167436122893732e-01 -1.845430731773376021e+00 2.293581068515777865e-01 1.000000000000000000e+01
1.072750568389893022e+00 -6.850441932678222656e+00 -8.513792157173156738e-01 1.000000000000000000e+00
2.951967418193817139e-01 -1.887241840362549050e+00 3.025442659854888916e-01 6.400000000000000000e+01
2.963914871215819757e-01 -1.897048592567444070e+00 3.732223808765410822e-01 6.800000000000000000e+01
3.978580474853516069e+00 -2.549400901794433949e+01 -1.352256417274475098e+00 1.200000000000000000e+01
2.782354950904846191e-01 -1.784926533699036089e+00 4.170592427253723145e-01 4.900000000000000000e+01
2.903759777545928955e-01 -1.864948391914367898e+00 5.057324171066284180e-01 7.300000000000000000e+01
4.885478615760803223e-01 -3.174146413803101030e+00 -7.414386868476867676e-01 1.100000000000000000e+01
2.822413146495819092e-01 -1.835882306098937988e+00 9.734487533569335938e-02 8.000000000000000000e+00
5.858970284461975098e-01 -3.811057806015015093e+00 -7.494977116584777832e-01 1.100000000000000000e+01
7.409102320671081543e-01 -4.830592155456542969e+00 -7.740377187728881836e-01 7.000000000000000000e+00
2.828732132911682129e-01 -1.846429467201232910e+00 2.293581068515777865e-01 2.800000000000000000e+01
1.050633192062377930e+00 -6.865918159484863281e+00 -8.528416752815246582e-01 1.000000000000000000e+00
2.832596600055695135e-01 -1.851110100746155007e+00 2.965997457504271906e-01 6.300000000000000000e+01
2.885825932025908869e-01 -1.890308499336242898e+00 3.716959357261658270e-01 7.100000000000000000e+01
3.878124952316284180e+00 -2.543271446228026988e+01 -1.348278880119323953e+00 1.100000000000000000e+01
2.740572094917296808e-01 -1.799372553825377974e+00 4.202085733413695734e-01 6.100000000000000000e+01
2.858603596687316895e-01 -1.881279587745666948e+00 5.098735094070434570e-01 9.900000000000000000e+01
4.792034029960631769e-01 -3.187394857406616211e+00 -7.441380620002746582e-01 1.100000000000000000e+01
2.794180512428284247e-01 -1.858533859252929910e+00 9.849627315998077393e-02 8.000000000000000000e+00
5.743396282196044922e-01 -3.824728727340697798e+00 -7.517874240875244141e-01 1.100000000000000000e+01
2.712925076484680176e-01 -1.808781504631042036e+00 1.600179374217987061e-01 1.100000000000000000e+01
7.234585285186767578e-01 -4.829241752624511719e+00 -7.734119892120361328e-01 7.000000000000000000e+00
2.773075401782990057e-01 -1.853295326232909934e+00 2.300893217325211126e-01 4.400000000000000000e+01
1.027833938598633035e+00 -6.877397060394287109e+00 -8.538166284561157227e-01 1.000000000000000000e+00
2.761814594268798828e-01 -1.850182175636291948e+00 2.962868809700012207e-01 6.400000000000000000e+01
2.811138927936553955e-01 -1.885478973388672097e+00 3.705510795116425116e-01 7.500000000000000000e+01
3.800503253936768022e+00 -2.552116394042969105e+01 -1.352256417274475098e+00 1.200000000000000000e+01
2.798158228397368830e-01 -1.881274700164794922e+00 4.391044676303864081e-01 9.200000000000000000e+01
2.784410715103148859e-01 -1.876533150672913042e+00 5.083206295967102051e-01 9.700000000000000000e+01
4.680743813514708918e-01 -3.189048290252685991e+00 -7.441380620002746582e-01 1.000000000000000000e+01
2.726388275623322088e-01 -1.857521772384643999e+00 9.839159995317459106e-02 3.000000000000000000e+00
5.609853267669677734e-01 -3.826710224151610884e+00 -7.517874240875244141e-01 1.200000000000000000e+01
2.646884024143218994e-01 -1.807746171951293945e+00 1.598436385393142978e-01 3.400000000000000000e+01
7.043101787567138672e-01 -4.816101074218750000e+00 -7.709090709686279297e-01 7.000000000000000000e+00
2.705497443675994873e-01 -1.852287769317626953e+00 2.298455834388732910e-01 4.800000000000000000e+01
1.006686568260193093e+00 -6.900586128234863281e+00 -8.562539815902709961e-01 1.000000000000000000e+00
2.697593569755554199e-01 -1.849133133888245073e+00 2.959740161895751953e-01 7.000000000000000000e+01
2.733997106552124023e-01 -1.878677606582642046e+00 3.690246045589447021e-01 8.300000000000000000e+01
3.701627016067504883e+00 -2.546707344055176137e+01 -1.348697543144226074e+00 1.100000000000000000e+01
2.754869759082794189e-01 -1.897668123245239036e+00 4.427036643028259277e-01 1.000000000000000000e+02
2.727196812629700262e-01 -1.883229374885559082e+00 5.098735094070434570e-01 1.000000000000000000e+02
4.552820920944213867e-01 -3.179088354110718218e+00 -7.414386868476867676e-01 1.100000000000000000e+01
5.498480796813964844e-01 -3.844192981719971147e+00 -7.548403739929199219e-01 1.100000000000000000e+01
2.583765685558319092e-01 -1.808659076690674050e+00 1.598436385393142978e-01 4.800000000000000000e+01
6.900057196617126465e-01 -4.836130619049072266e+00 -7.737248539924621582e-01 9.000000000000000000e+00
2.615619897842407227e-01 -1.835533738136291948e+00 2.276519387960433960e-01 5.400000000000000000e+01
9.797959327697753906e-01 -6.884405136108398438e+00 -8.538166284561157227e-01 1.000000000000000000e+00
2.638596892356873114e-01 -1.853974819183350053e+00 2.965997457504271906e-01 8.200000000000000000e+01
2.646326720714569092e-01 -1.864070415496825950e+00 3.659716546535491943e-01 8.600000000000000000e+01
3.603735685348511186e+00 -2.541656112670898082e+01 -1.345348119735717995e+00 1.100000000000000000e+01
2.677682638168334961e-01 -1.890900254249572976e+00 4.409040808677672785e-01 1.000000000000000000e+02
2.658741176128386896e-01 -1.882256984710692915e+00 5.093559026718139648e-01 1.000000000000000000e+02
1.021819114685059010e-01 -7.289081215858459473e-01 -1.972201168537139893e-01 1.400000000000000000e+01
4.447373747825623114e-01 -3.180580615997314009e+00 -7.414386868476867676e-01 1.100000000000000000e+01
5.343818664550781250e-01 -3.826551198959351030e+00 -7.510241866111755371e-01 1.200000000000000000e+01
2.540287375450134277e-01 -1.821345686912537065e+00 1.608895063400269110e-01 5.500000000000000000e+01
6.753273606300354004e-01 -4.848174571990966797e+00 -7.752892374992370605e-01 7.000000000000000000e+00
2.568413317203521729e-01 -1.846221804618835005e+00 2.288706302642821988e-01 5.800000000000000000e+01
9.580537676811218262e-01 -6.895481109619140625e+00 -8.547915816307067871e-01 1.000000000000000000e+00
2.571665346622467041e-01 -1.850926399230957031e+00 2.959740161895751953e-01 8.200000000000000000e+01
2.597972154617310125e-01 -1.874660968780518022e+00 3.678797483444213867e-01 8.900000000000000000e+01
3.512859821319580078e+00 -2.538088989257812855e+01 -1.342836022377013938e+00 1.100000000000000000e+01
2.598953247070313055e-01 -1.880195498466491921e+00 4.382046461105347235e-01 9.700000000000000000e+01
2.612804770469666082e-01 -1.892651557922363059e+00 5.119440555572509766e-01 9.500000000000000000e+01
1.009444966912270009e-01 -7.388307452201843262e-01 -1.998082995414733887e-01 2.700000000000000000e+01
4.336323440074921209e-01 -3.182113647460937944e+00 -7.414386868476867676e-01 1.100000000000000000e+01
5.199624896049499512e-01 -3.820611953735352007e+00 -7.494977116584777832e-01 1.100000000000000000e+01
2.476695179939270020e-01 -1.822221279144287109e+00 1.608895063400269110e-01 4.400000000000000000e+01
6.573371887207031250e-01 -4.842672348022460938e+00 -7.740377187728881836e-01 9.000000000000000000e+00
2.506619095802307129e-01 -1.849074125289916992e+00 2.291143685579299927e-01 6.100000000000000000e+01
9.339781999588012695e-01 -6.898783206939697266e+00 -8.547915816307067871e-01 1.000000000000000000e+00
2.501740157604218084e-01 -1.847897768020630105e+00 2.953482568264008123e-01 8.200000000000000000e+01
2.545654177665709894e-01 -1.885284423828125000e+00 3.697878420352935791e-01 8.200000000000000000e+01
3.418370485305786133e+00 -2.534945106506348012e+01 -1.340533137321471946e+00 1.100000000000000000e+01
2.543710172176361084e-01 -1.888816475868225098e+00 4.400042593479155939e-01 9.700000000000000000e+01
2.540846168994904120e-01 -1.891681790351867898e+00 5.114264488220214844e-01 8.800000000000000000e+01
4.219221770763397217e-01 -3.187618970870972124e+00 -7.423384785652160645e-01 1.100000000000000000e+01
5.070894956588745117e-01 -3.836204528808594194e+00 -7.521690726280212402e-01 1.000000000000000000e+01
2.404101341962814053e-01 -1.821183562278748003e+00 1.607151925563811978e-01 3.300000000000000000e+01
6.382215023040771484e-01 -4.841243743896484375e+00 -7.734119892120361328e-01 7.000000000000000000e+00
2.453738898038864136e-01 -1.863799810409545898e+00 2.308205366134644110e-01 5.800000000000000000e+01
9.074819684028625488e-01 -6.902318954467773438e+00 -8.547915816307067871e-01 1.000000000000000000e+00
2.425617724657058993e-01 -1.844927787780761941e+00 2.947225272655487061e-01 8.400000000000000000e+01
2.460483908653259000e-01 -1.876515030860901101e+00 3.678797483444213867e-01 7.900000000000000000e+01
3.311156749725341797e+00 -2.528713798522948863e+01 -1.336555600166321023e+00 1.100000000000000000e+01
2.466112673282623013e-01 -1.885914683341979980e+00 4.391044676303864081e-01 9.400000000000000000e+01
2.461489588022232056e-01 -1.884938001632689986e+00 5.093559026718139648e-01 8.400000000000000000e+01
4.107927381992340088e-01 -3.189072370529174805e+00 -7.423384785652160645e-01 1.000000000000000000e+01
4.956994056701660156e-01 -3.853528976440430132e+00 -7.552220225334167480e-01 1.000000000000000000e+01
2.358285039663315097e-01 -1.835844755172729048e+00 1.619353741407394132e-01 4.000000000000000000e+01
6.213185191154479980e-01 -4.843442440032958984e+00 -7.734119892120361328e-01 7.000000000000000000e+00
2.378575801849364957e-01 -1.856768965721129927e+00 2.298455834388732910e-01 5.600000000000000000e+01
8.848941922187805176e-01 -6.917258739471436435e+00 -8.562539815902709961e-01 1.000000000000000000e+00
2.373000383377074918e-01 -1.857561111450195090e+00 2.965997457504271906e-01 7.400000000000000000e+01
2.365153431892395020e-01 -1.853992819786071999e+00 3.633003234863281250e-01 6.800000000000000000e+01
3.222867965698242188e+00 -2.529854202270508168e+01 -1.336555600166321023e+00 1.100000000000000000e+01
2.415022701025008878e-01 -1.898362994194030984e+00 4.418038725852965753e-01 8.900000000000000000e+01
8.168253898620605469e+00 -6.429736328125000000e+01 -1.131334781646728960e+00 2.300000000000000000e+01
2.387524098157882968e-01 -1.881994485855102983e+00 5.083206295967102051e-01 8.200000000000000000e+01
4.002861678600310724e-01 -3.186480045318603960e+00 -7.414386868476867676e-01 1.100000000000000000e+01
4.833464026451110840e-01 -3.853119373321533203e+00 -7.548403739929199219e-01 9.000000000000000000e+00
2.288216650485991877e-01 -1.826691865921020952e+00 1.610638052225112915e-01 1.800000000000000000e+01
6.063445210456848145e-01 -4.847330570220947266e+00 -7.737248539924621582e-01 9.000000000000000000e+00
2.310390174388884943e-01 -1.849627852439879927e+00 2.288706302642821988e-01 5.000000000000000000e+01
8.631586432456970215e-01 -6.920004367828369141e+00 -8.562539815902709961e-01 1.000000000000000000e+00
2.322765141725539884e-01 -1.862177371978759988e+00 2.972254753112792969e-01 7.200000000000000000e+01
2.328705936670303067e-01 -1.872260928153991921e+00 3.667348921298981268e-01 6.400000000000000000e+01
3.135989189147949219e+00 -2.524908065795898082e+01 -1.333415508270263894e+00 1.100000000000000000e+01
2.352973520755768100e-01 -1.897178411483765093e+00 4.413539767265319824e-01 7.200000000000000000e+01
2.345920205116271973e-01 -1.894197821617126021e+00 5.114264488220214844e-01 7.600000000000000000e+01
4.606943607330322266e+00 -3.768365478515625000e+01 6.626678705215454102e-01 3.100000000000000000e+01
3.891608417034149170e-01 -3.187857866287231001e+00 -7.414386868476867676e-01 1.000000000000000000e+01
4.698935449123383123e-01 -3.854783058166503906e+00 -7.548403739929199219e-01 9.000000000000000000e+00
2.274994701147078913e-01 -1.869013071060181108e+00 1.647243499755859097e-01 1.000000000000000000e+00
5.910888910293579102e-01 -4.863143920898438388e+00 -7.759149670600891113e-01 9.000000000000000000e+00
2.250595390796661099e-01 -1.854364275932312012e+00 2.293581068515777865e-01 3.900000000000000000e+01
8.389980792999267578e-01 -6.922975540161132812e+00 -8.562539815902709961e-01 1.000000000000000000e+00
2.245004773139953891e-01 -1.855171918869018999e+00 2.959740161895751953e-01 7.000000000000000000e+01
2.279823869466781894e-01 -1.886705875396728960e+00 3.694062232971190851e-01 6.800000000000000000e+01
3.045920372009276900e+00 -2.524401092529296875e+01 -1.332578063011168990e+00 1.100000000000000000e+01
2.263425141572951993e-01 -1.878640651702881081e+00 4.368549585342407227e-01 6.000000000000000000e+01
2.285695075988770086e-01 -1.902717232704163042e+00 5.134969949722290039e-01 6.800000000000000000e+01
