1.042037010192871094e+00 -4.711999893188476562e+00 -7.643387913703918457e-01 8.000000000000000000e+00
1.488876938819885032e+00 -6.743734836578369141e+00 -8.479669094085693359e-01 1.000000000000000000e+00
2.245547056198120117e+00 -1.017944335937500000e+01 -9.119976758956909180e-01 2.000000000000000000e+00
5.619972229003906250e+00 -2.551862335205078125e+01 -1.369422674179076926e+00 1.200000000000000000e+01
5.799681544303894043e-01 -2.655520200729370117e+00 -7.283167839050292969e-01 1.300000000000000000e+01
6.808310151100158691e-01 -3.122572898864746094e+00 -7.378394603729248047e-01 1.100000000000000000e+01
8.194980621337890625e-01 -3.761711597442626953e+00 -7.483528852462768555e-01 1.000000000000000000e+01
1.030620336532592995e+00 -4.738771438598632812e+00 -7.680932283401489258e-01 9.000000000000000000e+00
1.459431171417236106e+00 -6.721732616424561435e+00 -8.445545434951782227e-01 3.000000000000000000e+00
2.231120586395264116e+00 -1.028457546234131037e+01 -9.207132458686828613e-01 2.000000000000000000e+00
5.469985008239746094e+00 -2.525699615478515980e+01 -1.354349851608275923e+00 1.200000000000000000e+01
9.810738563537597656e+00 -4.537646102905272727e+01 -8.103501200675964355e-01 1.200000000000000000e+01
5.744064450263977051e-01 -2.672538518905640093e+00 -7.324578762054443359e-01 1.200000000000000000e+01
6.708812713623046875e-01 -3.126718997955321822e+00 -7.382893562316894531e-01 1.200000000000000000e+01
8.070192933082580566e-01 -3.764408588409423828e+00 -7.483528852462768555e-01 1.100000000000000000e+01
1.014900326728821023e+00 -4.742163181304931641e+00 -7.680932283401489258e-01 9.000000000000000000e+00
1.447087287902832031e+00 -6.773126125335693359e+00 -8.504042625427246094e-01 1.000000000000000000e+00
2.176206350326538086e+00 -1.019449234008789062e+01 -9.119976758956909180e-01 2.000000000000000000e+00
5.388697624206542969e+00 -2.528671646118164062e+01 -1.354977965354918990e+00 1.200000000000000000e+01
9.676022529602050781e+00 -4.548307037353516336e+01 -8.116765022277832031e-01 1.200000000000000000e+01
5.622786283493041992e-01 -2.661296606063843218e+00 -7.288344502449035645e-01 1.300000000000000000e+01
6.603650450706481934e-01 -3.130948543548583984e+00 -7.387392520904541016e-01 1.100000000000000000e+01
7.894209623336791992e-01 -3.746070861816405806e+00 -7.441551089286804199e-01 9.000000000000000000e+00
9.991542696952819824e-01 -4.749542713165283203e+00 -7.687189579010009766e-01 9.000000000000000000e+00
1.419356107711791992e+00 -6.758708953857421875e+00 -8.479669094085693359e-01 1.000000000000000000e+00
2.154518365859984907e+00 -1.026832485198974965e+01 -9.179242849349975586e-01 2.000000000000000000e+00
5.318413734436035156e+00 -2.539138603210448863e+01 -1.359583497047424094e+00 1.200000000000000000e+01
5.506988167762756348e-01 -2.649906396865845171e+00 -7.252109646797180176e-01 1.200000000000000000e+01
6.523539423942565918e-01 -3.144569873809814009e+00 -7.414386868476867676e-01 1.100000000000000000e+01
7.809787988662719727e-01 -3.767892122268677202e+00 -7.479712367057800293e-01 9.000000000000000000e+00
9.833987355232238770e-01 -4.752830028533936435e+00 -7.687189579010009766e-01 9.000000000000000000e+00
1.396935582160949929e+00 -6.763378620147705078e+00 -8.479669094085693359e-01 1.000000000000000000e+00
5.230959892272949219e+00 -2.539323425292969105e+01 -1.358746051788330078e+00 1.200000000000000000e+01
5.441508889198303223e-01 -2.665062189102172852e+00 -7.288344502449035645e-01 1.100000000000000000e+01
6.417625546455383301e-01 -3.148737192153931108e+00 -7.418885827064514160e-01 1.200000000000000000e+01
7.658629417419433594e-01 -3.760976552963256836e+00 -7.460631728172302246e-01 1.000000000000000000e+01
9.648348093032836914e-01 -4.746554851531982422e+00 -7.671546339988708496e-01 9.000000000000000000e+00
1.374107956886291948e+00 -6.772104263305664062e+00 -8.484543561935424805e-01 1.000000000000000000e+00
5.147834777832031250e+00 -2.543874359130859020e+01 -1.360211491584778054e+00 1.200000000000000000e+01
9.167564392089843750e+00 -4.538428497314453125e+01 -8.081860542297363281e-01 1.200000000000000000e+01
5.343793034553527832e-01 -2.667038679122924805e+00 -7.288344502449035645e-01 1.300000000000000000e+01
6.260135173797607422e-01 -3.130048513412476030e+00 -7.369396686553955078e-01 1.100000000000000000e+01
7.543812394142150879e-01 -3.775309324264525923e+00 -7.483528852462768555e-01 1.000000000000000000e+01
9.505224823951721191e-01 -4.765557289123535156e+00 -7.696575522422790527e-01 7.000000000000000000e+00
1.353929042816162109e+00 -6.800457954406738281e+00 -8.513792157173156738e-01 1.000000000000000000e+00
5.080234050750732422e+00 -2.558673667907714844e+01 -1.367119908332824929e+00 1.200000000000000000e+01
8.993386268615722656e+00 -4.537835311889647727e+01 -8.074879646301269531e-01 1.200000000000000000e+01
5.273038148880004883e-01 -2.680260896682738814e+00 -7.319402694702148438e-01 1.300000000000000000e+01
6.165858507156372070e-01 -3.139863491058350053e+00 -7.387392520904541016e-01 1.100000000000000000e+01
7.408204078674316406e-01 -3.775993108749390093e+00 -7.479712367057800293e-01 9.000000000000000000e+00
9.331225156784057617e-01 -4.764968872070313388e+00 -7.690318226814270020e-01 7.000000000000000000e+00
1.324851393699645996e+00 -6.777867317199707031e+00 -8.479669094085693359e-01 3.000000000000000000e+00
5.003116607666015625e+00 -2.566704559326171875e+01 -1.370469331741333008e+00 1.200000000000000000e+01
5.165796875953674316e-01 -2.672511100769042969e+00 -7.293520569801330566e-01 1.200000000000000000e+01
6.076469421386718750e-01 -3.149544715881348100e+00 -7.405388951301574707e-01 1.100000000000000000e+01
7.264367938041687012e-01 -3.768790245056151900e+00 -7.460631728172302246e-01 1.000000000000000000e+01
9.180625677108764648e-01 -4.771916866302490234e+00 -7.696575522422790527e-01 9.000000000000000000e+00
1.303116559982300027e+00 -6.786122322082520419e+00 -8.484543561935424805e-01 1.000000000000000000e+00
4.852616786956787109e+00 -2.534217262268066051e+01 -1.352256417274475098e+00 1.200000000000000000e+01
8.729346275329589844e+00 -4.567421340942382812e+01 -8.116765022277832031e-01 1.200000000000000000e+01
5.061677694320678711e-01 -2.668603897094727007e+00 -7.277991771697998047e-01 1.400000000000000000e+01
5.977367162704467773e-01 -3.157390832901000977e+00 -7.418885827064514160e-01 1.200000000000000000e+01
7.147362232208251953e-01 -3.779019117355347124e+00 -7.475896477699279785e-01 9.000000000000000000e+00
9.046977162361145020e-01 -4.792562007904052734e+00 -7.724733948707580566e-01 9.000000000000000000e+00
1.280890822410583052e+00 -6.798432826995849609e+00 -8.494293093681335449e-01 1.000000000000000000e+00
4.750850677490234375e+00 -2.528829193115234020e+01 -1.348488211631774902e+00 1.100000000000000000e+01
4.967364668846129816e-01 -2.672340393066405806e+00 -7.283167839050292969e-01 1.300000000000000000e+01
5.858048200607299805e-01 -3.157644271850585938e+00 -7.414386868476867676e-01 1.100000000000000000e+01
7.008806467056274414e-01 -3.781613349914550781e+00 -7.475896477699279785e-01 9.000000000000000000e+00
8.831736445426940918e-01 -4.774478912353515625e+00 -7.690318226814270020e-01 7.000000000000000000e+00
1.258127093315124956e+00 -6.814794540405273438e+00 -8.508917689323425293e-01 1.000000000000000000e+00
4.663917541503906250e+00 -2.533696365356444957e+01 -1.350162982940674050e+00 1.200000000000000000e+01
4.894837141036986750e-01 -2.685461282730102983e+00 -7.314226031303405762e-01 1.300000000000000000e+01
5.723376274108886719e-01 -3.146249055862427202e+00 -7.382893562316894531e-01 9.000000000000000000e+00
6.887291669845581055e-01 -3.789831876754761186e+00 -7.487344741821289062e-01 1.000000000000000000e+01
8.714375495910644531e-01 -4.804744243621826172e+00 -7.734119892120361328e-01 7.000000000000000000e+00
1.237159967422484907e+00 -6.834771633148193359e+00 -8.528416752815246582e-01 1.000000000000000000e+00
4.582540988922119141e+00 -2.539239883422851918e+01 -1.352256417274475098e+00 1.200000000000000000e+01
4.812559485435485840e-01 -2.690873146057128906e+00 -7.324578762054443359e-01 1.100000000000000000e+01
5.622435212135314941e-01 -3.150048017501831055e+00 -7.387392520904541016e-01 1.000000000000000000e+01
6.761578321456909180e-01 -3.792094945907593218e+00 -7.487344741821289062e-01 1.000000000000000000e+01
8.548074960708618164e-01 -4.803718090057373047e+00 -7.727862596511840820e-01 7.000000000000000000e+00
1.212405681610106978e+00 -6.827109336853027344e+00 -8.513792157173156738e-01 1.000000000000000000e+00
4.487865924835205078e+00 -2.534845542907714844e+01 -1.349116325378417969e+00 1.100000000000000000e+01
4.701927602291107178e-01 -2.683022260665893999e+00 -7.298697233200073242e-01 8.000000000000000000e+00
5.529229640960693359e-01 -3.161589384078979048e+00 -7.409887909889221191e-01 9.000000000000000000e+00
6.619032025337219238e-01 -3.788630008697510210e+00 -7.475896477699279785e-01 9.000000000000000000e+00
8.383734822273254395e-01 -4.808618545532226562e+00 -7.730991244316101074e-01 9.000000000000000000e+00
1.191969871520996094e+00 -6.850856781005859375e+00 -8.538166284561157227e-01 1.000000000000000000e+00
4.405499458312988281e+00 -2.539938926696776988e+01 -1.351000428199768066e+00 1.200000000000000000e+01
4.670340716838837225e-01 -2.720823287963867188e+00 -7.397048473358154297e-01 1.000000000000000000e+00
5.435286760330200195e-01 -3.173104047775268999e+00 -7.432382702827453613e-01 1.000000000000000000e+01
6.490055322647094727e-01 -3.792852640151977983e+00 -7.479712367057800293e-01 1.000000000000000000e+01
8.225806355476379395e-01 -4.817357063293457031e+00 -7.740377187728881836e-01 7.000000000000000000e+00
1.162046790122986062e+00 -6.819752216339111328e+00 -8.494293093681335449e-01 1.000000000000000000e+00
4.315474510192871094e+00 -2.540673637390137074e+01 -1.350581645965575950e+00 1.200000000000000000e+01
5.318045616149902344e-01 -3.171138286590576172e+00 -7.423384785652160645e-01 1.100000000000000000e+01
6.380326151847839355e-01 -3.808648824691772017e+00 -7.506425976753234863e-01 1.000000000000000000e+01
8.051084876060485840e-01 -4.816302776336669922e+00 -7.734119892120361328e-01 7.000000000000000000e+00
1.142806768417357954e+00 -6.851179122924804688e+00 -8.528416752815246582e-01 1.000000000000000000e+00
4.229382991790770596e+00 -2.543740653991698863e+01 -1.351419091224669966e+00 1.200000000000000000e+01
7.741736888885498047e+00 -4.666294860839843750e+01 -8.256384730339050293e-01 1.200000000000000000e+01
5.170255899429321289e-01 -3.153835296630858931e+00 -7.378394603729248047e-01 1.000000000000000000e+01
6.253380179405212402e-01 -3.818711519241333008e+00 -7.521690726280212402e-01 9.000000000000000000e+00
7.887246608734130859e-01 -4.827019214630126953e+00 -7.746634483337402344e-01 7.000000000000000000e+00
1.118965983390808105e+00 -6.863158702850341797e+00 -8.538166284561157227e-01 1.000000000000000000e+00
4.138684749603270596e+00 -2.546850967407226918e+01 -1.352256417274475098e+00 1.200000000000000000e+01
5.078647732734680176e-01 -3.167165756225585938e+00 -7.405388951301574707e-01 1.000000000000000000e+01
6.085888743400573730e-01 -3.799547195434569868e+00 -7.479712367057800293e-01 1.000000000000000000e+01
7.693765163421630859e-01 -4.814137935638427734e+00 -7.721605300903320312e-01 7.000000000000000000e+00
1.096252679824829102e+00 -6.874864101409912109e+00 -8.547915816307067871e-01 1.000000000000000000e+00
4.037845611572265625e+00 -2.540784454345703125e+01 -1.348278880119323953e+00 1.100000000000000000e+01
4.985679090023040771e-01 -3.176533222198485884e+00 -7.423384785652160645e-01 1.100000000000000000e+01
5.978102087974548340e-01 -3.813181877136230025e+00 -7.502609491348266602e-01 1.100000000000000000e+01
7.552396059036254883e-01 -4.828372478485107422e+00 -7.740377187728881836e-01 6.000000000000000000e+00
1.069163560867310014e+00 -6.851002693176270419e+00 -8.513792157173156738e-01 1.000000000000000000e+00
3.953567981719971147e+00 -2.542109489440917969e+01 -1.348278880119323953e+00 1.100000000000000000e+01
4.886584579944611151e-01 -3.185959100723267046e+00 -7.441380620002746582e-01 1.100000000000000000e+01
5.844960808753967285e-01 -3.815245389938354048e+00 -7.502609491348266602e-01 1.000000000000000000e+01
7.377839684486389160e-01 -4.827074050903320312e+00 -7.734119892120361328e-01 7.000000000000000000e+00
1.050030469894408958e+00 -6.886091709136962891e+00 -8.552790284156799316e-01 1.000000000000000000e+00
3.876209259033203125e+00 -2.550977516174316051e+01 -1.352256417274475098e+00 1.200000000000000000e+01
4.763795435428618830e-01 -3.179936408996582031e+00 -7.423384785652160645e-01 1.000000000000000000e+01
5.714653134346008301e-01 -3.819204092025756836e+00 -7.506425976753234863e-01 1.100000000000000000e+01
7.180134654045104980e-01 -4.810082912445068359e+00 -7.702832818031311035e-01 6.000000000000000000e+00
1.027156591415405051e+00 -6.897568702697753906e+00 -8.562539815902709961e-01 1.000000000000000000e+00
3.790657758712768999e+00 -2.554685783386230113e+01 -1.353512525558471902e+00 1.200000000000000000e+01
4.641486704349517822e-01 -3.173866987228393999e+00 -7.405388951301574707e-01 1.000000000000000000e+01
5.601165890693664551e-01 -3.834774017333983931e+00 -7.533138990402221680e-01 1.100000000000000000e+01
7.043517231941223145e-01 -4.834062099456787109e+00 -7.737248539924621582e-01 9.000000000000000000e+00
1.002502322196960005e+00 -6.897183418273925781e+00 -8.557665348052978516e-01 1.000000000000000000e+00
3.686574459075928178e+00 -2.545714950561523082e+01 -1.348069548606873003e+00 1.100000000000000000e+01
1.008114144206047058e-01 -7.056888937950134277e-01 -1.910084486007689875e-01 7.000000000000000000e+00
4.530625641345977783e-01 -3.179405450820922852e+00 -7.414386868476867676e-01 1.100000000000000000e+01
5.446745157241821289e-01 -3.827082872390747070e+00 -7.514058351516723633e-01 1.100000000000000000e+01
6.891281008720397949e-01 -4.854212760925292969e+00 -7.765406966209411621e-01 9.000000000000000000e+00
9.788860678672790527e-01 -6.912604331970214844e+00 -8.572289347648620605e-01 1.000000000000000000e+00
3.583200693130493164e+00 -2.539929389953612926e+01 -1.344301342964171919e+00 1.100000000000000000e+01
9.994663298130035400e-02 -7.175167798995971680e-01 -1.941142827272414884e-01 2.200000000000000000e+01
4.419616162776947021e-01 -3.180967569351195845e+00 -7.414386868476867676e-01 1.000000000000000000e+01
5.291535258293151855e-01 -3.813403844833374023e+00 -7.483528852462768555e-01 1.100000000000000000e+01
6.705546379089355469e-01 -4.844848632812500000e+00 -7.746634483337402344e-01 9.000000000000000000e+00
9.520359635353088379e-01 -6.896314620971679688e+00 -8.547915816307067871e-01 1.000000000000000000e+00
3.492886066436768022e+00 -2.539977455139160156e+01 -1.343673348426819070e+00 1.100000000000000000e+01
9.704635292291641235e-02 -7.140157818794250488e-01 -1.930790096521378119e-01 7.000000000000000000e+00
4.324578344821929932e-01 -3.190140008926392046e+00 -7.432382702827453613e-01 1.000000000000000000e+01
5.196655392646789551e-01 -3.838483572006226030e+00 -7.529323101043701172e-01 1.100000000000000000e+01
6.534275412559509277e-01 -4.839215278625488281e+00 -7.734119892120361328e-01 7.000000000000000000e+00
9.296916127204895020e-01 -6.903368473052979404e+00 -8.552790284156799316e-01 1.000000000000000000e+00
3.400672197341918945e+00 -2.535183143615723012e+01 -1.340533137321471946e+00 1.100000000000000000e+01
4.218296110630034845e-01 -3.195494174957274947e+00 -7.441380620002746582e-01 1.100000000000000000e+01
5.065201520919799805e-01 -3.842220544815063032e+00 -7.533138990402221680e-01 1.000000000000000000e+01
6.375615000724792480e-01 -4.849300384521484375e+00 -7.746634483337402344e-01 7.000000000000000000e+00
9.102340936660766602e-01 -6.941999912261962891e+00 -8.596663475036621094e-01 1.000000000000000000e+00
3.295605421066284180e+00 -2.523679924011230113e+01 -1.333834171295166016e+00 1.100000000000000000e+01
4.086863398551940918e-01 -3.181484222412108931e+00 -7.405388951301574707e-01 1.100000000000000000e+01
4.938546419143676758e-01 -3.849807262420653853e+00 -7.544587850570678711e-01 1.000000000000000000e+01
6.211317181587219238e-01 -4.855415344238281250e+00 -7.752892374992370605e-01 7.000000000000000000e+00
8.834843635559082031e-01 -6.925443649291992188e+00 -8.572289347648620605e-01 1.000000000000000000e+00
3.206485748291016069e+00 -2.524022483825683949e+01 -1.333415508270263894e+00 1.100000000000000000e+01
3.985445797443389893e-01 -3.190626144409180132e+00 -7.423384785652160645e-01 1.100000000000000000e+01
4.794412851333618164e-01 -3.843714952468872070e+00 -7.529323101043701172e-01 9.000000000000000000e+00
6.041793823242187500e-01 -4.857553958892822266e+00 -7.752892374992370605e-01 9.000000000000000000e+00
8.534408211708068848e-01 -6.881205558776854581e+00 -8.513792157173156738e-01 1.000000000000000000e+00
3.116403102874755859e+00 -2.523540496826171875e+01 -1.332578063011168990e+00 1.100000000000000000e+01
4.580634593963623047e+00 -3.768686294555664062e+01 6.626678705215454102e-01 3.100000000000000000e+01
3.878743648529052734e-01 -3.195867061614989790e+00 -7.432382702827453613e-01 1.000000000000000000e+01
4.483819961547851562e+00 -3.699814605712891336e+01 1.953177928924560991e+00 2.100000000000000000e+01
4.655489027500153143e-01 -3.841467142105102983e+00 -7.521690726280212402e-01 9.000000000000000000e+00
5.874566435813903809e-01 -4.861594200134277344e+00 -7.756021022796630859e-01 9.000000000000000000e+00
8.360643386840820312e-01 -6.939326286315917969e+00 -8.582038879394531250e-01 1.000000000000000000e+00
3.030199050903319868e+00 -2.526199531555176137e+01 -1.333415508270263894e+00 1.100000000000000000e+01
3.780845701694489081e-01 -3.208813667297362837e+00 -7.459377050399780273e-01 1.100000000000000000e+01
4.307971477508544922e+00 -3.661685562133789062e+01 1.932243466377258079e+00 2.000000000000000000e+01
4.514486491680145264e-01 -3.837219476699829102e+00 -7.510241866111755371e-01 1.000000000000000000e+01
5.707130432128906250e-01 -4.865577220916748047e+00 -7.759149670600891113e-01 9.000000000000000000e+00
8.109141588211059570e-01 -6.934315681457520419e+00 -8.572289347648620605e-01 1.000000000000000000e+00
2.948928117752075195e+00 -2.533193397521973012e+01 -1.336555600166321023e+00 1.100000000000000000e+01
4.226456165313720703e+00 -3.692323303222656250e+01 6.487059593200683594e-01 3.000000000000000000e+01
3.659963011741638184e-01 -3.202369213104248047e+00 -7.441380620002746582e-01 1.200000000000000000e+01
4.404999613761901855e-01 -3.860228538513184038e+00 -7.552220225334167480e-01 9.000000000000000000e+00
5.528324246406555176e-01 -4.859688758850097656e+00 -7.746634483337402344e-01 9.000000000000000000e+00
7.902829647064208984e-01 -6.968663215637207031e+00 -8.611288070678710938e-01 1.000000000000000000e+00
2.846596002578734907e+00 -2.521902465820312855e+01 -1.330065965652466042e+00 1.100000000000000000e+01
3.539576232433319092e-01 -3.195879697799683061e+00 -7.423384785652160645e-01 1.100000000000000000e+01
4.265910089015961248e-01 -3.857839822769165039e+00 -7.544587850570678711e-01 9.000000000000000000e+00
5.371641516685485840e-01 -4.873370170593261719e+00 -7.765406966209411621e-01 7.000000000000000000e+00
7.650857567787170410e-01 -6.963486194610595703e+00 -8.601538538932800293e-01 1.000000000000000000e+00
2.766362905502318892e+00 -2.530028343200683949e+01 -1.333834171295166016e+00 1.100000000000000000e+01
4.088369369506835938e+00 -3.751211929321289062e+01 -6.586537957191467285e-01 8.000000000000000000e+00
4.011289596557617188e+00 -3.734949111938477273e+01 6.556869149208068848e-01 3.100000000000000000e+01
3.448773324489594061e-01 -3.216472148895264116e+00 -7.468374967575073242e-01 1.100000000000000000e+01
4.135399758815764826e-01 -3.863209486007689986e+00 -7.552220225334167480e-01 1.000000000000000000e+01
5.201496481895446777e-01 -4.875215530395507812e+00 -7.765406966209411621e-01 7.000000000000000000e+00
7.390947341918945312e-01 -6.950323104858398438e+00 -8.582038879394531250e-01 1.000000000000000000e+00
2.675089597702025923e+00 -2.528197860717773082e+01 -1.332368731498718040e+00 1.100000000000000000e+01
3.324416875839232843e-01 -3.206026315689086914e+00 -7.441380620002746582e-01 1.000000000000000000e+01
3.775735139846802202e+00 -3.647477340698242188e+01 1.921776294708251953e+00 2.000000000000000000e+01
4.000523388385773260e-01 -3.864629507064818892e+00 -7.552220225334167480e-01 1.000000000000000000e+01
5.027233958244323730e-01 -4.873071670532226562e+00 -7.759149670600891113e-01 9.000000000000000000e+00
7.144230008125305176e-01 -6.948911190032958984e+00 -8.577164411544799805e-01 1.000000000000000000e+00
2.574629306793212891e+00 -2.517194938659667969e+01 -1.326088428497314009e+00 1.100000000000000000e+01
3.222398757934569757e-01 -3.222735881805419922e+00 -7.477372884750366211e-01 1.100000000000000000e+01
3.862750530242919922e-01 -3.869976997375487837e+00 -7.559852600097656250e-01 9.000000000000000000e+00
4.856413304805756170e-01 -4.882743835449218750e+00 -7.771664261817932129e-01 7.000000000000000000e+00
6.885576248168945312e-01 -6.947532176971436435e+00 -8.572289347648620605e-01 1.000000000000000000e+00
2.477257728576660156e+00 -2.512953758239746094e+01 -1.323366999626159890e+00 1.100000000000000000e+01
3.102400004863739014e-01 -3.216082096099853960e+00 -7.459377050399780273e-01 1.000000000000000000e+01
3.721994459629058838e-01 -3.865439176559447798e+00 -7.548403739929199219e-01 1.100000000000000000e+01
4.670852422714232843e-01 -4.868678569793701172e+00 -7.746634483337402344e-01 7.000000000000000000e+00
6.695907711982727051e-01 -7.005223751068115234e+00 -8.640536665916442871e-01 1.000000000000000000e+00
2.392926216125487837e+00 -2.517382240295410156e+01 -1.325251102447509988e+00 1.100000000000000000e+01
3.489418506622314009e+00 -3.740185546875000000e+01 6.556869149208068848e-01 3.100000000000000000e+01
2.981279194355010986e-01 -3.201570510864257812e+00 -7.423384785652160645e-01 1.000000000000000000e+01
3.601059019565582275e-01 -3.874471426010131836e+00 -7.563668489456176758e-01 1.100000000000000000e+01
4.534872770309448242e-01 -4.897738456726074219e+00 -7.790436148643493652e-01 7.000000000000000000e+00
6.441689729690551758e-01 -6.983685016632080078e+00 -8.611288070678710938e-01 1.000000000000000000e+00
2.304691076278686968e+00 -2.512990760803223012e+01 -1.322529673576354980e+00 1.100000000000000000e+01
2.879939973354340155e-01 -3.214237451553345171e+00 -7.450379133224487305e-01 1.000000000000000000e+01
3.457049727439879816e-01 -3.865927696228026900e+00 -7.544587850570678711e-01 1.100000000000000000e+01
4.360377192497252863e-01 -4.895356178283691406e+00 -7.784178853034973145e-01 7.000000000000000000e+00
6.152262687683105469e-01 -6.934480667114257812e+00 -8.547915816307067871e-01 1.000000000000000000e+00
2.226783037185668945e+00 -2.524921226501464844e+01 -1.328391194343566895e+00 1.100000000000000000e+01
2.771067321300507147e-01 -3.219106197357178178e+00 -7.459377050399780273e-01 1.100000000000000000e+01
3.327123522758483887e-01 -3.872978925704956055e+00 -7.556036114692687988e-01 1.000000000000000000e+01
4.187786877155303955e-01 -4.894880294799804688e+00 -7.781050205230712891e-01 9.000000000000000000e+00
5.937131047248840332e-01 -6.968233108520507812e+00 -8.586913943290710449e-01 1.000000000000000000e+00
2.135937213897705078e+00 -2.522498893737792969e+01 -1.326716542243957964e+00 1.100000000000000000e+01
2.658682465553284247e-01 -3.220053911209106001e+00 -7.459377050399780273e-01 1.100000000000000000e+01
3.185462951660156250e-01 -3.866290092468262163e+00 -7.540771365165710449e-01 1.100000000000000000e+01
4.021743535995482843e-01 -4.902218341827392578e+00 -7.790436148643493652e-01 9.000000000000000000e+00
5.719717144966125488e-01 -7.001918792724609375e+00 -8.625912070274353027e-01 1.000000000000000000e+00
2.052396297454833984e+00 -2.528803253173828125e+01 -1.329647302627563032e+00 1.100000000000000000e+01
2.551887035369873047e-01 -3.220917940139770952e+00 -7.459377050399780273e-01 1.100000000000000000e+01
3.068064749240875244e-01 -3.881025314331055132e+00 -7.567484974861145020e-01 1.100000000000000000e+01
3.849858939647675116e-01 -4.891709327697753906e+00 -7.771664261817932129e-01 7.000000000000000000e+00
5.468886494636535645e-01 -6.980028629302979404e+00 -8.596663475036621094e-01 1.000000000000000000e+00
1.965117692947387917e+00 -2.525089073181151988e+01 -1.327344536781311035e+00 1.100000000000000000e+01
2.436497956514359076e-01 -3.217902660369873047e+00 -7.450379133224487305e-01 1.100000000000000000e+01
2.937009632587432861e-01 -3.887945652008057085e+00 -7.578933238983154297e-01 1.000000000000000000e+01
3.682045042514801025e-01 -4.896963119506835938e+00 -7.777921557426452637e-01 7.000000000000000000e+00
5.251871943473815918e-01 -7.017527103424072266e+00 -8.640536665916442871e-01 1.000000000000000000e+00
1.878443837165832964e+00 -2.527751541137694957e+01 -1.328391194343566895e+00 1.100000000000000000e+01
2.326964288949965876e-01 -3.222620964050292969e+00 -7.459377050399780273e-01 1.100000000000000000e+01
2.798455953598021906e-01 -3.885030746459960938e+00 -7.571300864219665527e-01 1.100000000000000000e+01
3.513911366462708075e-01 -4.902159214019775391e+00 -7.784178853034973145e-01 7.000000000000000000e+00
4.998407959938048761e-01 -7.007437229156494141e+00 -8.625912070274353027e-01 1.000000000000000000e+00
1.797532558441162109e+00 -2.538751602172851918e+01 -1.333834171295166016e+00 1.100000000000000000e+01
2.214459627866744995e-01 -3.223413467407227007e+00 -7.459377050399780273e-01 1.100000000000000000e+01
2.660141885280609131e-01 -3.882066726684569868e+00 -7.563668489456176758e-01 1.100000000000000000e+01
3.357551991939545233e-01 -4.925034999847412109e+00 -7.818594574928283691e-01 9.000000000000000000e+00
4.716161191463469904e-01 -6.953684329986572266e+00 -8.557665348052978516e-01 1.000000000000000000e+00
1.707561612129210982e+00 -2.537370872497558949e+01 -1.332787513732909934e+00 1.100000000000000000e+01
2.112070024013519010e-01 -3.239723682403564009e+00 -7.495369315147399902e-01 1.100000000000000000e+01
2.522068619728087824e-01 -3.879053354263306108e+00 -7.556036114692687988e-01 1.000000000000000000e+01
3.175417482852935791e-01 -4.910406589508056641e+00 -7.793564796447753906e-01 9.000000000000000000e+00
4.503982365131378174e-01 -7.002832412719726562e+00 -8.616162538528442383e-01 1.000000000000000000e+00
1.623557686805725098e+00 -2.545126914978026988e+01 -1.336555600166321023e+00 1.100000000000000000e+01
1.998969763517380038e-01 -3.240441322326660156e+00 -7.495369315147399902e-01 1.100000000000000000e+01
2.396292090415954867e-01 -3.895586490631103960e+00 -7.586565613746643066e-01 1.100000000000000000e+01
2.994345724582672119e-01 -4.895711898803710938e+00 -7.768535614013671875e-01 9.000000000000000000e+00
4.276379644870758057e-01 -7.032101631164550781e+00 -8.650286197662353516e-01 1.000000000000000000e+00
1.531821727752685991e+00 -2.540893363952637074e+01 -1.334043502807616965e+00 1.100000000000000000e+01
1.881317198276520053e-01 -3.233337402343750000e+00 -7.477372884750366211e-01 1.100000000000000000e+01
2.256885170936583918e-01 -3.890519380569458008e+00 -7.575117349624633789e-01 1.100000000000000000e+01
2.829120755195618231e-01 -4.906587600708007812e+00 -7.784178853034973145e-01 7.000000000000000000e+00
4.035430550575255793e-01 -7.041479110717773438e+00 -8.660035729408264160e-01 1.000000000000000000e+00
1.436777830123900923e+00 -2.530245971679687855e+01 -1.328181862831115945e+00 1.100000000000000000e+01
1.764184981584548950e-01 -3.226191282272338867e+00 -7.459377050399780273e-01 1.100000000000000000e+01
2.121067047119140903e-01 -3.891283512115478960e+00 -7.575117349624633789e-01 1.100000000000000000e+01
2.665309309959412176e-01 -4.921352863311767578e+00 -7.806079983711242676e-01 9.000000000000000000e+00
3.781079947948455811e-01 -7.026987075805664062e+00 -8.640536665916442871e-01 1.000000000000000000e+00
1.344833850860595925e+00 -2.523951148986816051e+01 -1.324623107910156028e+00 1.100000000000000000e+01
1.647912710905075073e-01 -3.230708599090576172e+00 -7.468374967575073242e-01 1.100000000000000000e+01
1.972450017929076871e-01 -3.880270481109619141e+00 -7.552220225334167480e-01 1.200000000000000000e+01
2.482922971248626987e-01 -4.918350696563720703e+00 -7.799822688102722168e-01 9.000000000000000000e+00
3.521514534950255793e-01 -7.024360179901123047e+00 -8.635661602020263672e-01 1.000000000000000000e+00
1.255879878997802956e+00 -2.531608390808105113e+01 -1.328391194343566895e+00 1.100000000000000000e+01
3.416944295167922974e-02 -7.139679193496704102e-01 -1.915261000394820889e-01 7.000000000000000000e+00
1.540678590536118109e-01 -3.242943286895751953e+00 -7.495369315147399902e-01 1.200000000000000000e+01
1.837919503450393954e-01 -3.882896184921265093e+00 -7.556036114692687988e-01 1.000000000000000000e+01
2.309371232986449918e-01 -4.915241241455078125e+00 -7.793564796447753906e-01 9.000000000000000000e+00
3.285544514656066895e-01 -7.045376300811767578e+00 -8.660035729408264160e-01 1.000000000000000000e+00
1.165478706359863059e+00 -2.527642059326171875e+01 -1.326088428497314009e+00 1.100000000000000000e+01
3.180165216326714256e-02 -7.140772938728332520e-01 -1.915261000394820889e-01 7.000000000000000000e+00
1.429689377546309870e-01 -3.235649108886719194e+00 -7.477372884750366211e-01 1.200000000000000000e+01
1.710011065006256104e-01 -3.885445833206177202e+00 -7.559852600097656250e-01 9.000000000000000000e+00
2.142916619777678888e-01 -4.908085823059082031e+00 -7.781050205230712891e-01 9.000000000000000000e+00
3.055329024791718084e-01 -7.054359912872313565e+00 -8.669785261154174805e-01 1.000000000000000000e+00
1.079603672027587891e+00 -2.523225593566894887e+01 -1.323576331138611062e+00 1.100000000000000000e+01
3.025941923260689129e-02 -7.373467087745666504e-01 -1.977377533912658969e-01 7.000000000000000000e+00
1.313566416501998901e-01 -3.228339910507202148e+00 -7.459377050399780273e-01 1.100000000000000000e+01
1.580731272697449008e-01 -3.901712179183959961e+00 -7.590382099151611328e-01 9.000000000000000000e+00
1.968408375978470126e-01 -4.900908946990966797e+00 -7.768535614013671875e-01 9.000000000000000000e+00
2.805908620357512873e-01 -7.047449588775634766e+00 -8.660035729408264160e-01 1.000000000000000000e+00
9.957543015480041504e-01 -2.534363937377930043e+01 -1.329228639602660911e+00 1.100000000000000000e+01
1.200868338346481046e-01 -3.228778839111328125e+00 -7.459377050399780273e-01 1.100000000000000000e+01
1.438716351985931119e-01 -3.886544942855834961e+00 -7.559852600097656250e-01 9.000000000000000000e+00
1.798046529293060025e-01 -4.903540134429931641e+00 -7.771664261817932129e-01 9.000000000000000000e+00
2.551243603229523260e-01 -7.024580478668212891e+00 -8.630787134170532227e-01 1.000000000000000000e+00
9.115691184997558594e-01 -2.546671867370605113e+01 -1.335508942604064941e+00 1.100000000000000000e+01
2.471665851771831859e-02 -7.259556055068969727e-01 -1.946319192647933960e-01 7.000000000000000000e+00
1.092093437910079956e-01 -3.240864038467406782e+00 -7.486370801925659180e-01 1.200000000000000000e+01
1.301726251840590876e-01 -3.883099079132080078e+00 -7.552220225334167480e-01 9.000000000000000000e+00
1.635384410619735995e-01 -4.929803848266601562e+00 -7.812337279319763184e-01 9.000000000000000000e+00
2.308629453182219904e-01 -7.033364295959472656e+00 -8.640536665916442871e-01 1.000000000000000000e+00
8.239576816558837891e-01 -2.550967025756835938e+01 -1.337602376937865989e+00 1.100000000000000000e+01
2.112052403390407909e-02 -6.912803053855895996e-01 -1.853144317865371982e-01 8.000000000000000000e+00
9.824894368648529053e-02 -3.252912521362305132e+00 -7.513365149497985840e-01 1.100000000000000000e+01
1.167940720915793956e-01 -3.889416933059691939e+00 -7.563668489456176758e-01 1.000000000000000000e+01
1.463292092084884921e-01 -4.930344581604003906e+00 -7.812337279319763184e-01 9.000000000000000000e+00
2.072416692972182950e-01 -7.065875053405761719e+00 -8.679534792900085449e-01 1.000000000000000000e+00
7.351373434066772461e-01 -2.552037620544433949e+01 -1.338021039962768999e+00 1.100000000000000000e+01
1.975248195230960846e-02 -7.299727201461791992e-01 -1.956671923398972113e-01 7.000000000000000000e+00
8.678949624300003052e-02 -3.249339580535889116e+00 -7.504367232322692871e-01 1.200000000000000000e+01
1.032167598605155945e-01 -3.889801025390625000e+00 -7.563668489456176758e-01 1.000000000000000000e+01
1.293250471353530884e-01 -4.938724040985107422e+00 -7.824851870536804199e-01 9.000000000000000000e+00
1.822682768106461126e-01 -7.054648876190186435e+00 -8.664910197257995605e-01 1.000000000000000000e+00
6.420069336891174316e-01 -2.536305809020996094e+01 -1.329647302627563032e+00 1.100000000000000000e+01
1.684016920626163136e-02 -7.145867347717285156e-01 -1.915261000394820889e-01 7.000000000000000000e+00
7.517526298761367798e-02 -3.237933635711669922e+00 -7.477372884750366211e-01 1.300000000000000000e+01
8.986432850360870361e-02 -3.899951219558715820e+00 -7.582749724388122559e-01 1.100000000000000000e+01
1.118159964680671969e-01 -4.927296161651611328e+00 -7.806079983711242676e-01 9.000000000000000000e+00
1.579965949058532992e-01 -7.071118831634520596e+00 -8.684409260749816895e-01 1.000000000000000000e+00
5.535565614700317383e-01 -2.536913871765137074e+01 -1.329856634140015093e+00 1.100000000000000000e+01
1.488850358873606075e-02 -7.416816353797912598e-01 -1.987730264663696012e-01 6.000000000000000000e+00
6.371857970952987671e-02 -3.230382680892943892e+00 -7.459377050399780273e-01 1.200000000000000000e+01
7.613528519868850708e-02 -3.894352436065673828e+00 -7.571300864219665527e-01 1.200000000000000000e+01
9.423661977052688599e-02 -4.907906532287597656e+00 -7.774792909622192383e-01 9.000000000000000000e+00
1.330135017633438110e-01 -7.055749416351318359e+00 -8.664910197257995605e-01 1.000000000000000000e+00
4.639735817909240723e-01 -2.531500244140625000e+01 -1.326925873756408913e+00 1.100000000000000000e+01
1.172630675137042999e-02 -7.146888971328735352e-01 -1.915261000394820889e-01 7.000000000000000000e+00
5.206594988703727722e-02 -3.242285490036011186e+00 -7.486370801925659180e-01 1.600000000000000000e+01
6.164299696683883667e-02 -3.880864381790161133e+00 -7.544587850570678711e-01 1.000000000000000000e+01
7.646238803863525391e-02 -4.922044754028320312e+00 -7.796693444252014160e-01 7.000000000000000000e+00
1.072122752666472972e-01 -7.060159206390380859e+00 -8.669785261154174805e-01 1.000000000000000000e+00
3.705421686172484796e-01 -2.527259635925292969e+01 -1.324623107910156028e+00 1.100000000000000000e+01
9.231504984200000763e-03 -7.147254943847656250e-01 -1.915261000394820889e-01 7.000000000000000000e+00
4.072345420718193054e-02 -3.240499019622803178e+00 -7.481871843338012695e-01 1.300000000000000000e+01
4.812020435929297707e-02 -3.883018970489501953e+00 -7.548403739929199219e-01 1.100000000000000000e+01
5.932835862040519714e-02 -4.926232337951660156e+00 -7.802951335906982422e-01 7.000000000000000000e+00
8.256706595420837402e-02 -7.060490608215332031e+00 -8.669785261154174805e-01 1.000000000000000000e+00
2.820990085601807196e-01 -2.525376510620116832e+01 -1.323576331138611062e+00 1.100000000000000000e+01
6.845833268016576767e-03 -7.263439893722534180e-01 -1.946319192647933960e-01 7.000000000000000000e+00
2.942943945527077068e-02 -3.242569923400878906e+00 -7.486370801925659180e-01 1.100000000000000000e+01
3.456564620137214661e-02 -3.883163213729857954e+00 -7.548403739929199219e-01 9.000000000000000000e+00
4.214913025498390198e-02 -4.928384780883789062e+00 -7.806079983711242676e-01 9.000000000000000000e+00
3.727631568908690851e-01 -4.449428176879882812e+01 5.463402748107910156e+00 3.600000000000000000e+01
5.814881995320320129e-02 -7.088526248931884766e+00 -8.703908324241638184e-01 1.000000000000000000e+00
1.940065324306488037e-01 -2.526258468627930043e+01 -1.323994994163512962e+00 2.300000000000000000e+01
4.241595510393381119e-03 -7.147725224494934082e-01 -1.915261000394820889e-01 7.000000000000000000e+00
1.802350953221321106e-02 -3.227063417434691939e+00 -7.450379133224487305e-01 1.100000000000000000e+01
2.109564282000064850e-02 -3.898966073989868164e+00 -7.578933238983154297e-01 8.000000000000000000e+00
2.487561479210853924e-02 -4.914674282073974609e+00 -7.784178853034973145e-01 7.000000000000000000e+00
3.344231098890305259e-02 -7.096626281738281250e+00 -8.713657855987548828e-01 1.000000000000000000e+00
1.057555526494979997e-01 -2.524713134765625000e+01 -1.323157668113708052e+00 2.300000000000000000e+01
1.952222082763910077e-03 -7.456921935081481934e-01 -1.998082995414733887e-01 6.000000000000000000e+00
7.317660842090845108e-03 -3.225156545639038086e+00 -7.445880174636840820e-01 1.000000000000000000e+01
8.182536810636520386e-03 -3.906867504119873047e+00 -7.594197988510131836e-01 3.000000000000000000e+00
8.605411276221275330e-03 -4.930532455444335938e+00 -7.809208631515502930e-01 7.000000000000000000e+00
9.870062582194805145e-03 -7.068906784057617188e+00 -8.679534792900085449e-01 1.000000000000000000e+00
2.203595452010631908e-02 -2.525133705139160156e+01 -1.323366999626159890e+00 1.100000000000000000e+01
-6.338827661238610744e-04 -7.263759374618530273e-01 -1.946319192647933960e-01 7.000000000000000000e+00
-3.959327936172485352e-03 -3.240752458572388139e+00 -7.481871843338012695e-01 9.000000000000000000e+00
-5.411167163401842117e-03 -3.875460386276245117e+00 -7.533138990402221680e-01 4.000000000000000000e+00
-8.612306788563728333e-03 -4.934483528137207031e+00 -7.815465927124023438e-01 7.000000000000000000e+00
-1.485497783869504929e-02 -7.092719078063964844e+00 -8.708783388137817383e-01 3.000000000000000000e+00
-6.614962220191955566e-02 -2.526723861694335938e+01 -1.324204325675963911e+00 1.100000000000000000e+01
-3.203121246770023866e-03 -7.340966463088989258e-01 -1.967024803161621094e-01 7.000000000000000000e+00
-1.535428967326880022e-02 -3.258257389068603960e+00 -7.522363066673278809e-01 2.000000000000000000e+00
-1.898698695003986012e-02 -3.885233879089355025e+00 -7.552220225334167480e-01 9.000000000000000000e+00
-2.581612952053546906e-02 -4.930472373962402344e+00 -7.809208631515502930e-01 9.000000000000000000e+00
-2.317870706319808960e-01 -4.283964920043945312e+01 5.260124683380126953e+00 3.100000000000000000e+01
-3.961309790611267090e-02 -7.092624187469482422e+00 -8.708783388137817383e-01 1.000000000000000000e+00
-1.547875553369522095e-01 -2.533875274658203125e+01 -1.327972531318664995e+00 1.100000000000000000e+01
-5.765577312558889389e-03 -7.340809702873229980e-01 -1.967024803161621094e-01 7.000000000000000000e+00
-2.647187002003192902e-02 -3.227005004882812944e+00 -7.450379133224487305e-01 2.000000000000000000e+00
-3.246663138270378113e-02 -3.875328063964844194e+00 -7.533138990402221680e-01 9.000000000000000000e+00
-4.304377362132071755e-02 -4.932327747344970703e+00 -7.812337279319763184e-01 9.000000000000000000e+00
-3.801931142807006836e-01 -4.271154022216796875e+01 5.244525432586669922e+00 3.000000000000000000e+01
-6.440676748752593994e-02 -7.096412658691406250e+00 -8.713657855987548828e-01 1.000000000000000000e+00
-2.434654384851455966e-01 -2.536202430725098012e+01 -1.329228639602660911e+00 1.100000000000000000e+01
-8.284131065011024475e-03 -7.301929593086242676e-01 -1.956671923398972113e-01 7.000000000000000000e+00
-3.778163343667984009e-02 -3.230790138244628906e+00 -7.459377050399780273e-01 8.000000000000000000e+00
-4.597055539488791726e-02 -3.873228073120117188e+00 -7.529323101043701172e-01 9.000000000000000000e+00
-6.033294647932053306e-02 -4.938073158264160156e+00 -7.821723222732543945e-01 9.000000000000000000e+00
-8.917747437953948975e-02 -7.096144676208496094e+00 -8.713657855987548828e-01 1.000000000000000000e+00
-3.317847847938538153e-01 -2.534504318237305043e+01 -1.328391194343566895e+00 1.100000000000000000e+01
-1.094756461679934935e-02 -7.378861308097839355e-01 -1.977377533912658969e-01 7.000000000000000000e+00
-4.891102015972136757e-02 -3.220896005630493164e+00 -7.436881661415100098e-01 6.000000000000000000e+00
-5.946021154522895813e-02 -3.871080875396728960e+00 -7.525506615638732910e-01 9.000000000000000000e+00
-7.750761508941650391e-02 -4.933882236480712891e+00 -7.815465927124023438e-01 9.000000000000000000e+00
-1.136283650994300981e-01 -7.075941562652587891e+00 -8.689284324645996094e-01 1.000000000000000000e+00
-4.206508398056030273e-01 -2.536769485473633168e+01 -1.329647302627563032e+00 1.100000000000000000e+01
-1.394801307469606053e-02 -7.610217332839965820e-01 -2.039494067430495938e-01 6.000000000000000000e+00
-6.026291847229003906e-02 -3.226550817489624023e+00 -7.450379133224487305e-01 2.000000000000000000e+00
-7.304645329713821411e-02 -3.874775648117064986e+00 -7.533138990402221680e-01 9.000000000000000000e+00
-9.476752579212188721e-02 -4.935556411743164062e+00 -7.818594574928283691e-01 9.000000000000000000e+00
-1.385601311922073087e-01 -7.087410449981688565e+00 -8.703908324241638184e-01 1.000000000000000000e+00
-5.083963871002197266e-01 -2.532613372802734020e+01 -1.327553868293761985e+00 1.100000000000000000e+01
-1.622510142624377857e-02 -7.435858845710754395e-01 -1.992906630039215088e-01 6.000000000000000000e+00
-7.178446650505065918e-02 -3.238010406494141069e+00 -7.477372884750366211e-01 7.000000000000000000e+00
-8.630836009979248047e-02 -3.862720489501953125e+00 -7.510241866111755371e-01 9.000000000000000000e+00
-1.122641563415527066e-01 -4.947044849395751953e+00 -7.837366461753845215e-01 9.000000000000000000e+00
-1.632075011730194092e-01 -7.082914352416992188e+00 -8.699033856391906738e-01 1.000000000000000000e+00
-5.952922105789184570e-01 -2.526031112670898082e+01 -1.324204325675963911e+00 1.100000000000000000e+01
-1.901614107191563000e-02 -7.512496709823608398e-01 -2.013612240552901944e-01 6.000000000000000000e+00
-8.283683657646179199e-02 -3.227999687194824219e+00 -7.454878091812133789e-01 2.000000000000000000e+00
-1.001461967825890004e-01 -3.876133918762207031e+00 -7.536955475807189941e-01 9.000000000000000000e+00
-1.293767541646957120e-01 -4.940698623657226562e+00 -7.827980518341064453e-01 9.000000000000000000e+00
-1.883517503738403043e-01 -7.098176479339599609e+00 -8.718532919883728027e-01 1.000000000000000000e+00
-6.821669340133666992e-01 -2.521016311645508168e+01 -1.321692228317260964e+00 1.100000000000000000e+01
-2.197212912142277111e-02 -7.627649903297424316e-01 -2.044670432806015015e-01 6.000000000000000000e+00
-9.382019191980361938e-02 -3.217951297760010210e+00 -7.432382702827453613e-01 8.000000000000000000e+00
-1.136758178472519060e-01 -3.875760793685913086e+00 -7.536955475807189941e-01 9.000000000000000000e+00
-1.462706029415130893e-01 -4.928369998931884766e+00 -7.809208631515502930e-01 9.000000000000000000e+00
-1.275777459144592063e+00 -4.273389434814453125e+01 5.249400138854979581e+00 3.000000000000000000e+01
-2.133661955595015924e-01 -7.105412483215332031e+00 -8.728282451629638672e-01 1.000000000000000000e+00
-7.713825702667236328e-01 -2.524755477905273082e+01 -1.323785662651062012e+00 1.100000000000000000e+01
-2.363668754696846008e-02 -7.317901253700256348e-01 -1.961848288774490079e-01 7.000000000000000000e+00
-1.051159575581551014e-01 -3.219551801681518999e+00 -7.436881661415100098e-01 9.000000000000000000e+00
-1.273972839117049893e-01 -3.881226778030395952e+00 -7.548403739929199219e-01 8.000000000000000000e+00
-1.640623807907103937e-01 -4.945598125457763672e+00 -7.837366461753845215e-01 9.000000000000000000e+00
-2.384334504604339877e-01 -7.112560749053955078e+00 -8.738031983375549316e-01 1.000000000000000000e+00
-8.525761961936950684e-01 -2.504110527038573863e+01 -1.313109159469604048e+00 1.100000000000000000e+01
-1.575015187263488992e+00 -4.602373504638671875e+01 1.063163661956786932e+01 1.300000000000000000e+01
-2.591454610228538860e-02 -7.239807248115539551e-01 -1.941142827272414884e-01 7.000000000000000000e+00
-1.166352108120917996e-01 -3.226955175399779829e+00 -7.454878091812133789e-01 9.000000000000000000e+00
-1.408732533454895020e-01 -3.878796577453612837e+00 -7.544587850570678711e-01 7.000000000000000000e+00
-1.816142797470093051e-01 -4.952891349792479581e+00 -7.849881649017333984e-01 9.000000000000000000e+00
-1.558003544807434082e+00 -4.228752136230468750e+01 5.195777416229248047e+00 2.900000000000000000e+01
-2.626720070838928223e-01 -7.095815181732177734e+00 -8.718532919883728027e-01 1.000000000000000000e+00
-1.575625777244568093e+00 -4.256391906738281250e+01 6.746079921722412109e+00 1.400000000000000000e+01
-9.465745091438293457e-01 -2.521361160278319957e+01 -1.322320222854614036e+00 1.100000000000000000e+01
-2.889661677181721081e-02 -7.354680299758911133e-01 -1.972201168537139893e-01 7.000000000000000000e+00
-1.283617913722991943e-01 -3.238211631774901900e+00 -7.481871843338012695e-01 6.000000000000000000e+00
-1.542557179927825928e-01 -3.874357700347899947e+00 -7.536955475807189941e-01 7.000000000000000000e+00
-1.989019960165024081e-01 -4.952227115631104404e+00 -7.849881649017333984e-01 9.000000000000000000e+00
-2.879215478897094727e-01 -7.106755733489990234e+00 -8.733156919479370117e-01 1.000000000000000000e+00
-1.035072088241576926e+00 -2.522212791442871094e+01 -1.322948336601257102e+00 1.100000000000000000e+01
-3.129854053258895874e-02 -7.315024733543395996e-01 -1.961848288774490079e-01 7.000000000000000000e+00
-3.636483475565910339e-02 -8.430204987525939941e-01 -1.948076188564301092e-01 1.100000000000000000e+01
-1.678637564182280939e-01 -3.875757217407227007e+00 -7.540771365165710449e-01 1.000000000000000000e+01
-2.150671482086181918e-01 -4.925847530364990234e+00 -7.809208631515502930e-01 9.000000000000000000e+00
-3.139489293098450262e-01 -7.133471965789794922e+00 -8.767280578613281250e-01 1.000000000000000000e+00
-1.128794431686400923e+00 -2.534605789184569957e+01 -1.329647302627563032e+00 1.100000000000000000e+01
-2.026414871215819868e+00 -4.532334136962891336e+01 1.047417068481444957e+01 1.300000000000000000e+01
-3.349449485540390015e-02 -7.236696481704711914e-01 -1.941142827272414884e-01 7.000000000000000000e+00
-3.957964107394217751e-02 -8.487282991409301758e-01 -1.961573213338851929e-01 2.800000000000000000e+01
-1.813916563987731934e-01 -3.875147581100463867e+00 -7.540771365165710449e-01 1.100000000000000000e+01
-2.322602421045303067e-01 -4.925066471099854404e+00 -7.809208631515502930e-01 7.000000000000000000e+00
-3.384706676006317139e-01 -7.124401092529296875e+00 -8.757531046867370605e-01 1.000000000000000000e+00
-1.212278962135314941e+00 -2.523822593688964844e+01 -1.324204325675963911e+00 1.100000000000000000e+01
-2.165843248367310014e+00 -4.492669677734375000e+01 1.038419055938721058e+01 1.300000000000000000e+01
-3.602036833763123252e-02 -7.235483527183532715e-01 -1.941142827272414884e-01 7.000000000000000000e+00
-1.622646152973175049e-01 -3.236690044403076172e+00 -7.481871843338012695e-01 1.000000000000000000e+00
-1.941282004117965976e-01 -3.858804702758789062e+00 -7.510241866111755371e-01 9.000000000000000000e+00
-2.503499984741210938e-01 -4.941981792449951172e+00 -7.837366461753845215e-01 9.000000000000000000e+00
-3.617194294929503839e-01 -7.091455936431884766e+00 -8.718532919883728027e-01 1.000000000000000000e+00
-1.299547076225280984e+00 -2.521788406372069957e+01 -1.323366999626159890e+00 1.100000000000000000e+01
-4.060158133506774902e-02 -7.620005011558532715e-01 -2.044670432806015015e-01 6.000000000000000000e+00
-2.335840463638306108e+00 -4.369494628906250000e+01 7.637870907783508301e-01 4.500000000000000000e+01
-1.721006482839584073e-01 -3.208860635757445845e+00 -7.418885827064514160e-01 7.000000000000000000e+00
-2.079132199287415106e-01 -3.863984823226929155e+00 -7.521690726280212402e-01 9.000000000000000000e+00
-2.682401537895203192e-01 -4.952912330627441406e+00 -7.856138944625854492e-01 9.000000000000000000e+00
-3.869031965732573908e-01 -7.098078727722167969e+00 -8.728282451629638672e-01 1.000000000000000000e+00
-1.388005018234252930e+00 -2.522117042541503906e+01 -1.323785662651062012e+00 1.100000000000000000e+01
-4.041363671422004700e-02 -7.117067575454711914e-01 -1.910084486007689875e-01 7.000000000000000000e+00
-1.848568320274353027e-01 -3.235478401184082031e+00 -7.481871843338012695e-01 9.000000000000000000e+00
