1.196920776367188033e+01 6.896505355834960938e+00 -2.411224544048309049e-01 2.000000000000000000e+00
1.969861149787903054e+00 1.131805539131164995e+00 -6.087424159049987793e-01 2.000000000000000000e+01
2.237605333328247070e+00 1.284602284431457964e+00 -5.956704020500183105e-01 1.100000000000000000e+01
2.595055341720581055e+00 1.489211082458496094e+00 -5.815858244895935059e-01 1.100000000000000000e+01
3.099991798400878906e+00 1.777538180351257102e+00 -5.659798979759216309e-01 1.000000000000000000e+01
3.241102218627929688e+01 1.857699584960937855e+01 4.586918354034423828e+00 1.900000000000000000e+01
3.842724084854125977e+00 2.201639652252196822e+00 -5.437809824943542480e-01 9.000000000000000000e+00
5.083044528961181641e+00 2.911087036132812944e+00 -5.124757885932922363e-01 9.000000000000000000e+00
7.258159637451171875e+00 4.153423309326171875e+00 -4.382613003253936768e-01 2.000000000000000000e+00
3.302594375610352273e+01 1.889117813110351918e+01 8.783888816833496094e+00 1.100000000000000000e+01
1.197465133666992010e+01 6.846850395202636719e+00 -2.407733947038651068e-01 2.000000000000000000e+00
1.975478291511536089e+00 1.125879168510437012e+00 -6.092600226402282715e-01 2.100000000000000000e+01
2.233608722686768022e+00 1.271962046623229980e+00 -5.934208631515502930e-01 1.300000000000000000e+01
2.600237846374512163e+00 1.480143547058105025e+00 -5.815858244895935059e-01 1.100000000000000000e+01
3.107894659042357954e+00 1.767683029174804910e+00 -5.662927627563476562e-01 9.000000000000000000e+00
3.857289314270019975e+00 2.192135810852050781e+00 -5.447559356689453125e-01 9.000000000000000000e+00
5.096639633178710938e+00 2.895294427871704102e+00 -5.128244161605834961e-01 9.000000000000000000e+00
7.237874507904052734e+00 4.108343601226806641e+00 -4.361678659915924072e-01 2.000000000000000000e+00
3.363745117187500000e+01 1.908544158935546875e+01 8.928757667541503906e+00 1.200000000000000000e+01
1.203674602508544922e+01 6.826712608337402344e+00 -2.415413111448287964e-01 5.000000000000000000e+00
3.724641418457031250e+01 2.111593627929687855e+01 1.147241306304931996e+01 1.100000000000000000e+01
1.982759714126586914e+00 1.120877981185913086e+00 -6.102952957153320312e-01 2.100000000000000000e+01
2.243125438690185991e+00 1.267032861709594949e+00 -5.947706103324890137e-01 1.100000000000000000e+01
2.610517501831055132e+00 1.473953843116760032e+00 -5.827306509017944336e-01 1.100000000000000000e+01
3.120928049087523970e+00 1.760706067085265891e+00 -5.675442218780517578e-01 9.000000000000000000e+00
3.582175445556641336e+01 2.020100021362305043e+01 5.049534320831298828e+00 2.500000000000000000e+01
3.859730005264281782e+00 2.175733804702758789e+00 -5.440247654914855957e-01 1.000000000000000000e+01
5.118865966796875000e+00 2.884332656860352007e+00 -5.140445828437805176e-01 8.000000000000000000e+00
7.269575119018554688e+00 4.092852592468261719e+00 -4.372145831584929865e-01 1.000000000000000000e+00
1.207095909118651988e+01 6.790537834167479581e+00 -2.417507320642471036e-01 2.000000000000000000e+00
1.984975218772887962e+00 1.113005280494689941e+00 -6.097776889801025391e-01 1.900000000000000000e+01
2.249234676361083984e+00 1.260147690773010032e+00 -5.952205061912536621e-01 1.200000000000000000e+01
2.605368852615356001e+00 1.459076762199402078e+00 -5.804409384727478027e-01 1.200000000000000000e+01
3.130502700805664062e+00 1.751730561256408913e+00 -5.681699514389038086e-01 9.000000000000000000e+00
3.869033813476562944e+00 2.163216352462768999e+00 -5.442684888839721680e-01 1.000000000000000000e+01
3.240398406982421875e+01 1.810997390747069957e+01 5.879433155059813565e+00 1.300000000000000000e+01
5.135859489440917969e+00 2.870334863662720171e+00 -5.147418379783630371e-01 9.000000000000000000e+00
7.315205574035645419e+00 4.084980010986328125e+00 -4.390986859798430841e-01 1.000000000000000000e+00
1.207363414764403942e+01 6.736668586730957031e+00 -2.413318753242492953e-01 2.000000000000000000e+00
3.261840820312500000e+01 1.819993782043457031e+01 1.000853252410889027e+01 8.000000000000000000e+00
1.982094883918761985e+00 1.102313876152039018e+00 -6.077071428298950195e-01 2.000000000000000000e+01
2.258729934692382812e+00 1.255128383636475053e+00 -5.965701937675476074e-01 1.100000000000000000e+01
3.885889816284179688e+01 2.158419036865234020e+01 2.329578161239624023e+00 3.300000000000000000e+01
2.617311239242554155e+00 1.453786611557007058e+00 -5.819674134254455566e-01 1.300000000000000000e+01
3.138325452804564986e+00 1.741750955581665039e+00 -5.684828162193298340e-01 1.000000000000000000e+01
3.260474777221679688e+01 1.808798789978026988e+01 4.578143596649169922e+00 1.900000000000000000e+01
3.885241508483887163e+00 2.154510974884033203e+00 -5.454871654510498047e-01 1.000000000000000000e+01
5.140619754791259766e+00 2.849492073059082031e+00 -5.142188668251037598e-01 9.000000000000000000e+00
7.315442562103270596e+00 4.051678657531738281e+00 -4.382613003253936768e-01 2.000000000000000000e+00
3.355926895141602273e+01 1.857924270629883168e+01 8.855873107910156250e+00 1.200000000000000000e+01
1.212856960296631037e+01 6.711911201477050781e+00 -2.419601678848266879e-01 2.000000000000000000e+00
3.265108489990233664e+01 1.806156158447265980e+01 9.998179435729980469e+00 8.000000000000000000e+00
1.996080160140990989e+00 1.100986599922179954e+00 -6.108129620552062988e-01 1.900000000000000000e+01
2.264804124832152876e+00 1.248176813125609907e+00 -5.970200896263122559e-01 1.300000000000000000e+01
2.632687568664550781e+00 1.450325489044189009e+00 -5.842571258544921875e-01 1.300000000000000000e+01
3.132272481918334961e+00 1.724117636680603027e+00 -5.662927627563476562e-01 1.000000000000000000e+01
3.283117675781250000e+01 1.806401824951171875e+01 4.601055145263671875e+00 1.900000000000000000e+01
3.894477844238280806e+00 2.141892671585083008e+00 -5.457309484481811523e-01 9.000000000000000000e+00
5.166248798370361328e+00 2.840169191360474077e+00 -5.157876610755920410e-01 9.000000000000000000e+00
3.275980377197266336e+01 1.800240898132323863e+01 7.266006469726563388e+00 6.200000000000000000e+01
7.322538852691650391e+00 4.022272109985351562e+00 -4.378426074981688898e-01 2.000000000000000000e+00
3.358975601196289062e+01 1.844322776794433949e+01 8.846875190734863281e+00 1.200000000000000000e+01
1.214491271972656072e+01 6.665685176849365234e+00 -2.418205440044403076e-01 2.000000000000000000e+00
3.305267333984375000e+01 1.813331794738769887e+01 1.010170745849609020e+01 8.000000000000000000e+00
2.001415014266968218e+00 1.095288634300231934e+00 -6.113305687904357910e-01 2.100000000000000000e+01
2.262091398239136186e+00 1.236919879913330078e+00 -5.952205061912536621e-01 1.300000000000000000e+01
2.639205217361450195e+00 1.442528843879699929e+00 -5.846387743949890137e-01 1.300000000000000000e+01
3.144907236099243164e+00 1.717508435249329057e+00 -5.675442218780517578e-01 1.000000000000000000e+01
3.894588947296143022e+00 2.125162839889525923e+00 -5.447559356689453125e-01 9.000000000000000000e+00
5.170391082763671875e+00 2.820159673690795898e+00 -5.152647495269775391e-01 1.100000000000000000e+01
3.273313903808593750e+01 1.784668540954589844e+01 7.246925830841063565e+00 6.100000000000000000e+01
7.346359252929688388e+00 4.003702163696289062e+00 -4.384706318378447931e-01 1.000000000000000000e+00
3.462274169921875000e+01 1.886125564575194957e+01 9.102419853210449219e+00 1.200000000000000000e+01
1.221261119842528942e+01 6.650238990783691406e+00 -2.427280694246292114e-01 2.000000000000000000e+00
3.287507629394531250e+01 1.789430999755859020e+01 1.002923774719237926e+01 8.000000000000000000e+00
2.006923913955688032e+00 1.089217305183411089e+00 -6.118482351303100586e-01 1.900000000000000000e+01
2.271534442901610884e+00 1.231803059577941895e+00 -5.965701937675476074e-01 1.200000000000000000e+01
2.645950555801392046e+00 1.434243083000183105e+00 -5.850203633308410645e-01 1.300000000000000000e+01
3.163042306900023970e+00 1.713105440139770952e+00 -5.697343349456787109e-01 1.000000000000000000e+01
3.594548416137695312e+01 1.945998001098633168e+01 5.018823146820068359e+00 2.400000000000000000e+01
3.898491859436035156e+00 2.109665632247924805e+00 -5.442684888839721680e-01 9.000000000000000000e+00
5.209995269775390625e+00 2.818209171295166016e+00 -5.182280540466308594e-01 1.100000000000000000e+01
7.374346733093261719e+00 3.985631227493286133e+00 -4.393080174922943115e-01 2.000000000000000000e+00
3.480495834350585938e+01 1.880327224731444957e+01 9.133012771606445312e+00 1.200000000000000000e+01
1.220759773254395064e+01 6.592365264892578125e+00 -2.421695888042449951e-01 2.000000000000000000e+00
3.282173919677733664e+01 1.771704483032226918e+01 9.994038581848144531e+00 8.000000000000000000e+00
2.005610466003417969e+00 1.079458475112915039e+00 -6.102952957153320312e-01 1.900000000000000000e+01
2.286118268966674805e+00 1.229404330253601074e+00 -5.992696285247802734e-01 1.300000000000000000e+01
2.638836145401000977e+00 1.418491363525391069e+00 -5.823490619659423828e-01 1.300000000000000000e+01
3.165522336959838867e+00 1.700184583663939986e+00 -5.691086053848266602e-01 1.000000000000000000e+01
3.919825315475463867e+00 2.103553771972655806e+00 -5.462183952331542969e-01 1.000000000000000000e+01
3.466191864013671875e+01 1.860113716125487926e+01 6.230472087860107422e+00 1.400000000000000000e+01
5.203999519348145419e+00 2.791529417037963867e+00 -5.166592597961425781e-01 1.300000000000000000e+01
7.391735076904296875e+00 3.961752653121947798e+00 -4.395173490047454834e-01 2.000000000000000000e+00
1.226579189300536932e+01 6.568593502044677734e+00 -2.428676933050155917e-01 2.000000000000000000e+00
3.272363281250000000e+01 1.752420234680176137e+01 9.946415901184082031e+00 8.000000000000000000e+00
2.005957603454589844e+00 1.070631742477416992e+00 -6.092600226402282715e-01 1.900000000000000000e+01
2.293834924697875977e+00 1.223250746726989968e+00 -6.001694202423095703e-01 1.100000000000000000e+01
2.647236347198485884e+00 1.411118507385253906e+00 -5.831122994422912598e-01 1.300000000000000000e+01
3.176668405532836914e+00 1.691910266876220925e+00 -5.700471997261047363e-01 1.000000000000000000e+01
3.925391912460327148e+00 2.088925838470458984e+00 -5.459746718406677246e-01 1.000000000000000000e+01
3.487660598754882812e+01 1.855983924865723012e+01 6.257378578186035156e+00 1.400000000000000000e+01
5.210194110870361328e+00 2.771475791931151900e+00 -5.163106322288513184e-01 1.300000000000000000e+01
7.377300739288330078e+00 3.920928955078125000e+00 -4.378426074981688898e-01 2.000000000000000000e+00
1.227804946899414062e+01 6.520110607147216797e+00 -2.426582574844360074e-01 2.000000000000000000e+00
3.336780166625977273e+01 1.771210479736328125e+01 1.012241268157958984e+01 8.000000000000000000e+00
2.009496927261352983e+00 1.063973903656006081e+00 -6.092600226402282715e-01 1.900000000000000000e+01
2.301323890686035156e+00 1.217459917068481001e+00 -6.010692119598388672e-01 1.100000000000000000e+01
2.657107830047606978e+00 1.405085444450377974e+00 -5.842571258544921875e-01 1.200000000000000000e+01
3.175275087356566939e+00 1.677675485610961914e+00 -5.687957406044006348e-01 1.000000000000000000e+01
3.946341276168822798e+00 2.083311080932617188e+00 -5.479245781898498535e-01 1.000000000000000000e+01
3.361730575561522727e+01 1.774689483642578125e+01 6.020849704742431641e+00 1.300000000000000000e+01
5.214069366455078125e+00 2.751393318176269975e+00 -5.157876610755920410e-01 1.600000000000000000e+01
7.429130554199218750e+00 3.916936159133911133e+00 -4.401454031467437744e-01 1.000000000000000000e+00
3.509672546386718750e+01 1.849657630920410156e+01 9.159107208251953125e+00 1.200000000000000000e+01
1.233144950866699041e+01 6.496135711669921875e+00 -2.432865500450134000e-01 2.000000000000000000e+00
3.345404815673828125e+01 1.762339591979980113e+01 1.013173007965088068e+01 8.000000000000000000e+00
2.014909029006958008e+00 1.057850956916809082e+00 -6.097776889801025391e-01 1.800000000000000000e+01
2.290028095245360884e+00 1.201272130012511985e+00 -5.970200896263122559e-01 1.200000000000000000e+01
2.660257577896118164e+00 1.394890189170836958e+00 -5.838755369186401367e-01 1.200000000000000000e+01
3.179362297058105025e+00 1.665664792060852051e+00 -5.684828162193298340e-01 1.000000000000000000e+01
3.950071811676024947e+00 2.067682027816772017e+00 -5.474370718002319336e-01 1.000000000000000000e+01
3.358761215209960938e+01 1.757411003112792969e+01 6.003954887390136719e+00 1.300000000000000000e+01
5.220111370086669922e+00 2.731328725814818892e+00 -5.154390335083007812e-01 1.700000000000000000e+01
7.403818607330322266e+00 3.870622873306273970e+00 -4.378426074981688898e-01 2.000000000000000000e+00
1.235404968261718928e+01 6.453051090240479404e+00 -2.432865500450134000e-01 2.000000000000000000e+00
3.335744094848632812e+01 1.741661643981933949e+01 1.008307266235351918e+01 8.000000000000000000e+00
2.025443792343140093e+00 1.054379224777221902e+00 -6.118482351303100586e-01 1.700000000000000000e+01
2.295936107635498047e+00 1.194170236587523970e+00 -5.974699854850769043e-01 1.200000000000000000e+01
2.665110588073730025e+00 1.385595560073852983e+00 -5.838755369186401367e-01 1.200000000000000000e+01
3.190416097640991211e+00 1.657288432121277078e+00 -5.694214701652526855e-01 1.100000000000000000e+01
3.948455810546875000e+00 2.049308776855469194e+00 -5.462183952331542969e-01 1.000000000000000000e+01
3.360011672973632812e+01 1.743897247314453125e+01 5.995820045471191406e+00 1.300000000000000000e+01
5.229613780975341797e+00 2.713090658187866211e+00 -5.154390335083007812e-01 1.300000000000000000e+01
3.283528900146483664e+01 1.702746772766112926e+01 7.189682960510253906e+00 6.100000000000000000e+01
7.438562870025634766e+00 3.855784654617310014e+00 -4.390986859798430841e-01 1.000000000000000000e+00
1.237650012969971058e+01 6.409888267517089844e+00 -2.432865500450134000e-01 2.000000000000000000e+00
2.029111862182617188e+00 1.047302722930907981e+00 -6.118482351303100586e-01 1.800000000000000000e+01
2.307018518447875977e+00 1.189721465110779031e+00 -5.992696285247802734e-01 1.100000000000000000e+01
2.662950754165648970e+00 1.372686028480530007e+00 -5.823490619659423828e-01 1.300000000000000000e+01
3.211986780166625977e+00 1.654281973838805930e+00 -5.722372531890869141e-01 1.100000000000000000e+01
3.959115266799927202e+00 2.037330150604248047e+00 -5.467059016227722168e-01 1.000000000000000000e+01
5.231965065002441406e+00 2.691174030303955078e+00 -5.147418379783630371e-01 1.300000000000000000e+01
7.462635040283203125e+00 3.835273504257202148e+00 -4.397267103195189875e-01 1.000000000000000000e+00
3.402311325073242188e+01 1.747799873352051137e+01 8.830678939819335938e+00 1.200000000000000000e+01
1.238101005554199041e+01 6.357512474060058594e+00 -2.429374903440474909e-01 2.000000000000000000e+00
3.903300094604492188e+01 2.003440856933594105e+01 1.175607872009276988e+01 1.200000000000000000e+01
2.027595996856689009e+00 1.037573218345642090e+00 -6.102952957153320312e-01 1.900000000000000000e+01
2.321568012237548828e+00 1.186983942985534890e+00 -6.019690036773681641e-01 1.400000000000000000e+01
2.676466941833496094e+00 1.367849469184875044e+00 -5.842571258544921875e-01 1.200000000000000000e+01
3.214223146438599077e+00 1.641263246536255105e+00 -5.716115236282348633e-01 1.100000000000000000e+01
3.978580713272095171e+00 2.029812812805175781e+00 -5.484120249748229980e-01 1.000000000000000000e+01
5.227128028869628906e+00 2.665653467178345171e+00 -5.133473277091979980e-01 1.700000000000000000e+01
7.493772983551025391e+00 3.818268060684204102e+00 -4.407734274864196777e-01 1.000000000000000000e+00
3.407002258300781250e+01 1.735205459594726918e+01 8.827079772949218750e+00 1.200000000000000000e+01
1.239599800109862926e+01 6.310627460479736328e+00 -2.427978813648223877e-01 2.000000000000000000e+00
3.880310821533203125e+01 1.975411224365234020e+01 1.166704463958740057e+01 1.100000000000000000e+01
2.026036977767943892e+00 1.027867197990417036e+00 -6.087424159049987793e-01 1.700000000000000000e+01
2.313529968261719194e+00 1.172705531120300071e+00 -5.988197326660156250e-01 1.500000000000000000e+01
2.682976722717285156e+00 1.359385848045348899e+00 -5.846387743949890137e-01 1.200000000000000000e+01
3.211120605468750000e+00 1.625572562217711958e+00 -5.700471997261047363e-01 1.100000000000000000e+01
3.985641717910767046e+00 2.015912532806396040e+00 -5.484120249748229980e-01 1.000000000000000000e+01
5.236401081085205078e+00 2.647391080856322798e+00 -5.133473277091979980e-01 1.600000000000000000e+01
7.478531837463378906e+00 3.777678251266479048e+00 -4.390986859798430841e-01 1.000000000000000000e+00
3.417213439941406250e+01 1.725410270690917969e+01 8.837877273559570312e+00 1.200000000000000000e+01
1.240723991394042969e+01 6.261912822723388672e+00 -2.425884455442428866e-01 2.000000000000000000e+00
3.853374099731445312e+01 1.943947410583496094e+01 1.156455230712890980e+01 1.100000000000000000e+01
2.034790039062500000e+00 1.023392796516418013e+00 -6.102952957153320312e-01 1.600000000000000000e+01
2.317609310150146040e+00 1.164622664451598899e+00 -5.988197326660156250e-01 1.500000000000000000e+01
2.692968606948852983e+00 1.352655887603759988e+00 -5.857836008071899414e-01 1.300000000000000000e+01
3.227368593215941939e+00 1.619670033454895020e+00 -5.719243884086608887e-01 1.100000000000000000e+01
3.800141906738281250e+01 1.906288719177246094e+01 5.220151424407958984e+00 3.000000000000000000e+01
3.992654323577880859e+00 2.001987934112548828e+00 -5.484120249748229980e-01 1.300000000000000000e+01
5.245610237121582031e+00 2.629096508026123047e+00 -5.133473277091979980e-01 1.600000000000000000e+01
7.509531497955322266e+00 3.760493278503417969e+00 -4.401454031467437744e-01 2.000000000000000000e+00
1.249340248107909979e+01 6.250776290893554688e+00 -2.438450157642365057e-01 2.000000000000000000e+00
2.043536663055419922e+00 1.018869757652282937e+00 -6.118482351303100586e-01 1.800000000000000000e+01
2.328637838363647017e+00 1.160001158714293990e+00 -6.006193161010742188e-01 1.500000000000000000e+01
2.687129259109497070e+00 1.337996959686279075e+00 -5.834938883781433105e-01 1.200000000000000000e+01
3.231234073638916016e+00 1.607514619827270952e+00 -5.716115236282348633e-01 1.100000000000000000e+01
3.981842279434204102e+00 1.979202985763550027e+00 -5.459746718406677246e-01 1.000000000000000000e+01
5.261892795562744141e+00 2.614315986633300781e+00 -5.140445828437805176e-01 9.000000000000000000e+00
7.511878490447998047e+00 3.728928804397583008e+00 -4.395173490047454834e-01 2.000000000000000000e+00
3.252864074707031250e+01 1.614028167724609020e+01 8.383476257324218750e+00 1.000000000000000000e+01
1.250439739227294922e+01 6.201797485351563388e+00 -2.436355948448180875e-01 2.000000000000000000e+00
3.727000045776367188e+01 1.847667121887207031e+01 1.114630126953125000e+01 1.000000000000000000e+01
2.045348882675170898e+00 1.010874390602112038e+00 -6.113305687904357910e-01 1.900000000000000000e+01
2.332672595977783203e+00 1.151865720748900923e+00 -6.006193161010742188e-01 1.500000000000000000e+01
2.693543672561645952e+00 1.329477906227112038e+00 -5.838755369186401367e-01 1.200000000000000000e+01
3.245683908462523970e+00 1.600594162940979004e+00 -5.731759071350097656e-01 1.100000000000000000e+01
4.001191616058349609e+00 1.971433162689208984e+00 -5.476808547973632812e-01 9.000000000000000000e+00
3.418123245239257812e+01 1.684148788452148082e+01 6.035241603851318359e+00 1.300000000000000000e+01
5.269198894500732422e+00 2.595052242279053178e+00 -5.138702392578125000e-01 9.000000000000000000e+00
7.567858695983886719e+00 3.723848104476929155e+00 -4.420294761657714844e-01 1.000000000000000000e+00
3.227001953125000000e+01 1.587182331085205078e+01 8.302493095397949219e+00 1.000000000000000000e+01
1.248648929595947088e+01 6.138701438903808594e+00 -2.428676933050155917e-01 2.000000000000000000e+00
3.755644226074218750e+01 1.846377944946289062e+01 1.121359348297118963e+01 1.000000000000000000e+01
2.047130107879639116e+00 1.002878665924072044e+00 -6.108129620552062988e-01 1.800000000000000000e+01
2.347181081771851030e+00 1.148856401443481001e+00 -6.033187508583068848e-01 1.500000000000000000e+01
2.701695203781127930e+00 1.321793079376220925e+00 -5.846387743949890137e-01 1.200000000000000000e+01
3.237053632736206055e+00 1.582314848899841087e+00 -5.706729292869567871e-01 1.100000000000000000e+01
4.016967296600341797e+00 1.961810111999511941e+00 -5.488995313644409180e-01 1.100000000000000000e+01
3.419366073608397727e+01 1.669953155517578125e+01 6.027107238769531250e+00 1.300000000000000000e+01
5.265692234039306641e+00 2.570525407791138139e+00 -5.126500725746154785e-01 9.000000000000000000e+00
7.573630332946777344e+00 3.693906307220458984e+00 -4.416108131408690851e-01 2.000000000000000000e+00
3.234274291992188211e+01 1.576762294769286932e+01 8.306992530822753906e+00 1.000000000000000000e+01
1.254738903045653942e+01 6.114349842071533203e+00 -2.436355948448180875e-01 2.000000000000000000e+00
3.574857711791992188e+01 1.742030143737792969e+01 1.065558052062987926e+01 9.000000000000000000e+00
2.043320655822753906e+00 9.930647611618041992e-01 -6.087424159049987793e-01 1.600000000000000000e+01
2.342013835906981978e+00 1.137220859527587891e+00 -6.010692119598388672e-01 1.400000000000000000e+01
2.707600593566894975e+00 1.314156174659729004e+00 -5.850203633308410645e-01 1.100000000000000000e+01
3.249118328094481978e+00 1.575585246086121050e+00 -5.719243884086608887e-01 1.100000000000000000e+01
3.861466598510742188e+01 1.871697044372558949e+01 5.268898963928222656e+00 3.100000000000000000e+01
4.033829212188720703e+00 1.954373955726623979e+00 -5.503619313240051270e-01 1.100000000000000000e+01
3.424707412719727273e+01 1.658518791198730113e+01 6.026794433593750000e+00 1.300000000000000000e+01
5.273741722106933594e+00 2.553970098495482954e+00 -5.126500725746154785e-01 9.000000000000000000e+00
7.578006267547607422e+00 3.666615486145019975e+00 -4.411921203136444092e-01 2.000000000000000000e+00
1.257733821868895951e+01 6.080122947692871094e+00 -2.438450157642365057e-01 2.000000000000000000e+00
3.598053359985352273e+01 1.739366912841796875e+01 1.070837879180908025e+01 9.000000000000000000e+00
2.053736448287963867e+00 9.892796874046325684e-01 -6.108129620552062988e-01 1.600000000000000000e+01
2.342457294464110884e+00 1.127348542213439941e+00 -6.001694202423095703e-01 1.400000000000000000e+01
2.710402011871337891e+00 1.303845882415771040e+00 -5.846387743949890137e-01 1.200000000000000000e+01
3.245696306228638139e+00 1.559955596923827903e+00 -5.703600645065307617e-01 1.000000000000000000e+01
3.859029769897460938e+01 1.853908729553223012e+01 5.256712436676025391e+00 3.100000000000000000e+01
4.045995235443115234e+00 1.942859292030334029e+00 -5.510931611061096191e-01 7.000000000000000000e+00
5.300586700439453125e+00 2.544167041778564009e+00 -5.143932104110717773e-01 9.000000000000000000e+00
7.587157249450683594e+00 3.638413667678833008e+00 -4.409827589988707941e-01 2.000000000000000000e+00
3.205648803710938211e+01 1.536577606201172053e+01 8.207114219665527344e+00 1.000000000000000000e+01
1.256963062286376953e+01 6.022357940673828125e+00 -2.432865500450134000e-01 2.000000000000000000e+00
3.500734329223632812e+01 1.676519584655762074e+01 1.040038490295409979e+01 1.700000000000000000e+01
2.069380760192871094e+00 9.879308342933654785e-01 -6.144363880157470703e-01 1.600000000000000000e+01
2.346378087997436968e+00 1.119164943695067915e+00 -6.001694202423095703e-01 1.600000000000000000e+01
2.720253229141234907e+00 1.296911478042602983e+00 -5.857836008071899414e-01 1.300000000000000000e+01
3.265388727188109907e+00 1.555412411689758079e+00 -5.728629827499389648e-01 1.000000000000000000e+01
4.025865554809570312e+00 1.915928721427917036e+00 -5.474370718002319336e-01 5.000000000000000000e+00
3.454040527343750000e+01 1.643055152893066051e+01 6.058081150054931641e+00 1.400000000000000000e+01
5.311234474182128906e+00 2.526504993438721147e+00 -5.145674943923950195e-01 9.000000000000000000e+00
7.617850303649902344e+00 3.620480537414550781e+00 -4.420294761657714844e-01 2.000000000000000000e+00
3.200783538818358664e+01 1.520528507232666016e+01 8.181019783020019531e+00 1.000000000000000000e+01
1.261225318908691051e+01 5.988738059997558594e+00 -2.437054067850112915e-01 2.000000000000000000e+00
3.489347076416016336e+01 1.656863784790039062e+01 1.035017395019531072e+01 1.700000000000000000e+01
2.060592889785767046e+00 9.749178886413574219e-01 -6.108129620552062988e-01 1.600000000000000000e+01
2.362603187561035156e+00 1.116797447204590066e+00 -6.033187508583068848e-01 1.500000000000000000e+01
2.717663526535034180e+00 1.284053325653075950e+00 -5.842571258544921875e-01 1.300000000000000000e+01
3.274371147155762163e+00 1.545691132545470969e+00 -5.734887719154357910e-01 1.000000000000000000e+01
4.046892166137695312e+00 1.908638358116149902e+00 -5.493869781494140625e-01 8.000000000000000000e+00
5.312812328338623047e+00 2.504551649093627930e+00 -5.138702392578125000e-01 9.000000000000000000e+00
7.619600772857666016e+00 3.588761091232299805e+00 -4.414014518260955811e-01 2.000000000000000000e+00
3.250149917602539062e+01 1.530097484588623047e+01 8.293495178222656250e+00 1.000000000000000000e+01
1.259689331054688033e+01 5.927648067474365234e+00 -2.430073022842406949e-01 5.000000000000000000e+00
3.484446716308593750e+01 1.639656066894530895e+01 1.031859779357909979e+01 1.700000000000000000e+01
2.055237531661986861e+00 9.636186361312866211e-01 -6.082247495651245117e-01 1.500000000000000000e+01
2.368251800537108931e+00 1.109370231628417969e+00 -6.037686467170715332e-01 1.400000000000000000e+01
2.729241132736206055e+00 1.277889132499695046e+00 -5.857836008071899414e-01 1.100000000000000000e+01
3.265432357788085938e+00 1.527555823326111062e+00 -5.709857940673828125e-01 1.000000000000000000e+01
4.069715499877929688e+00 1.902064919471740945e+00 -5.515806674957275391e-01 1.100000000000000000e+01
3.489840698242188211e+01 1.631048583984375000e+01 6.101256847381591797e+00 1.400000000000000000e+01
5.310691833496093750e+00 2.480931520462036133e+00 -5.128244161605834961e-01 9.000000000000000000e+00
3.351406097412108664e+01 1.564923286437987926e+01 7.189682960510253906e+00 6.100000000000000000e+01
7.642940521240234375e+00 3.567210197448730025e+00 -4.420294761657714844e-01 2.000000000000000000e+00
3.211320877075195312e+01 1.498145961761474965e+01 8.181019783020019531e+00 1.000000000000000000e+01
1.261025810241699041e+01 5.880259990692138672e+00 -2.428676933050155917e-01 5.000000000000000000e+00
3.498377609252929688e+01 1.631320381164551137e+01 1.034292697906493963e+01 8.000000000000000000e+00
2.067348718643188032e+00 9.605085849761962891e-01 -6.108129620552062988e-01 1.600000000000000000e+01
2.372109889984130859e+00 1.101096749305725098e+00 -6.037686467170715332e-01 1.400000000000000000e+01
2.744370460510253906e+00 1.273312211036681907e+00 -5.880733132362365723e-01 1.200000000000000000e+01
3.276121139526367188e+00 1.518640398979187012e+00 -5.719243884086608887e-01 1.100000000000000000e+01
4.085336685180664062e+00 1.892018556594849077e+00 -5.527993440628051758e-01 1.100000000000000000e+01
5.348248481750488281e+00 2.475770235061645952e+00 -5.156133770942687988e-01 9.000000000000000000e+00
7.669847965240479404e+00 3.547216653823852983e+00 -4.428668618202208918e-01 2.000000000000000000e+00
3.218476486206054688e+01 1.487826728820800959e+01 8.185968399047851562e+00 2.100000000000000000e+01
1.266701316833495916e+01 5.852981567382813388e+00 -2.435657829046249112e-01 5.000000000000000000e+00
3.492758178710938211e+01 1.613141059875487926e+01 1.030876255035400035e+01 8.000000000000000000e+00
2.074365139007567915e+00 9.545400738716125488e-01 -6.118482351303100586e-01 1.600000000000000000e+01
2.365506172180175781e+00 1.087511062622070090e+00 -6.010692119598388672e-01 1.100000000000000000e+01
2.750802993774414062e+00 1.264064788818358931e+00 -5.884549617767333984e-01 1.000000000000000000e+01
3.279870033264160156e+00 1.505798339843750000e+00 -5.716115236282348633e-01 1.100000000000000000e+01
4.083221912384033203e+00 1.872894287109375000e+00 -5.515806674957275391e-01 1.200000000000000000e+01
5.353664398193359375e+00 2.454490423202515093e+00 -5.152647495269775391e-01 9.000000000000000000e+00
3.353594970703125000e+01 1.536811828613281072e+01 7.170601844787597656e+00 6.100000000000000000e+01
7.668271064758300781e+00 3.512427568435668945e+00 -4.420294761657714844e-01 2.000000000000000000e+00
3.230818557739257812e+01 1.479184150695800959e+01 8.203515052795410156e+00 1.000000000000000000e+01
1.271020030975341975e+01 5.816500663757324219e+00 -2.439846396446228027e-01 7.000000000000000000e+00
2.081200122833251953e+00 9.488962292671203613e-01 -6.128835082054138184e-01 1.600000000000000000e+01
2.372834682464600053e+00 1.080862998962401900e+00 -6.019690036773681641e-01 1.100000000000000000e+01
2.739117622375487837e+00 1.247133374214171919e+00 -5.850203633308410645e-01 1.100000000000000000e+01
3.288702487945557085e+00 1.495976209640502930e+00 -5.722372531890869141e-01 1.000000000000000000e+01
3.743716812133789062e+01 1.702166175842285156e+01 5.049534320831298828e+00 2.500000000000000000e+01
4.091541767120361328e+00 1.859451055526732954e+00 -5.518243908882141113e-01 1.200000000000000000e+01
5.371269702911376953e+00 2.439907789230347124e+00 -5.161362886428833008e-01 9.000000000000000000e+00
3.367876815795897727e+01 1.529154491424561080e+01 7.189682960510253906e+00 6.100000000000000000e+01
7.702309608459472656e+00 3.495543718338013139e+00 -4.432855546474456787e-01 2.000000000000000000e+00
3.634911346435546875e+01 1.648868942260741832e+01 9.214895248413085938e+00 1.200000000000000000e+01
1.275228118896484020e+01 5.782007694244384766e+00 -2.444034963846206943e-01 2.000000000000000000e+00
2.085931062698363814e+00 9.431492090225219727e-01 -6.134011149406433105e-01 1.600000000000000000e+01
3.841831970214843750e+01 1.736268234252930043e+01 7.358981966972351074e-01 4.000000000000000000e+01
2.372666835784912109e+00 1.071798682212830034e+00 -6.010692119598388672e-01 1.200000000000000000e+01
2.746600866317749023e+00 1.240137815475464089e+00 -5.857836008071899414e-01 1.200000000000000000e+01
3.302389144897460938e+00 1.489698410034179910e+00 -5.738016366958618164e-01 1.100000000000000000e+01
4.106412410736083984e+00 1.850666046142577903e+00 -5.530430674552917480e-01 1.200000000000000000e+01
5.380724906921386719e+00 2.423839807510375977e+00 -5.163106322288513184e-01 9.000000000000000000e+00
7.705967903137207031e+00 3.468050241470336914e+00 -4.428668618202208918e-01 1.000000000000000000e+00
1.277767753601074041e+01 5.745196819305419922e+00 -2.445431202650069913e-01 2.000000000000000000e+00
3.438700485229492188e+01 1.545413303375243963e+01 1.010170745849609020e+01 8.000000000000000000e+00
2.080395460128784180e+00 9.319133758544921875e-01 -6.108129620552062988e-01 1.800000000000000000e+01
3.847869110107421875e+01 1.722847175598144887e+01 7.358981966972351074e-01 4.000000000000000000e+01
2.390623331069945845e+00 1.069878339767456055e+00 -6.046684384346008301e-01 1.100000000000000000e+01
3.711312103271483664e+01 1.660927581787109020e+01 2.130910873413085938e+00 2.400000000000000000e+01
2.758081436157227007e+00 1.233749389648437944e+00 -5.873100757598876953e-01 1.300000000000000000e+01
3.302158594131470171e+00 1.475743889808655007e+00 -5.728629827499389648e-01 1.000000000000000000e+01
4.112847328186035156e+00 1.836320757865905984e+00 -5.530430674552917480e-01 1.300000000000000000e+01
5.370958328247070312e+00 2.396923065185546875e+00 -5.145674943923950195e-01 9.000000000000000000e+00
7.736268520355224609e+00 3.449263334274291992e+00 -4.439135789871215820e-01 2.000000000000000000e+00
1.283784103393555043e+01 5.718460083007813388e+00 -2.453110218048095981e-01 2.000000000000000000e+00
3.461722564697266336e+01 1.541258144378661932e+01 1.015347099304199041e+01 8.000000000000000000e+00
2.087167263031005859e+00 9.262129664421081543e-01 -6.118482351303100586e-01 1.800000000000000000e+01
2.388998985290526900e+00 1.059157490730286089e+00 -6.033187508583068848e-01 1.300000000000000000e+01
2.760576248168944868e+00 1.223319053649901900e+00 -5.869284868240356445e-01 1.300000000000000000e+01
3.303677320480347124e+00 1.462608814239501953e+00 -5.722372531890869141e-01 1.100000000000000000e+01
3.461594390869141336e+01 1.531799507141112926e+01 4.647852897644042969e+00 1.900000000000000000e+01
4.139202117919921875e+00 1.830785751342772993e+00 -5.557242035865783691e-01 1.200000000000000000e+01
5.392048358917236328e+00 2.383799552917480025e+00 -5.157876610755920410e-01 9.000000000000000000e+00
7.766530990600585938e+00 3.430307149887084961e+00 -4.449602961540222168e-01 1.000000000000000000e+00
3.651416397094727273e+01 1.611989212036133168e+01 9.214895248413085938e+00 1.200000000000000000e+01
1.289797306060791016e+01 5.691373348236083984e+00 -2.460789233446120938e-01 2.000000000000000000e+00
3.523997116088867188e+01 1.554267883300781072e+01 1.032015037536620916e+01 8.000000000000000000e+00
2.097461700439453125e+00 9.220314621925354004e-01 -6.139187812805175781e-01 1.700000000000000000e+01
2.390897274017333984e+00 1.050028324127197044e+00 -6.028688549995422363e-01 1.400000000000000000e+01
2.779211044311522993e+00 1.219988346099853960e+00 -5.899814367294311523e-01 1.400000000000000000e+01
3.308762550354003906e+00 1.451067924499511941e+00 -5.722372531890869141e-01 1.100000000000000000e+01
4.140112876892089844e+00 1.813936233520508035e+00 -5.549929738044738770e-01 1.300000000000000000e+01
5.402161598205566406e+00 2.365762710571289062e+00 -5.159620046615600586e-01 9.000000000000000000e+00
7.749181270599365234e+00 3.390367031097412109e+00 -4.432855546474456787e-01 2.000000000000000000e+00
1.295440769195556996e+01 5.662333965301513672e+00 -2.467770278453826904e-01 2.000000000000000000e+00
3.529047012329102273e+01 1.541802692413330078e+01 1.031911563873291016e+01 8.000000000000000000e+00
2.104369878768920898e+00 9.158796072006225586e-01 -6.149540543556213379e-01 1.800000000000000000e+01
2.391155481338500977e+00 1.039703965187072976e+00 -6.019690036773681641e-01 1.400000000000000000e+01
2.781863451004027876e+00 1.209011316299438032e+00 -5.895997881889343262e-01 1.400000000000000000e+01
3.321306705474853960e+00 1.442077875137329102e+00 -5.734887719154357910e-01 1.000000000000000000e+01
4.143091201782226562e+00 1.797169804573059082e+00 -5.545055270195007324e-01 1.300000000000000000e+01
3.624632644653320312e+01 1.572275543212890980e+01 6.257691383361816406e+00 1.400000000000000000e+01
5.418107986450195312e+00 2.349117040634154829e+00 -5.166592597961425781e-01 9.000000000000000000e+00
7.801875114440917969e+00 3.379406690597534180e+00 -4.455883204936981201e-01 1.000000000000000000e+00
3.394966125488281250e+01 1.469836521148681996e+01 8.540941238403320312e+00 1.100000000000000000e+01
1.297507381439208984e+01 5.614815711975097656e+00 -2.467770278453826904e-01 2.000000000000000000e+00
3.695037841796875000e+01 1.598985767364501953e+01 1.078809547424316051e+01 9.000000000000000000e+00
2.104005813598632812e+00 9.069988727569580078e-01 -6.139187812805175781e-01 1.800000000000000000e+01
2.405508995056151900e+00 1.035975933074950950e+00 -6.046684384346008301e-01 1.400000000000000000e+01
2.778853416442871094e+00 1.196188449859618919e+00 -5.880733132362365723e-01 1.400000000000000000e+01
3.326320171356201172e+00 1.430475592613219993e+00 -5.734887719154357910e-01 1.000000000000000000e+01
3.639654922485352273e+01 1.564471721649169922e+01 4.864293098449707031e+00 2.100000000000000000e+01
4.156634807586669922e+00 1.785831212997436968e+00 -5.554804801940917969e-01 1.300000000000000000e+01
3.641351699829102273e+01 1.564448165893555043e+01 6.277089118957520419e+00 1.400000000000000000e+01
5.422613620758056641e+00 2.328617572784423828e+00 -5.163106322288513184e-01 9.000000000000000000e+00
7.802611351013183594e+00 3.347427845001221147e+00 -4.449602961540222168e-01 1.000000000000000000e+00
1.305708599090575994e+01 5.596274375915527344e+00 -2.479637861251831055e-01 2.000000000000000000e+00
3.511222076416016336e+01 1.504186344146729049e+01 1.023525810241699041e+01 8.000000000000000000e+00
2.101672410964965820e+00 8.977401256561279297e-01 -6.123658418655395508e-01 1.600000000000000000e+01
2.407138824462891069e+00 1.027228355407715066e+00 -6.042185425758361816e-01 1.600000000000000000e+01
2.788222551345825195e+00 1.189277648925781028e+00 -5.892181992530822754e-01 1.600000000000000000e+01
3.331045627593994141e+00 1.419437289237976074e+00 -5.734887719154357910e-01 1.000000000000000000e+01
4.168013095855712891e+00 1.774370193481445090e+00 -5.562117099761962891e-01 1.200000000000000000e+01
5.422972679138183594e+00 2.307502508163452148e+00 -5.156133770942687988e-01 9.000000000000000000e+00
7.828373432159423828e+00 3.327785968780518022e+00 -4.457976818084716797e-01 2.000000000000000000e+00
1.310502147674561080e+01 5.565451145172119141e+00 -2.485222667455672940e-01 2.000000000000000000e+00
3.611949920654296875e+01 1.533925914764403942e+01 1.051478290557860973e+01 9.000000000000000000e+00
2.097676515579224077e+00 8.873878121376037598e-01 -6.102952957153320312e-01 1.600000000000000000e+01
2.410709857940673828e+00 1.018819570541382058e+00 -6.042185425758361816e-01 1.500000000000000000e+01
2.801399469375609907e+00 1.183357477188109907e+00 -5.911262631416320801e-01 1.400000000000000000e+01
3.330520153045653853e+00 1.405496954917907937e+00 -5.725501179695129395e-01 1.100000000000000000e+01
4.192473411560058594e+00 1.767521977424622026e+00 -5.586490631103515625e-01 1.300000000000000000e+01
5.449354648590087891e+00 2.296295642852783203e+00 -5.173565149307250977e-01 9.000000000000000000e+00
7.836260318756104404e+00 3.298889636993408203e+00 -4.455883204936981201e-01 1.000000000000000000e+00
1.313911533355713068e+01 5.525874137878417969e+00 -2.488014996051788053e-01 2.000000000000000000e+00
3.519242095947266336e+01 1.479353141784667969e+01 1.022904586791992010e+01 8.000000000000000000e+00
2.113234043121337891e+00 8.852853178977966309e-01 -6.139187812805175781e-01 1.600000000000000000e+01
2.410656213760375977e+00 1.008893728256226030e+00 -6.033187508583068848e-01 1.500000000000000000e+01
2.805513143539429155e+00 1.173571586608886941e+00 -5.911262631416320801e-01 1.300000000000000000e+01
3.337228536605834961e+00 1.394624352455138938e+00 -5.728629827499389648e-01 1.000000000000000000e+01
4.182130813598632812e+00 1.745993733406066895e+00 -5.564554333686828613e-01 1.100000000000000000e+01
5.470208168029785156e+00 2.282630681991577148e+00 -5.185766816139221191e-01 8.000000000000000000e+00
3.486228942871093750e+01 1.454033470153808949e+01 7.342329978942871094e+00 6.200000000000000000e+01
7.829292774200438565e+00 3.263830900192261186e+00 -4.445416033267974854e-01 2.000000000000000000e+00
3.312734985351563211e+01 1.380315399169922053e+01 8.285397529602050781e+00 1.000000000000000000e+01
1.323585605621338068e+01 5.512265682220458984e+00 -2.502675056457520086e-01 2.000000000000000000e+00
3.750260543823242188e+01 1.561850833892822088e+01 1.088541126251221058e+01 1.000000000000000000e+01
2.121664524078369141e+00 8.801240324974060059e-01 -6.154716610908508301e-01 1.400000000000000000e+01
2.410562753677368164e+00 9.989807605743408203e-01 -6.024188995361328125e-01 1.500000000000000000e+01
2.809592485427856001e+00 1.163771271705626997e+00 -5.911262631416320801e-01 1.300000000000000000e+01
3.349377393722534180e+00 1.385987997055053933e+00 -5.741145014762878418e-01 1.100000000000000000e+01
3.643269348144531250e+01 1.506857204437256037e+01 4.840894222259520596e+00 2.000000000000000000e+01
4.195538043975830078e+00 1.734418272972106934e+00 -5.574303865432739258e-01 1.100000000000000000e+01
3.550561141967772727e+01 1.467061901092528942e+01 6.084674835205078125e+00 1.400000000000000000e+01
5.474459648132324219e+00 2.262000560760498047e+00 -5.182280540466308594e-01 9.000000000000000000e+00
7.859099864959716797e+00 3.244102239608765093e+00 -4.455883204936981201e-01 2.000000000000000000e+00
3.303842163085938211e+01 1.363094806671142933e+01 8.251204490661621094e+00 1.000000000000000000e+01
1.329938507080077947e+01 5.484326839447020596e+00 -2.511052191257476807e-01 2.000000000000000000e+00
3.763104248046875000e+01 1.551039600372313920e+01 1.090611648559569957e+01 1.000000000000000000e+01
2.117424011230469194e+00 8.701462745666503906e-01 -6.134011149406433105e-01 1.600000000000000000e+01
2.421073198318481001e+00 9.939419031143188477e-01 -6.042185425758361816e-01 1.600000000000000000e+01
2.811619997024536133e+00 1.153702735900878906e+00 -5.907446742057800293e-01 1.400000000000000000e+01
3.363094091415404829e+00 1.378619790077209029e+00 -5.756788253784179688e-01 1.100000000000000000e+01
4.199429512023925781e+00 1.719743490219115989e+00 -5.571866631507873535e-01 1.100000000000000000e+01
5.480086803436279297e+00 2.243079423904418945e+00 -5.180537104606628418e-01 9.000000000000000000e+00
7.880906105041503906e+00 3.222558259963988814e+00 -4.462163746356964111e-01 2.000000000000000000e+00
3.334320068359375000e+01 1.362747955322265980e+01 8.315990447998046875e+00 1.000000000000000000e+01
1.327307033538818004e+01 5.422045230865479404e+00 -2.502675056457520086e-01 2.000000000000000000e+00
3.762235260009766336e+01 1.536872005462645951e+01 1.088955211639403942e+01 1.000000000000000000e+01
2.116869688034058061e+00 8.612936735153198242e-01 -6.123658418655395508e-01 1.600000000000000000e+01
2.435359716415404829e+00 9.898874759674072266e-01 -6.069179177284240723e-01 1.600000000000000000e+01
2.821086645126343218e+00 1.146098136901855025e+00 -5.918895006179809570e-01 1.400000000000000000e+01
3.371546506881713867e+00 1.368357658386230025e+00 -5.763045549392700195e-01 1.100000000000000000e+01
4.031644058227539062e+01 1.635441780090332031e+01 5.342020988464354581e+00 3.300000000000000000e+01
4.210926055908203125e+00 1.707311868667602983e+00 -5.579178333282470703e-01 1.100000000000000000e+01
5.478650569915770596e+00 2.220195055007935014e+00 -5.171821713447570801e-01 9.000000000000000000e+00
7.884701728820800781e+00 3.192031383514403853e+00 -4.457976818084716797e-01 2.000000000000000000e+00
1.336236095428466975e+01 5.404170989990234375e+00 -2.515938878059387207e-01 2.000000000000000000e+00
3.760678863525391336e+01 1.520176410675049006e+01 1.086884689331055043e+01 9.000000000000000000e+00
2.118071317672729048e+00 8.531773686408996582e-01 -6.118482351303100586e-01 1.600000000000000000e+01
2.435184717178345171e+00 9.799254536628723145e-01 -6.060181260108947754e-01 1.500000000000000000e+01
2.821427106857299805e+00 1.134778499603271040e+00 -5.911262631416320801e-01 1.300000000000000000e+01
3.352473974227904829e+00 1.347006320953368919e+00 -5.722372531890869141e-01 1.100000000000000000e+01
4.222386837005615234e+00 1.694821000099181907e+00 -5.586490631103515625e-01 1.100000000000000000e+01
5.503009319305419922e+00 2.207734107971190962e+00 -5.187509655952453613e-01 9.000000000000000000e+00
7.910627365112304688e+00 3.170433282852172852e+00 -4.466350376605988104e-01 1.000000000000000000e+00
3.470382690429688211e+01 1.390162181854248047e+01 8.630922317504882812e+00 1.100000000000000000e+01
1.338485622406006037e+01 5.358981132507324219e+00 -2.516637146472930908e-01 2.000000000000000000e+00
3.752786636352539062e+01 1.502527236938476918e+01 1.083157730102539062e+01 9.000000000000000000e+00
2.131803274154663086e+00 8.500720262527465820e-01 -6.149540543556213379e-01 1.500000000000000000e+01
2.427727937698363814e+00 9.670920968055725098e-01 -6.033187508583068848e-01 1.600000000000000000e+01
2.836315155029296875e+00 1.129280328750609907e+00 -5.934159755706787109e-01 1.400000000000000000e+01
3.360826730728148970e+00 1.336755871772765891e+00 -5.728629827499389648e-01 1.000000000000000000e+01
4.024516677856445312e+01 1.599922561645507990e+01 5.317646980285645419e+00 3.200000000000000000e+01
4.237501144409179688e+00 1.683736801147460938e+00 -5.598677396774291992e-01 1.100000000000000000e+01
5.512534141540527344e+00 2.189246892929077148e+00 -5.189253091812133789e-01 9.000000000000000000e+00
7.899368286132813388e+00 3.133962154388428178e+00 -4.453789889812468927e-01 2.000000000000000000e+00
3.649844360351563211e+01 1.447286605834960938e+01 9.064627647399902344e+00 1.200000000000000000e+01
1.345553398132324041e+01 5.332856655120849609e+00 -2.526410222053527832e-01 2.000000000000000000e+00
3.763656616210938211e+01 1.490896892547607067e+01 1.084710597991943004e+01 9.000000000000000000e+00
2.134757518768310991e+00 8.426254391670227051e-01 -6.149540543556213379e-01 1.700000000000000000e+01
2.438340663909912109e+00 9.614712595939636230e-01 -6.051183342933654785e-01 1.500000000000000000e+01
2.838413238525391069e+00 1.118653059005737083e+00 -5.930343866348266602e-01 1.600000000000000000e+01
3.376500606536864790e+00 1.329358220100403054e+00 -5.747402310371398926e-01 1.000000000000000000e+01
4.232268333435058594e+00 1.664575576782227007e+00 -5.584053397178649902e-01 1.100000000000000000e+01
5.523850917816162109e+00 2.171449184417725053e+00 -5.192739367485046387e-01 9.000000000000000000e+00
7.932568073272705078e+00 3.115129709243773970e+00 -4.466350376605988104e-01 2.000000000000000000e+00
1.357086849212645951e+01 5.323830604553222656e+00 -2.544560730457305908e-01 2.000000000000000000e+00
3.754192352294921875e+01 1.472763824462890980e+01 1.080569553375243963e+01 9.000000000000000000e+00
2.141284704208374023e+00 8.365746140480041504e-01 -6.159893274307250977e-01 1.600000000000000000e+01
2.445312738418579102e+00 9.543710350990295410e-01 -6.060181260108947754e-01 1.500000000000000000e+01
2.834984779357910156e+00 1.105884432792664018e+00 -5.915079116821289062e-01 1.400000000000000000e+01
3.405047655105590820e+00 1.326888084411621094e+00 -5.788075327873229980e-01 1.100000000000000000e+01
4.044836807250977273e+01 1.575389575958251953e+01 5.329833984375000000e+00 3.200000000000000000e+01
4.247302532196044922e+00 1.653392553329467995e+00 -5.596240162849426270e-01 1.100000000000000000e+01
5.522112846374511719e+00 2.148541927337646040e+00 -5.184023380279541016e-01 9.000000000000000000e+00
7.973179340362548828e+00 3.098997831344604048e+00 -4.483098089694976807e-01 1.000000000000000000e+00
3.570851135253906250e+01 1.387193298339843928e+01 8.844175338745117188e+00 1.200000000000000000e+01
1.355208778381348012e+01 5.261951446533203125e+00 -2.537579834461212158e-01 2.000000000000000000e+00
3.758950424194335938e+01 1.459510517120360973e+01 1.080465984344482067e+01 9.000000000000000000e+00
2.131435155868529829e+00 8.245900273323059082e-01 -6.123658418655395508e-01 1.600000000000000000e+01
2.464823484420775923e+00 9.525792598724365234e-01 -6.100672483444213867e-01 1.400000000000000000e+01
2.849624633789062944e+00 1.100721597671509011e+00 -5.937975645065307617e-01 1.400000000000000000e+01
3.400214433670043945e+00 1.312033534049988015e+00 -5.772431492805480957e-01 1.000000000000000000e+01
4.254614353179931641e+00 1.640012979507446067e+00 -5.598677396774291992e-01 1.000000000000000000e+01
5.536643981933593750e+00 2.133083105087279829e+00 -5.190995931625366211e-01 9.000000000000000000e+00
7.994596004486083984e+00 3.076845169067382812e+00 -4.489378333091735840e-01 1.000000000000000000e+00
3.558334732055664062e+01 1.368767738342284979e+01 8.801884651184082031e+00 1.100000000000000000e+01
1.360679244995117010e+01 5.231334209442138672e+00 -2.544560730457305908e-01 2.000000000000000000e+00
3.724460220336914062e+01 1.431924343109131037e+01 1.069181442260742010e+01 9.000000000000000000e+00
2.139712810516356978e+00 8.192171454429626465e-01 -6.139187812805175781e-01 1.600000000000000000e+01
2.453572273254394975e+00 9.384004473686218262e-01 -6.064680218696594238e-01 1.200000000000000000e+01
2.851615667343140093e+00 1.090066790580749956e+00 -5.934159755706787109e-01 1.300000000000000000e+01
3.388164997100830078e+00 1.293814420700073020e+00 -5.744273662567138672e-01 1.100000000000000000e+01
3.582912826538085938e+01 1.367464828491210938e+01 4.708787918090820312e+00 2.000000000000000000e+01
4.265877246856688565e+00 1.627274155616760032e+00 -5.605989694595336914e-01 1.100000000000000000e+01
5.555226325988770419e+00 2.118002414703369141e+00 -5.201454758644104004e-01 9.000000000000000000e+00
