-1.156764984130858931e+00 -6.994584202766418457e-01 2.359565347433089863e-02 3.200000000000000000e+01
-2.698440551757812944e+00 -1.631016850471497026e+00 -7.279416322708129883e-01 1.200000000000000000e+01
-1.145221829414367898e+00 -6.922057271003723145e-01 7.013018429279327393e-02 4.800000000000000000e+01
-3.231335639953612837e+00 -1.952344298362731934e+00 -7.338513731956481934e-01 1.200000000000000000e+01
-1.152903437614440918e+00 -6.962993741035461426e-01 1.178345605731010021e-01 5.600000000000000000e+01
-1.133032798767090066e+00 -6.840286254882812500e-01 -2.096221894025802890e-01 6.000000000000000000e+00
-1.135326266288757102e+00 -6.851428747177124023e-01 1.628174483776093084e-01 6.100000000000000000e+01
-1.157542824745178001e+00 -6.982744932174682617e-01 -1.659860461950302124e-01 3.700000000000000000e+01
-1.141728758811950906e+00 -6.887348294258117676e-01 2.111865282058716098e-01 6.100000000000000000e+01
-1.175569772720336914e+00 -7.088692188262939453e-01 -1.201006099581718028e-01 2.600000000000000000e+01
-1.148412585258484109e+00 -6.922201514244079590e-01 2.606450915336608887e-01 9.600000000000000000e+01
-1.159873008728026900e+00 -6.988520622253417969e-01 -7.096755504608154297e-02 2.000000000000000000e+01
-1.146839618682861106e+00 -6.907263398170471191e-01 3.090827465057373047e-01 9.400000000000000000e+01
-1.175237417221068892e+00 -7.075504660606384277e-01 -2.394470199942589153e-02 4.500000000000000000e+01
-1.153570652008057085e+00 -6.945060491561889648e-01 3.607937395572661798e-01 1.000000000000000000e+02
-2.314047813415526900e+00 -1.388771653175354004e+00 -7.231404185295104980e-01 1.900000000000000000e+01
-1.172917842864990012e+00 -7.036461234092712402e-01 2.387489192187786102e-02 4.100000000000000000e+01
-2.707459926605225053e+00 -1.623592019081115945e+00 -7.288414239883422852e-01 1.400000000000000000e+01
-1.157908320426940918e+00 -6.943669915199279785e-01 7.075821608304977417e-02 5.000000000000000000e+01
-3.234763145446776900e+00 -1.939034223556518999e+00 -7.330881357192993164e-01 1.300000000000000000e+01
-1.148490667343140093e+00 -6.881744861602783203e-01 1.171373203396797041e-01 5.200000000000000000e+01
-4.082405090332031250e+00 -2.445204973220825195e+00 -7.537012696266174316e-01 1.100000000000000000e+01
-1.136007785797118919e+00 -6.801559329032897949e-01 1.625737100839614868e-01 6.300000000000000000e+01
-1.133955955505371094e+00 -6.786586046218872070e-01 2.093093097209929865e-01 5.000000000000000000e+01
-7.541830539703369141e+00 -4.511904716491699219e+00 -7.688879370689392090e-01 5.000000000000000000e+00
-1.150821924209594949e+00 -6.882072091102600098e-01 2.606450915336608887e-01 1.000000000000000000e+02
-1.014360046386718928e+01 -6.063608169555664062e+00 -6.193436980247497559e-01 7.000000000000000000e+00
-1.155935049057007058e+00 -6.907172799110412598e-01 3.108823597431182861e-01 8.900000000000000000e+01
-1.174266576766967995e+00 -7.013929486274719238e-01 -2.387489192187786102e-02 2.800000000000000000e+01
-1.154449701309204102e+00 -6.892829537391662598e-01 3.602761030197144110e-01 1.000000000000000000e+02
-2.310581922531127930e+00 -1.375743985176085982e+00 -7.205522060394287109e-01 1.900000000000000000e+01
-1.166774988174438032e+00 -6.944339275360107422e-01 2.370036765933037151e-02 3.800000000000000000e+01
-2.719809770584106001e+00 -1.618116855621337891e+00 -7.306410074234008789e-01 1.300000000000000000e+01
-1.162162184715270996e+00 -6.911392807960510254e-01 7.086288183927536011e-02 4.600000000000000000e+01
-3.239824533462523970e+00 -1.926727414131164995e+00 -7.327065467834472656e-01 1.300000000000000000e+01
-1.147460579872130904e+00 -6.821250915527343750e-01 1.167886927723884999e-01 5.100000000000000000e+01
-4.080726623535156250e+00 -2.424885034561156782e+00 -7.518240213394165039e-01 1.100000000000000000e+01
-1.145201921463012917e+00 -6.802414655685424805e-01 1.635486632585526068e-01 7.200000000000000000e+01
-5.542259216308593750e+00 -3.290752649307250977e+00 -7.914195060729980469e-01 7.000000000000000000e+00
-1.129523873329163042e+00 -6.706621646881103516e-01 2.080578356981276911e-01 6.000000000000000000e+01
-7.684321403503417969e+00 -4.560802459716796875e+00 -7.817870378494262695e-01 7.000000000000000000e+00
-1.149840235710144043e+00 -6.821824312210083008e-01 2.598818540573120117e-01 1.000000000000000000e+02
-1.016126823425292969e+01 -6.026125907897949219e+00 -6.191343665122985840e-01 1.400000000000000000e+01
-1.161691665649414062e+00 -6.886655688285827637e-01 3.117821514606475830e-01 9.200000000000000000e+01
-1.180148363113403098e+00 -6.993286013603210449e-01 -2.394470199942589153e-02 1.000000000000000000e+01
-1.151743173599242942e+00 -6.824963688850402832e-01 3.587231934070587158e-01 1.000000000000000000e+02
-2.317033529281616211e+00 -1.368652701377869096e+00 -7.210698723793029785e-01 1.900000000000000000e+01
-1.172635793685913086e+00 -6.923903226852416992e-01 2.377017773687839855e-02 2.300000000000000000e+01
-2.722084999084473100e+00 -1.606631994247436968e+00 -7.297412157058715820e-01 1.300000000000000000e+01
-1.178329110145569070e+00 -6.951974630355834961e-01 7.170026004314422607e-02 3.700000000000000000e+01
-3.258366584777832031e+00 -1.922389864921570046e+00 -7.353778481483459473e-01 1.200000000000000000e+01
-1.154983162879944070e+00 -6.811519265174865723e-01 1.173116266727448065e-01 4.800000000000000000e+01
-4.087464332580566406e+00 -2.409622669219971147e+00 -7.515111565589904785e-01 1.200000000000000000e+01
-1.142438650131226030e+00 -6.732164025306701660e-01 1.628174483776093084e-01 7.700000000000000000e+01
-5.558843612670898438e+00 -3.274409055709838867e+00 -7.921507358551025391e-01 8.000000000000000000e+00
-1.138783216476439986e+00 -6.705269217491149902e-01 2.093093097209929865e-01 6.600000000000000000e+01
-7.787755489349365234e+00 -4.585507869720458984e+00 -7.906768918037414551e-01 8.000000000000000000e+00
-1.145446658134460005e+00 -6.741812229156494141e-01 2.583553791046143133e-01 1.000000000000000000e+02
-1.012199211120604936e+01 -5.955172061920166016e+00 -6.154708266258239746e-01 1.000000000000000000e+01
-1.169127821922302024e+00 -6.875699758529663086e-01 3.131318688392639160e-01 8.000000000000000000e+01
-4.531737899780272727e+01 -2.664073562622069957e+01 -9.175777435302734375e-01 1.400000000000000000e+01
-1.147574663162231001e+00 -6.743554472923278809e-01 3.566526472568511963e-01 7.300000000000000000e+01
-2.330607175827025923e+00 -1.364626526832581010e+00 -7.236580252647399902e-01 1.800000000000000000e+01
-1.190818071365356001e+00 -6.969736218452453613e-01 2.408432029187678944e-02 1.600000000000000000e+01
-2.709731817245482954e+00 -1.585343360900878906e+00 -7.247923016548156738e-01 1.300000000000000000e+01
-1.174093484878540039e+00 -6.866347789764404297e-01 7.128157466650009155e-02 2.700000000000000000e+01
-3.270808219909667969e+00 -1.912837862968445046e+00 -7.365227341651916504e-01 1.200000000000000000e+01
-1.161030173301696999e+00 -6.787230968475341797e-01 1.176602542400359969e-01 4.400000000000000000e+01
-4.093275547027587891e+00 -2.391916990280150923e+00 -7.508854269981384277e-01 1.200000000000000000e+01
-1.138158798217772993e+00 -6.648198962211608887e-01 1.618424952030181885e-01 7.700000000000000000e+01
-5.550804138183593750e+00 -3.241029262542725053e+00 -7.892258763313293457e-01 8.000000000000000000e+00
-1.142939090728759988e+00 -6.673445701599121094e-01 2.096221894025802890e-01 8.100000000000000000e+01
-7.841440677642822266e+00 -4.576662063598632812e+00 -7.943374514579772949e-01 8.000000000000000000e+00
-1.144635438919066939e+00 -6.677994132041931152e-01 2.575921416282653809e-01 1.000000000000000000e+02
-1.022414779663085938e+01 -5.962546348571777344e+00 -6.202857494354248047e-01 1.400000000000000000e+01
-1.149873018264770952e+00 -6.703171730041503906e-01 3.072831332683563232e-01 6.800000000000000000e+01
-4.549536132812500000e+01 -2.651083183288573863e+01 -9.191135168075561523e-01 1.400000000000000000e+01
-1.156715154647826926e+00 -6.740353703498840332e-01 3.587231934070587158e-01 7.300000000000000000e+01
-2.338697433471680132e+00 -1.358423471450806108e+00 -7.246932983398437500e-01 1.900000000000000000e+01
-1.205349087715148926e+00 -6.998411417007446289e-01 2.432865463197230946e-02 3.000000000000000000e+00
-2.723676443099976030e+00 -1.580765962600708008e+00 -7.270417809486389160e-01 1.200000000000000000e+01
-1.176483154296875000e+00 -6.825322508811950684e-01 7.128157466650009155e-02 1.600000000000000000e+01
-3.268974304199219194e+00 -1.896483063697814941e+00 -7.346146106719970703e-01 1.300000000000000000e+01
-1.168562889099121094e+00 -6.776647567749023438e-01 1.181831881403923035e-01 3.300000000000000000e+01
-4.099890708923339844e+00 -2.376623630523682085e+00 -7.505725622177124023e-01 1.200000000000000000e+01
-1.140472531318664995e+00 -6.608428955078125000e-01 1.618424952030181885e-01 6.700000000000000000e+01
-5.556930541992188388e+00 -3.218648910522460938e+00 -7.884946465492248535e-01 1.000000000000000000e+01
-1.141958355903625044e+00 -6.611714959144592285e-01 2.089964449405669888e-01 8.500000000000000000e+01
-7.948753356933593750e+00 -4.602172374725341797e+00 -8.035759329795837402e-01 8.000000000000000000e+00
-1.150357961654663086e+00 -6.657665967941284180e-01 2.583553791046143133e-01 1.000000000000000000e+02
-1.032788085937500000e+01 -5.974827766418457031e+00 -6.253100037574768066e-01 1.400000000000000000e+01
-1.142084002494812012e+00 -6.604460477828979492e-01 3.045837283134459894e-01 8.900000000000000000e+01
-4.554607391357421875e+01 -2.632784461975098012e+01 -9.182758331298828125e-01 1.400000000000000000e+01
-1.164195895195007102e+00 -6.726908087730407715e-01 3.602761030197144110e-01 9.000000000000000000e+01
-2.331238508224486861e+00 -1.344314217567444070e+00 -7.210698723793029785e-01 1.900000000000000000e+01
-2.738760232925415039e+00 -1.578038811683655007e+00 -7.297412157058715820e-01 1.300000000000000000e+01
-1.180352330207824929e+00 -6.798296570777893066e-01 7.138624787330627441e-02 6.000000000000000000e+00
-3.269812345504761186e+00 -1.883264303207397017e+00 -7.334697842597961426e-01 1.200000000000000000e+01
-1.181046128273010032e+00 -6.799547672271728516e-01 1.192290559411049028e-01 2.600000000000000000e+01
-4.110761165618895596e+00 -2.365702390670775923e+00 -7.511982917785644531e-01 1.100000000000000000e+01
-1.144263744354248047e+00 -6.582465767860412598e-01 1.620862334966660101e-01 6.100000000000000000e+01
-5.577339649200438565e+00 -3.207112789154053178e+00 -7.899571061134338379e-01 1.000000000000000000e+01
-1.138777613639831987e+00 -6.548262238502502441e-01 2.080578356981276911e-01 8.200000000000000000e+01
-7.923442363739013672e+00 -4.554341793060302734e+00 -7.995668053627014160e-01 8.000000000000000000e+00
-1.152443766593933105e+00 -6.621493697166442871e-01 2.583553791046143133e-01 1.000000000000000000e+02
-1.036565208435058949e+01 -5.953294277191162109e+00 -6.264613866806030273e-01 1.800000000000000000e+01
-1.137392997741698997e+00 -6.529738306999206543e-01 3.027841150760651190e-01 8.900000000000000000e+01
-4.568059158325195312e+01 -2.621448707580566051e+01 -9.193229675292968750e-01 1.400000000000000000e+01
-1.154457807540893999e+00 -6.625028252601623535e-01 3.566526472568511963e-01 6.800000000000000000e+01
-2.337593793869018999e+00 -1.337127685546875000e+00 -7.215874791145324707e-01 1.800000000000000000e+01
-2.749327421188354048e+00 -1.571370124816894975e+00 -7.310909032821655273e-01 1.300000000000000000e+01
-3.271252393722534180e+00 -1.868917346000670943e+00 -7.323248982429504395e-01 1.300000000000000000e+01
-1.167841196060181108e+00 -6.669355034828186035e-01 1.176602542400359969e-01 1.900000000000000000e+01
-4.115562915802001953e+00 -2.349380016326903853e+00 -7.505725622177124023e-01 1.100000000000000000e+01
-1.158623456954956055e+00 -6.611351966857910156e-01 1.637924015522002896e-01 5.900000000000000000e+01
-5.578155040740966797e+00 -3.181723356246947798e+00 -7.884946465492248535e-01 1.000000000000000000e+01
-1.136021971702575906e+00 -6.477127075195312500e-01 2.071192264556885043e-01 7.800000000000000000e+01
-8.036217689514160156e+00 -4.581919193267822266e+00 -8.093281984329223633e-01 9.000000000000000000e+00
-1.156453728675842063e+00 -6.590946912765502930e-01 2.587369978427886963e-01 9.900000000000000000e+01
-1.040719413757324041e+01 -5.928938865661621094e+00 -6.277174353599548340e-01 2.200000000000000000e+01
-1.158292889595031960e+00 -6.596073508262634277e-01 3.077330291271210272e-01 7.100000000000000000e+01
-4.583090591430664062e+01 -2.608850669860839844e+01 -9.205096960067749023e-01 1.400000000000000000e+01
-1.153520107269287109e+00 -6.563562750816345215e-01 3.556173741817473810e-01 5.200000000000000000e+01
-2.345607519149779829e+00 -1.330866456031799094e+00 -7.226227521896362305e-01 1.900000000000000000e+01
-2.748014926910399947e+00 -1.557919263839721902e+00 -7.292913198471069336e-01 1.300000000000000000e+01
-3.291420698165893999e+00 -1.865230798721313032e+00 -7.353778481483459473e-01 1.300000000000000000e+01
-1.190965056419373003e+00 -6.746390461921691895e-01 1.197519898414611955e-01 2.700000000000000000e+01
-4.116862773895263672e+00 -2.331106424331665039e+00 -7.493211030960083008e-01 1.100000000000000000e+01
-1.157469034194946067e+00 -6.551312208175659180e-01 1.633049249649048129e-01 5.900000000000000000e+01
-5.594410419464111328e+00 -3.165165185928345171e+00 -7.892258763313293457e-01 8.000000000000000000e+00
-1.146759986877440962e+00 -6.488055586814880371e-01 2.086835801601409912e-01 7.500000000000000000e+01
-8.086848258972167969e+00 -4.573455333709716797e+00 -8.128144741058349609e-01 1.000000000000000000e+01
-1.150202035903931108e+00 -6.502231359481811523e-01 2.568289041519165039e-01 1.000000000000000000e+02
-1.043652057647705078e+01 -5.897487640380859375e+00 -6.282408237457275391e-01 2.200000000000000000e+01
-1.169072151184082031e+00 -6.603522300720214844e-01 3.099825382232666016e-01 7.400000000000000000e+01
-4.590428161621093750e+01 -2.591853713989258168e+01 -9.201606512069702148e-01 1.400000000000000000e+01
-1.148961424827575906e+00 -6.487281322479248047e-01 3.535468280315399170e-01 6.100000000000000000e+01
-2.351922273635863814e+00 -1.323618173599242942e+00 -7.231404185295104980e-01 1.900000000000000000e+01
-2.741546154022216797e+00 -1.541631340980530007e+00 -7.261419892311096191e-01 1.100000000000000000e+01
-3.297911405563354048e+00 -1.853730201721190962e+00 -7.353778481483459473e-01 1.300000000000000000e+01
-1.200260639190674050e+00 -6.743814945220947266e-01 1.204492375254631042e-01 2.600000000000000000e+01
-4.137031078338623047e+00 -2.323493003845214844e+00 -7.515111565589904785e-01 1.200000000000000000e+01
-1.152824997901916948e+00 -6.471998095512390137e-01 1.623299717903136929e-01 5.400000000000000000e+01
-5.595037937164306641e+00 -3.139788866043090820e+00 -7.877634167671203613e-01 1.000000000000000000e+01
-1.152575969696044922e+00 -6.465309858322143555e-01 2.093093097209929865e-01 7.500000000000000000e+01
-8.097550392150878906e+00 -4.542274951934813565e+00 -8.122915029525756836e-01 1.000000000000000000e+01
-1.154177188873291016e+00 -6.471644043922424316e-01 2.572105228900908869e-01 9.900000000000000000e+01
-1.051976490020751953e+01 -5.896175861358642578e+00 -6.320090293884277344e-01 2.200000000000000000e+01
-1.159469366073607954e+00 -6.495999097824096680e-01 3.068332374095916748e-01 7.700000000000000000e+01
-4.597702407836914062e+01 -2.574837112426758168e+01 -9.198116064071655273e-01 1.400000000000000000e+01
-1.153017163276671919e+00 -6.454563140869140625e-01 3.540644645690917969e-01 6.400000000000000000e+01
-2.358215093612670898e+00 -1.316341996192931907e+00 -7.236580252647399902e-01 1.700000000000000000e+01
-2.748612642288208008e+00 -1.533001303672790971e+00 -7.265918850898742676e-01 1.200000000000000000e+01
-3.302647352218627930e+00 -1.841251015663146973e+00 -7.349962592124938965e-01 1.300000000000000000e+01
-1.197386145591736062e+00 -6.672780513763427734e-01 1.199263036251067976e-01 1.400000000000000000e+01
-4.138213634490966797e+00 -2.305192708969116211e+00 -7.502596974372863770e-01 1.200000000000000000e+01
-1.163748860359191895e+00 -6.480003595352172852e-01 1.635486632585526068e-01 4.700000000000000000e+01
-5.595556735992431641e+00 -3.114446878433227983e+00 -7.863010168075561523e-01 1.000000000000000000e+01
-1.159891724586487038e+00 -6.455874443054199219e-01 2.102479189634323120e-01 7.000000000000000000e+01
-8.163846969604492188e+00 -4.542072772979736328e+00 -8.173465728759765625e-01 1.000000000000000000e+01
-1.152997612953186035e+00 -6.412231922149658203e-01 2.564472854137421209e-01 9.300000000000000000e+01
-1.058741474151610973e+01 -5.885620594024658203e+00 -6.348351240158081055e-01 2.200000000000000000e+01
-1.153212785720824973e+00 -6.408159136772155762e-01 3.045837283134459894e-01 7.200000000000000000e+01
-4.610857772827147727e+01 -2.561102867126464844e+01 -9.206493496894836426e-01 1.400000000000000000e+01
-1.158528804779052956e+00 -6.435053348541259766e-01 3.550997376441956122e-01 6.900000000000000000e+01
-2.357725381851195845e+00 -1.305295109748840110e+00 -7.221051454544067383e-01 1.900000000000000000e+01
-2.762473106384276900e+00 -1.528113961219788042e+00 -7.288414239883422852e-01 1.300000000000000000e+01
-3.303900003433227983e+00 -1.826861381530761941e+00 -7.338513731956481934e-01 1.200000000000000000e+01
-1.189245581626892090e+00 -6.573114991188049316e-01 1.188804358243941983e-01 1.100000000000000000e+01
-4.144505977630615234e+00 -2.289778232574462891e+00 -7.499468326568603516e-01 1.100000000000000000e+01
-1.174692273139954057e+00 -6.487324833869934082e-01 1.647673547267914096e-01 4.100000000000000000e+01
-5.599442481994628906e+00 -3.091058254241942915e+00 -7.853260636329650879e-01 8.000000000000000000e+00
-1.153491258621216042e+00 -6.367613673210144043e-01 2.086835801601409912e-01 7.200000000000000000e+01
-8.225008010864257812e+00 -4.538575172424316406e+00 -8.218786716461181641e-01 9.000000000000000000e+00
-1.167262554168700950e+00 -6.438320279121398926e-01 2.591186165809630793e-01 9.600000000000000000e+01
-1.062888336181640980e+01 -5.860199928283691406e+00 -6.360912322998046875e-01 1.800000000000000000e+01
-1.162269473075866921e+00 -6.405489444732666016e-01 3.063833415508270264e-01 7.200000000000000000e+01
-4.622221755981445312e+01 -2.546343231201171875e+01 -9.211379885673522949e-01 1.400000000000000000e+01
-1.160768032073975053e+00 -6.394573450088500977e-01 3.550997376441956122e-01 6.900000000000000000e+01
-2.353800296783446822e+00 -1.292408227920532005e+00 -7.195169329643249512e-01 2.000000000000000000e+01
-2.764373302459716797e+00 -1.516587138175963911e+00 -7.279416322708129883e-01 1.300000000000000000e+01
-3.305092573165893999e+00 -1.812485575675963911e+00 -7.327065467834472656e-01 1.200000000000000000e+01
-1.170567393302917036e+00 -6.416637897491455078e-01 1.167886927723884999e-01 7.000000000000000000e+00
-4.154206275939941406e+00 -2.276246547698975053e+00 -7.502596974372863770e-01 1.200000000000000000e+01
-1.185654878616333008e+00 -6.493960618972778320e-01 1.659860461950302124e-01 3.400000000000000000e+01
-5.617163181304931641e+00 -3.075306892395019975e+00 -7.863010168075561523e-01 1.000000000000000000e+01
-1.154084563255310059e+00 -6.315810084342956543e-01 2.083707004785537997e-01 7.700000000000000000e+01
-8.280999183654785156e+00 -4.531836032867431641e+00 -8.258877992630004883e-01 1.000000000000000000e+01
-1.160890936851501021e+00 -6.350426077842712402e-01 2.572105228900908869e-01 9.300000000000000000e+01
-1.067205524444580078e+01 -5.835519313812255859e+00 -6.374519467353820801e-01 1.100000000000000000e+01
-1.171338200569153054e+00 -6.402264833450317383e-01 3.081829547882080078e-01 7.400000000000000000e+01
-4.630029296875000000e+01 -2.529617881774901988e+01 -9.209285974502563477e-01 1.400000000000000000e+01
-1.157907128334044966e+00 -6.326228976249694824e-01 3.535468280315399170e-01 6.000000000000000000e+01
-2.363387346267700195e+00 -1.286955714225769043e+00 -7.210698723793029785e-01 1.900000000000000000e+01
-2.774785757064818892e+00 -1.509722590446471946e+00 -7.292913198471069336e-01 1.200000000000000000e+01
-3.307949781417847124e+00 -1.799061536788939986e+00 -7.319433093070983887e-01 1.100000000000000000e+01
-1.269074678421020952e+00 -6.899119615554809570e-01 1.263758242130280096e-01 1.000000000000000000e+00
-4.155183792114257812e+00 -2.257959127426147017e+00 -7.490082383155822754e-01 1.200000000000000000e+01
-1.193147540092468040e+00 -6.480959057807922363e-01 1.667172610759735107e-01 4.100000000000000000e+01
-5.627863883972167969e+00 -3.055680751800537109e+00 -7.863010168075561523e-01 1.000000000000000000e+01
-1.170171380043030007e+00 -6.350867748260498047e-01 2.108736634254456122e-01 6.900000000000000000e+01
-8.356305122375488281e+00 -4.535215377807617188e+00 -8.318144083023071289e-01 9.000000000000000000e+00
-1.157923460006714089e+00 -6.281779408454895020e-01 2.560656666755676270e-01 8.800000000000000000e+01
-1.085213088989257990e+01 -5.884871482849121094e+00 -6.469770669937133789e-01 7.000000000000000000e+00
-1.180418848991394043e+00 -6.398485302925109863e-01 3.099825382232666016e-01 7.100000000000000000e+01
-4.637424468994141336e+01 -2.512678527832030895e+01 -9.206493496894836426e-01 1.400000000000000000e+01
-1.163615465164185014e+00 -6.302147507667541504e-01 3.545821011066436768e-01 6.000000000000000000e+01
-2.369565010070800781e+00 -1.279615998268126997e+00 -7.215874791145324707e-01 1.800000000000000000e+01
-2.766318559646606001e+00 -1.492624521255492942e+00 -7.256920933723449707e-01 1.200000000000000000e+01
-3.324577331542969194e+00 -1.793095469474792036e+00 -7.342330217361450195e-01 1.100000000000000000e+01
-4.166518211364746094e+00 -2.245315313339232954e+00 -7.496339678764343262e-01 1.200000000000000000e+01
-1.195402503013611062e+00 -6.439270973205566406e-01 1.667172610759735107e-01 3.700000000000000000e+01
-5.626260757446289062e+00 -3.029429435729980025e+00 -7.845948338508605957e-01 8.000000000000000000e+00
-1.179338812828063965e+00 -6.347430944442749023e-01 2.121251374483109076e-01 6.600000000000000000e+01
-8.389629364013671875e+00 -4.515461444854736328e+00 -8.335575461387634277e-01 9.000000000000000000e+00
-1.160109162330626997e+00 -6.241322159767150879e-01 2.560656666755676270e-01 7.600000000000000000e+01
-1.100805282592773082e+01 -5.919793128967285156e+00 -6.550368070602416992e-01 1.100000000000000000e+01
-1.174062848091125044e+00 -6.311107873916625977e-01 3.077330291271210272e-01 6.600000000000000000e+01
-4.649337768554688211e+01 -2.498179244995116832e+01 -9.212776422500610352e-01 1.400000000000000000e+01
-1.170804142951965110e+00 -6.290957927703857422e-01 3.561350107192993164e-01 6.200000000000000000e+01
-2.375720262527465820e+00 -1.272248983383178933e+00 -7.221051454544067383e-01 1.900000000000000000e+01
-2.769793748855590820e+00 -1.482039809226989968e+00 -7.252421975135803223e-01 1.100000000000000000e+01
-3.323891401290893999e+00 -1.777775883674622026e+00 -7.327065467834472656e-01 1.100000000000000000e+01
-4.184783458709716797e+00 -2.236343860626221147e+00 -7.515111565589904785e-01 1.200000000000000000e+01
-5.621041297912597656e+00 -3.001356601715087891e+00 -7.824012041091918945e-01 8.000000000000000000e+00
-1.178061962127685991e+00 -6.287623047828674316e-01 2.114993929862976074e-01 5.500000000000000000e+01
-8.412371635437011719e+00 -4.489901065826416016e+00 -8.342547416687011719e-01 9.000000000000000000e+00
-1.174405932426453081e+00 -6.265476346015930176e-01 2.587369978427886963e-01 7.500000000000000000e+01
-1.108504486083984020e+01 -5.911405563354492188e+00 -6.583863496780395508e-01 1.100000000000000000e+01
-1.167660236358643022e+00 -6.224253177642822266e-01 3.054835200309752863e-01 7.100000000000000000e+01
-4.652735519409179688e+01 -2.479113769531250000e+01 -9.202305078506469727e-01 1.400000000000000000e+01
-1.178107738494873047e+00 -6.277303695678710938e-01 3.576879203319550116e-01 7.200000000000000000e+01
-2.381632089614868164e+00 -1.265270113945007102e+00 -7.226227521896362305e-01 1.900000000000000000e+01
-2.778135776519774947e+00 -1.474674105644226074e+00 -7.261419892311096191e-01 1.100000000000000000e+01
-3.324565649032593218e+00 -1.763983130455017090e+00 -7.315616607666015625e-01 1.200000000000000000e+01
-4.185195446014404297e+00 -2.218753337860106978e+00 -7.502596974372863770e-01 1.200000000000000000e+01
-5.652013778686523438e+00 -2.993850231170653853e+00 -7.853260636329650879e-01 8.000000000000000000e+00
-1.178285837173461914e+00 -6.241335868835449219e-01 2.111865282058716098e-01 5.400000000000000000e+01
-8.487081527709960938e+00 -4.493678092956542969e+00 -8.401813507080078125e-01 9.000000000000000000e+00
-1.190358877182007058e+00 -6.299965977668762207e-01 2.617899477481842041e-01 7.500000000000000000e+01
-1.112224102020264027e+01 -5.883953571319580078e+00 -6.594330668449401855e-01 2.300000000000000000e+01
-1.171440601348876953e+00 -6.194607615470886230e-01 3.059334456920623779e-01 6.900000000000000000e+01
-4.652798461914063211e+01 -2.459372520446776988e+01 -9.186248779296875000e-01 1.400000000000000000e+01
-1.178475022315979004e+00 -6.229174137115478516e-01 3.571702837944030762e-01 6.900000000000000000e+01
-2.379197597503662109e+00 -1.253347396850585938e+00 -7.205522060394287109e-01 1.800000000000000000e+01
-2.795337438583374023e+00 -1.471321225166321023e+00 -7.292913198471069336e-01 1.200000000000000000e+01
-3.327227830886840820e+00 -1.750539302825927956e+00 -7.307984232902526855e-01 1.200000000000000000e+01
-4.192914962768554688e+00 -2.204130649566649947e+00 -7.502596974372863770e-01 1.200000000000000000e+01
-5.655400276184082031e+00 -2.970410585403441939e+00 -7.843511104583740234e-01 8.000000000000000000e+00
-1.187561392784119096e+00 -6.234837174415588379e-01 2.124380022287369052e-01 5.100000000000000000e+01
-8.493895530700683594e+00 -4.459394931793212891e+00 -8.393098115921020508e-01 9.000000000000000000e+00
-1.189073920249938965e+00 -6.240130662918090820e-01 2.610267102718353271e-01 6.900000000000000000e+01
-1.115332412719726918e+01 -5.850660324096679688e+00 -6.600610613822937012e-01 2.300000000000000000e+01
-1.173595786094665971e+00 -6.153678894042968750e-01 3.059334456920623779e-01 5.700000000000000000e+01
-4.658520889282227273e+01 -2.441630935668944957e+01 -9.180663824081420898e-01 1.400000000000000000e+01
-1.172194004058837891e+00 -6.141113042831420898e-01 3.545821011066436768e-01 6.500000000000000000e+01
-2.388912677764893022e+00 -1.247301101684570090e+00 -7.221051454544067383e-01 1.900000000000000000e+01
-2.793800354003905806e+00 -1.457460522651671919e+00 -7.274917364120483398e-01 1.300000000000000000e+01
-3.342325687408446822e+00 -1.742871403694153054e+00 -7.327065467834472656e-01 1.200000000000000000e+01
-4.190454006195068359e+00 -2.183271646499633789e+00 -7.483825087547302246e-01 1.200000000000000000e+01
-5.650402069091796875e+00 -2.941413164138793945e+00 -7.821574211120605469e-01 8.000000000000000000e+00
-1.203857421875000000e+00 -6.264214515686035156e-01 2.149409502744674960e-01 3.600000000000000000e+01
-8.543764114379882812e+00 -4.445706844329833984e+00 -8.426217436790466309e-01 8.000000000000000000e+00
-1.189611315727234109e+00 -6.187447905540466309e-01 2.606450915336608887e-01 6.700000000000000000e+01
-1.117469310760498047e+01 -5.809742450714111328e+00 -6.600610613822937012e-01 2.300000000000000000e+01
-1.196593523025512917e+00 -6.218457818031311035e-01 3.113322556018828791e-01 4.300000000000000000e+01
-4.658565902709960938e+01 -2.419931221008301137e+01 -9.163211584091186523e-01 1.400000000000000000e+01
-1.182902336120605025e+00 -6.144685149192810059e-01 3.571702837944030762e-01 5.100000000000000000e+01
-2.398398876190185991e+00 -1.241619110107422097e+00 -7.236580252647399902e-01 1.900000000000000000e+01
-2.788485527038574219e+00 -1.442327737808227983e+00 -7.247923016548156738e-01 1.200000000000000000e+01
-3.351876974105834961e+00 -1.732997179031372070e+00 -7.334697842597961426e-01 1.100000000000000000e+01
-4.196294307708740234e+00 -2.167724370956420898e+00 -7.480695843696594238e-01 1.100000000000000000e+01
-5.676510810852050781e+00 -2.929865837097167969e+00 -7.843511104583740234e-01 8.000000000000000000e+00
-1.223591804504394975e+00 -6.312723755836486816e-01 2.180696427822113037e-01 7.000000000000000000e+00
-8.614119529724121094e+00 -4.444175243377686435e+00 -8.480253815650939941e-01 9.000000000000000000e+00
-1.190019011497498003e+00 -6.136886477470397949e-01 2.602634727954865057e-01 5.700000000000000000e+01
-1.122153377532958984e+01 -5.784426689147949219e+00 -6.616311669349670410e-01 1.900000000000000000e+01
-1.203953742980957031e+00 -6.203428506851196289e-01 3.126819729804993231e-01 3.000000000000000000e+01
-4.666984558105468750e+01 -2.403655052185058949e+01 -9.163211584091186523e-01 1.400000000000000000e+01
-1.188474893569946067e+00 -6.121047735214233398e-01 3.582055568695067804e-01 3.100000000000000000e+01
-2.395843505859375000e+00 -1.229710936546325906e+00 -7.215874791145324707e-01 1.800000000000000000e+01
-2.793503046035767046e+00 -1.432585239410399947e+00 -7.247923016548156738e-01 1.200000000000000000e+01
-3.350917339324951172e+00 -1.717704057693481001e+00 -7.319433093070983887e-01 1.100000000000000000e+01
-4.196803092956542969e+00 -2.149461507797241211e+00 -7.468181252479553223e-01 1.200000000000000000e+01
-5.679635047912597656e+00 -2.906415939331055132e+00 -7.833761572837829590e-01 8.000000000000000000e+00
-8.668603897094726562e+00 -4.434040069580078125e+00 -8.518602252006530762e-01 1.000000000000000000e+01
-1.200893998146056907e+00 -6.139996647834777832e-01 2.621715664863585871e-01 9.000000000000000000e+00
-1.133235836029052912e+01 -5.791575431823729581e+00 -6.669694185256958008e-01 1.500000000000000000e+01
-1.216524362564086914e+00 -6.214556694030761719e-01 3.153813779354094904e-01 7.000000000000000000e+00
-4.657537078857421875e+01 -2.378255653381348012e+01 -9.128306508064270020e-01 1.400000000000000000e+01
-1.214799880981445090e+00 -6.200401186943054199e-01 3.654524981975554865e-01 9.000000000000000000e+00
-2.396677970886230025e+00 -1.219588160514831987e+00 -7.205522060394287109e-01 1.800000000000000000e+01
-2.810646533966064009e+00 -1.429007768630981001e+00 -7.279416322708129883e-01 1.200000000000000000e+01
-3.351642370223999023e+00 -1.703328371047974077e+00 -7.307984232902526855e-01 1.200000000000000000e+01
-4.211325645446777344e+00 -2.138376235961914062e+00 -7.480695843696594238e-01 1.200000000000000000e+01
-5.675582885742188388e+00 -2.879387617111206055e+00 -7.814262509346008301e-01 1.000000000000000000e+01
-8.705352783203125000e+00 -4.414567470550537109e+00 -8.539519906044006348e-01 7.000000000000000000e+00
-1.153601264953612926e+01 -5.844960212707520419e+00 -6.777506470680236816e-01 7.000000000000000000e+00
-4.665810394287108664e+01 -2.361983299255371094e+01 -9.128306508064270020e-01 1.400000000000000000e+01
-1.263497710227966087e+00 -6.393461227416992188e-01 3.794287145137786865e-01 1.000000000000000000e+00
-2.394021272659302202e+00 -1.207734227180480957e+00 -7.184816598892211914e-01 2.000000000000000000e+01
-2.805176496505736861e+00 -1.413925290107727051e+00 -7.252421975135803223e-01 1.100000000000000000e+01
-3.359320878982543945e+00 -1.692501902580261008e+00 -7.311800718307495117e-01 1.100000000000000000e+01
-4.229351043701171875e+00 -2.128992080688477007e+00 -7.499468326568603516e-01 1.100000000000000000e+01
-5.696239948272705078e+00 -2.864910364151000977e+00 -7.828886508941650391e-01 8.000000000000000000e+00
-8.759871482849121094e+00 -4.403841018676757812e+00 -8.577868342399597168e-01 5.000000000000000000e+00
-1.161345767974854049e+01 -5.833343982696533203e+00 -6.811001300811767578e-01 8.000000000000000000e+00
-4.674026870727539062e+01 -2.345682144165039062e+01 -9.128306508064270020e-01 1.400000000000000000e+01
-2.401678085327147993e+00 -1.201098442077636941e+00 -7.195169329643249512e-01 1.900000000000000000e+01
-2.820554256439208984e+00 -1.409351110458374023e+00 -7.279416322708129883e-01 1.100000000000000000e+01
-3.372233867645264116e+00 -1.684274315834044966e+00 -7.327065467834472656e-01 1.200000000000000000e+01
-4.222616672515869141e+00 -2.107159614562987837e+00 -7.474438548088073730e-01 1.100000000000000000e+01
-5.706205844879150391e+00 -2.845009326934814009e+00 -7.828886508941650391e-01 8.000000000000000000e+00
-8.762707710266113281e+00 -4.367015838623046875e+00 -8.565666675567626953e-01 5.000000000000000000e+00
-1.157653713226318004e+01 -5.764282226562500000e+00 -6.777506470680236816e-01 7.000000000000000000e+00
-4.682186126708983664e+01 -2.329352569580078125e+01 -9.128306508064270020e-01 1.400000000000000000e+01
-2.412779569625854048e+00 -1.196139931678771973e+00 -7.215874791145324707e-01 2.000000000000000000e+01
-2.804501533508300781e+00 -1.389117479324341042e+00 -7.225427627563476562e-01 1.200000000000000000e+01
-3.386889696121215820e+00 -1.676848173141479048e+00 -7.346146106719970703e-01 1.000000000000000000e+01
-4.226405143737792969e+00 -2.090655326843262163e+00 -7.468181252479553223e-01 1.200000000000000000e+01
-5.708983421325683594e+00 -2.821555376052856001e+00 -7.819136977195739746e-01 8.000000000000000000e+00
-8.777898788452148438e+00 -4.336401462554931641e+00 -8.565666675567626953e-01 3.000000000000000000e+00
-1.167897224426270064e+01 -5.764501094818115234e+00 -6.825655698776245117e-01 1.600000000000000000e+01
-4.693875503540039062e+01 -2.314763259887694957e+01 -9.135287404060363770e-01 1.400000000000000000e+01
-2.420407772064208984e+00 -1.189414501190185991e+00 -7.226227521896362305e-01 1.800000000000000000e+01
-2.818079710006713867e+00 -1.383613705635071023e+00 -7.247923016548156738e-01 1.200000000000000000e+01
-3.383909940719604048e+00 -1.660690784454345925e+00 -7.327065467834472656e-01 1.100000000000000000e+01
-4.237224102020263672e+00 -2.077629089355469194e+00 -7.474438548088073730e-01 1.200000000000000000e+01
-5.697405815124511719e+00 -2.791130304336547852e+00 -7.789888381958007812e-01 9.000000000000000000e+00
-8.818033218383789062e+00 -4.318001747131347656e+00 -8.590070009231567383e-01 3.000000000000000000e+00
-1.181025409698485973e+01 -5.778118133544921875e+00 -6.890552043914794922e-01 8.000000000000000000e+00
-4.693303680419921875e+01 -2.294149208068848012e+01 -9.118533134460449219e-01 1.400000000000000000e+01
-2.415655374526977983e+00 -1.177150249481200950e+00 -7.200345993041992188e-01 2.100000000000000000e+01
-2.820900201797484907e+00 -1.373407959938049094e+00 -7.243424057960510254e-01 1.200000000000000000e+01
-3.373510599136352983e+00 -1.641728401184082031e+00 -7.292720079421997070e-01 1.100000000000000000e+01
-4.244090557098388672e+00 -2.063566446304320845e+00 -7.474438548088073730e-01 1.100000000000000000e+01
-5.722700119018554688e+00 -2.780028343200684038e+00 -7.811824679374694824e-01 8.000000000000000000e+00
-8.796458244323730469e+00 -4.271330356597900391e+00 -8.555207848548889160e-01 1.000000000000000000e+00
-1.191201019287109020e+01 -5.779023647308349609e+00 -6.938701272010803223e-01 8.000000000000000000e+00
-4.696926879882813211e+01 -2.276654243469237926e+01 -9.110854268074035645e-01 1.400000000000000000e+01
-2.407572746276855025e+00 -1.162829518318176047e+00 -7.164111137390136719e-01 1.900000000000000000e+01
-2.832697629928588867e+00 -1.366940617561340110e+00 -7.261419892311096191e-01 1.200000000000000000e+01
-3.386294126510620117e+00 -1.633354306221008079e+00 -7.307984232902526855e-01 1.000000000000000000e+01
-4.247708797454833984e+00 -2.047024250030518022e+00 -7.468181252479553223e-01 1.100000000000000000e+01
-5.734158039093017578e+00 -2.760896444320679155e+00 -7.814262509346008301e-01 8.000000000000000000e+00
-8.796952247619628906e+00 -4.233686923980712891e+00 -8.541262745857238770e-01 1.000000000000000000e+00
-1.201311016082764027e+01 -5.776355743408203125e+00 -6.985803246498107910e-01 1.600000000000000000e+01
-4.701240158081054688e+01 -2.258513259887694957e+01 -9.103873372077941895e-01 1.400000000000000000e+01
-2.420329570770264116e+00 -1.158589005470276101e+00 -7.189993262290954590e-01 1.900000000000000000e+01
-2.833935737609862837e+00 -1.355362653732300027e+00 -7.252421975135803223e-01 1.200000000000000000e+01
-3.402602434158325195e+00 -1.626604557037353960e+00 -7.330881357192993164e-01 1.200000000000000000e+01
-4.247698307037354404e+00 -2.028779029846190962e+00 -7.455666661262512207e-01 1.200000000000000000e+01
-5.738385677337645596e+00 -2.738299131393433061e+00 -7.806950211524963379e-01 8.000000000000000000e+00
-8.822466850280761719e+00 -4.208100795745849609e+00 -8.551721572875976562e-01 1.000000000000000000e+00
-1.202598762512207031e+01 -5.730949878692626953e+00 -6.981616616249084473e-01 1.200000000000000000e+01
-4.703678894042968750e+01 -2.239510154724121094e+01 -9.093402028083801270e-01 1.400000000000000000e+01
-2.417377471923828125e+00 -1.146821379661560059e+00 -7.169287800788879395e-01 2.000000000000000000e+01
-2.835127592086791992e+00 -1.343792796134948953e+00 -7.243424057960510254e-01 1.200000000000000000e+01
-3.410033941268920898e+00 -1.615557909011841042e+00 -7.334697842597961426e-01 1.100000000000000000e+01
-4.254754543304443359e+00 -2.013939380645751953e+00 -7.455666661262512207e-01 1.200000000000000000e+01
-5.756881713867188388e+00 -2.722494840621947798e+00 -7.819136977195739746e-01 8.000000000000000000e+00
-8.822690963745117188e+00 -4.170466899871826172e+00 -8.537776470184326172e-01 1.000000000000000000e+00
-1.218317413330077947e+01 -5.753757953643798828e+00 -7.061167359352111816e-01 1.600000000000000000e+01
-4.705318450927733664e+01 -2.220176315307616832e+01 -9.081534147262573242e-01 1.400000000000000000e+01
-2.428558349609375000e+00 -1.141240000724792036e+00 -7.189993262290954590e-01 2.000000000000000000e+01
-2.836505889892578125e+00 -1.331736207008362038e+00 -7.234426140785217285e-01 1.200000000000000000e+01
-3.408823251724243164e+00 -1.599712371826172097e+00 -7.319433093070983887e-01 1.200000000000000000e+01
-4.262107372283936435e+00 -1.998331427574157937e+00 -7.455666661262512207e-01 1.100000000000000000e+01
-5.738059520721436435e+00 -2.687903404235839844e+00 -7.780138850212097168e-01 9.000000000000000000e+00
-8.877614021301269531e+00 -4.156689167022705078e+00 -8.576124906539916992e-01 1.000000000000000000e+00
-1.224398136138916016e+01 -5.727684020996093750e+00 -7.084195017814636230e-01 1.600000000000000000e+01
-4.705091094970703125e+01 -2.199020767211914062e+01 -9.065477848052978516e-01 1.400000000000000000e+01
-2.429024696350098100e+00 -1.131124734878540039e+00 -7.179640531539916992e-01 2.000000000000000000e+01
-2.846437931060791016e+00 -1.324292898178101030e+00 -7.247923016548156738e-01 1.200000000000000000e+01
-3.400145053863524947e+00 -1.581180930137634055e+00 -7.288903594017028809e-01 1.200000000000000000e+01
-4.272639751434326172e+00 -1.985106348991394043e+00 -7.461923956871032715e-01 1.100000000000000000e+01
-5.751008033752441406e+00 -2.669528961181641069e+00 -7.785013914108276367e-01 9.000000000000000000e+00
-8.823390960693359375e+00 -4.093810081481933594e+00 -8.509886860847473145e-01 1.000000000000000000e+00
-1.238168239593506037e+01 -5.739507675170898438e+00 -7.152231931686401367e-01 8.000000000000000000e+00
-4.706931686401367188e+01 -2.179894447326660156e+01 -9.054308533668518066e-01 1.400000000000000000e+01
-2.427695751190185991e+00 -1.120210766792296919e+00 -7.164111137390136719e-01 2.100000000000000000e+01
-2.856352329254149947e+00 -1.316796422004699929e+00 -7.261419892311096191e-01 1.100000000000000000e+01
-3.412775754928588867e+00 -1.572589039802551047e+00 -7.304168343544006348e-01 1.200000000000000000e+01
-4.272365570068359375e+00 -1.966875672340393066e+00 -7.449409365653991699e-01 1.200000000000000000e+01
-5.760291576385498047e+00 -2.649438142776488814e+00 -7.785013914108276367e-01 9.000000000000000000e+00
-8.808663368225097656e+00 -4.049670219421386719e+00 -8.481996655464172363e-01 1.000000000000000000e+00
-1.250327968597411932e+01 -5.742936134338378906e+00 -7.210848331451416016e-01 8.000000000000000000e+00
-4.709059906005858664e+01 -2.160948753356933949e+01 -9.043837189674377441e-01 1.400000000000000000e+01
-2.431591272354125977e+00 -1.111729741096497026e+00 -7.164111137390136719e-01 2.100000000000000000e+01
-4.851948547363281250e+01 -2.217299461364746094e+01 9.311556816101074219e-01 6.300000000000000000e+01
-2.857386350631713867e+00 -1.305198550224303977e+00 -7.252421975135803223e-01 1.200000000000000000e+01
-3.420030355453491211e+00 -1.561482071876526101e+00 -7.307984232902526855e-01 1.200000000000000000e+01
-4.268421649932861328e+00 -1.947031617164612038e+00 -7.430636882781982422e-01 1.100000000000000000e+01
-5.773117542266845703e+00 -2.630961179733275923e+00 -7.789888381958007812e-01 9.000000000000000000e+00
-8.822746276855468750e+00 -4.018897533416748047e+00 -8.481996655464172363e-01 1.000000000000000000e+00
-1.257051467895507990e+01 -5.720766544342041016e+00 -7.238062620162963867e-01 4.000000000000000000e+00
-4.708928680419921875e+01 -2.141021728515625000e+01 -9.029176831245422363e-01 1.400000000000000000e+01
-2.440543174743651900e+00 -1.106052517890929954e+00 -7.179640531539916992e-01 1.900000000000000000e+01
-2.843946218490601030e+00 -1.287678003311157005e+00 -7.207431793212890625e-01 1.300000000000000000e+01
-3.426978111267089844e+00 -1.550941705703734907e+00 -7.311800718307495117e-01 1.200000000000000000e+01
-4.285654544830322266e+00 -1.937749266624450906e+00 -7.449409365653991699e-01 1.100000000000000000e+01
-5.770955562591552734e+00 -2.606899023056029829e+00 -7.775264382362365723e-01 9.000000000000000000e+00
-8.857814788818359375e+00 -3.999456882476807085e+00 -8.502914309501647949e-01 1.000000000000000000e+00
-1.260216045379639027e+01 -5.684798717498779297e+00 -7.245389819145202637e-01 1.200000000000000000e+01
-4.705793380737304688e+01 -2.120793342590332031e+01 -9.009630084037780762e-01 1.400000000000000000e+01
-2.444389343261719194e+00 -1.097526669502258079e+00 -7.179640531539916992e-01 2.000000000000000000e+01
-2.855535984039307085e+00 -1.280933260917664018e+00 -7.225427627563476562e-01 1.100000000000000000e+01
-3.425205469131470171e+00 -1.535756945610045943e+00 -7.296535968780517578e-01 1.100000000000000000e+01
-4.288786888122558594e+00 -1.921162605285644975e+00 -7.443152070045471191e-01 1.100000000000000000e+01
-5.774584770202636719e+00 -2.584306240081787109e+00 -7.767952084541320801e-01 9.000000000000000000e+00
-8.857172012329101562e+00 -3.962004423141479048e+00 -8.488969206809997559e-01 1.000000000000000000e+00
-1.265292549133300959e+01 -5.654627799987792969e+00 -7.263184189796447754e-01 1.200000000000000000e+01
-4.720471572875977273e+01 -2.107615280151366832e+01 -9.023592472076416016e-01 1.400000000000000000e+01
-2.446440458297729048e+00 -1.088202357292175071e+00 -7.174463868141174316e-01 2.100000000000000000e+01
-2.863551616668701172e+00 -1.272540569305419922e+00 -7.234426140785217285e-01 1.200000000000000000e+01
-3.414397478103638139e+00 -1.516618728637695090e+00 -7.262190580368041992e-01 1.200000000000000000e+01
-4.295466899871826172e+00 -1.906180262565613015e+00 -7.443152070045471191e-01 1.200000000000000000e+01
-5.776311397552490234e+00 -2.560914993286132812e+00 -7.758202552795410156e-01 9.000000000000000000e+00
-8.856375694274902344e+00 -3.924605369567871094e+00 -8.475024700164794922e-01 1.000000000000000000e+00
-1.273833370208740057e+01 -5.639533519744873047e+00 -7.300865650177001953e-01 1.200000000000000000e+01
-4.714266586303710938e+01 -2.085139083862305043e+01 -8.997762799263000488e-01 1.400000000000000000e+01
-5.142123031616210938e+01 -2.274381828308105113e+01 1.506585693359375000e+01 1.900000000000000000e+01
-2.437849044799805132e+00 -1.074203252792357954e+00 -7.138229012489318848e-01 2.000000000000000000e+01
-2.871543169021606001e+00 -1.264107465744018999e+00 -7.243424057960510254e-01 1.100000000000000000e+01
-3.425061464309691939e+00 -1.507063150405884011e+00 -7.273638844490051270e-01 1.100000000000000000e+01
-4.287627696990966797e+00 -1.884815096855164018e+00 -7.418122291564941406e-01 1.200000000000000000e+01
-5.777945518493652344e+00 -2.537543535232543945e+00 -7.748453021049499512e-01 1.100000000000000000e+01
-8.862723350524902344e+00 -3.890463590621947798e+00 -8.468052148818969727e-01 1.000000000000000000e+00
-1.279635238647460938e+01 -5.611879348754882812e+00 -7.322847247123718262e-01 1.200000000000000000e+01
-5.157502746582031250e+01 -2.258619499206542969e+01 1.508656215667724965e+01 1.900000000000000000e+01
-2.443354368209838867e+00 -1.066459774971008079e+00 -7.143405675888061523e-01 1.900000000000000000e+01
-2.872365713119506836e+00 -1.252518415451050027e+00 -7.234426140785217285e-01 1.100000000000000000e+01
-3.444699287414550781e+00 -1.501373648643494096e+00 -7.304168343544006348e-01 1.200000000000000000e+01
-4.297802925109863281e+00 -1.871414303779602051e+00 -7.424379587173461914e-01 1.200000000000000000e+01
-5.792228698730468750e+00 -2.519734859466553178e+00 -7.755764722824096680e-01 1.100000000000000000e+01
-8.872595787048339844e+00 -3.857914447784423828e+00 -8.464565873146057129e-01 1.000000000000000000e+00
-1.290562629699707031e+01 -5.606170177459716797e+00 -7.374136447906494141e-01 1.200000000000000000e+01
-5.268710327148438211e+01 -2.287620925903319957e+01 1.326086425781250000e+01 1.900000000000000000e+01
-4.728708648681641336e+01 -2.052176856994628906e+01 -8.997762799263000488e-01 1.400000000000000000e+01
-2.457701683044434038e+00 -1.062524080276489036e+00 -7.174463868141174316e-01 1.900000000000000000e+01
-2.871353149414062944e+00 -1.240166306495666948e+00 -7.220928668975830078e-01 1.300000000000000000e+01
-3.442709207534790039e+00 -1.486227631568908913e+00 -7.288903594017028809e-01 1.200000000000000000e+01
-4.295239925384520596e+00 -1.852489233016967995e+00 -7.408736348152160645e-01 1.200000000000000000e+01
-5.033282852172852273e+01 -2.169757080078125000e+01 6.729868888854979581e+00 5.800000000000000000e+01
-5.795519828796386719e+00 -2.497144222259521040e+00 -7.748453021049499512e-01 9.000000000000000000e+00
-8.853070259094238281e+00 -3.812734365463256836e+00 -8.433189392089843750e-01 1.000000000000000000e+00
-1.291594314575194957e+01 -5.557139873504638672e+00 -7.368902564048767090e-01 1.200000000000000000e+01
-4.731066513061522727e+01 -2.033604812622069957e+01 -8.988687396049499512e-01 1.400000000000000000e+01
-2.466723203659058061e+00 -1.056219816207885964e+00 -7.189993262290954590e-01 1.900000000000000000e+01
-2.872081279754639116e+00 -1.228602886199950950e+00 -7.211930751800537109e-01 1.200000000000000000e+01
-3.433434724807738814e+00 -1.468026638031006081e+00 -7.258374094963073730e-01 1.200000000000000000e+01
-4.308946609497070312e+00 -1.840588688850403054e+00 -7.421250939369201660e-01 1.200000000000000000e+01
-5.795072078704833984e+00 -2.473003149032593218e+00 -7.736265659332275391e-01 1.100000000000000000e+01
-8.891982078552246094e+00 -3.792751789093018022e+00 -8.457593321800231934e-01 1.000000000000000000e+00
-1.294444942474365057e+01 -5.515935897827148438e+00 -7.374136447906494141e-01 2.100000000000000000e+01
-5.284552383422852273e+01 -2.250782966613769887e+01 1.326086425781250000e+01 1.900000000000000000e+01
-5.090901565551757812e+01 -2.167254066467285156e+01 1.482567214965819957e+01 1.900000000000000000e+01
-2.466838121414185014e+00 -1.046094536781311035e+00 -7.179640531539916992e-01 1.800000000000000000e+01
-2.879941225051879883e+00 -1.220090389251708984e+00 -7.220928668975830078e-01 1.200000000000000000e+01
-3.433114528656005859e+00 -1.453736186027527078e+00 -7.246925830841064453e-01 1.200000000000000000e+01
-4.320803165435791016e+00 -1.827845215797424094e+00 -7.430636882781982422e-01 1.100000000000000000e+01
-5.803668975830078125e+00 -2.452759504318236861e+00 -7.736265659332275391e-01 1.100000000000000000e+01
-8.883142471313476562e+00 -3.752386331558227983e+00 -8.436675667762756348e-01 1.000000000000000000e+00
-1.303354930877686080e+01 -5.500226020812988281e+00 -7.413911819458007812e-01 1.700000000000000000e+01
-2.461568832397460938e+00 -1.033737301826477051e+00 -7.153758406639099121e-01 1.400000000000000000e+01
-2.882385492324829102e+00 -1.209276199340820090e+00 -7.216429710388183594e-01 1.100000000000000000e+01
-3.447220802307128906e+00 -1.445539593696594016e+00 -7.266006469726562500e-01 1.100000000000000000e+01
