-3.114214658737183061e+00 8.215500831604003906e+00 -4.604517519474030096e-01 1.000000000000000000e+00
-5.812477111816406250e+00 1.534985637664794922e+01 -2.864986956119536798e-01 2.000000000000000000e+00
-8.039773702621459961e-01 2.131038188934326172e+00 -6.102952957153320312e-01 2.100000000000000000e+01
-9.195265173912048340e-01 2.439893484115601030e+00 -6.019690036773681641e-01 1.300000000000000000e+01
-1.076810240745543990e+00 2.858745813369750977e+00 -5.937975645065307617e-01 1.100000000000000000e+01
-1.286980628967284934e+00 3.420330762863159180e+00 -5.788075327873229980e-01 1.000000000000000000e+01
-1.609201550483704057e+00 4.281211376190186435e+00 -5.615739226341247559e-01 1.000000000000000000e+01
-2.097135305404663086e+00 5.582296371459960938e+00 -5.217142701148986816e-01 1.100000000000000000e+01
-3.085550546646118164e+00 8.222043037414550781e+00 -4.602423906326293945e-01 1.000000000000000000e+00
-5.758735179901123047e+00 1.536155700683593928e+01 -2.863590717315673828e-01 2.000000000000000000e+00
-7.965337634086608887e-01 2.133831739425659180e+00 -6.102952957153320312e-01 2.100000000000000000e+01
-9.069188833236694336e-01 2.432132720947266069e+00 -5.992696285247802734e-01 1.100000000000000000e+01
-1.063396692276000977e+00 2.853289127349853960e+00 -5.918895006179809570e-01 1.000000000000000000e+01
-1.274344325065613015e+00 3.422951221466064009e+00 -5.784946680068969727e-01 1.000000000000000000e+01
-1.589403867721558061e+00 4.273777961730957031e+00 -5.598677396774291992e-01 1.100000000000000000e+01
-2.073471784591674805e+00 5.578377246856688565e+00 -5.206683874130249023e-01 1.100000000000000000e+01
-3.048488855361938032e+00 8.210294723510742188e+00 -4.589863419532775879e-01 1.000000000000000000e+00
-5.693952083587645596e+00 1.535156726837158025e+01 -2.858006060123444159e-01 2.000000000000000000e+00
-7.910882830619812012e-01 2.142035722732543945e+00 -6.118482351303100586e-01 2.000000000000000000e+01
-9.024705886840820312e-01 2.446253538131713867e+00 -6.019690036773681641e-01 1.200000000000000000e+01
-1.052072048187256081e+00 2.853299617767333984e+00 -5.911262631416320801e-01 1.000000000000000000e+01
-1.261705517768860085e+00 3.425524950027465820e+00 -5.781818032264709473e-01 1.000000000000000000e+01
-1.571048617362976074e+00 4.269985198974609375e+00 -5.586490631103515625e-01 1.000000000000000000e+01
-2.053987026214600053e+00 5.585581302642822266e+00 -5.206683874130249023e-01 9.000000000000000000e+00
-3.014301776885985884e+00 8.205887794494628906e+00 -4.581489562988281250e-01 1.000000000000000000e+00
-5.640330314636229581e+00 1.537134933471680043e+01 -2.858006060123444159e-01 2.000000000000000000e+00
-7.822804450988769531e-01 2.141155004501343218e+00 -6.108129620552062988e-01 1.900000000000000000e+01
-8.945941329002380371e-01 2.451219558715819868e+00 -6.024188995361328125e-01 1.300000000000000000e+01
-1.039414763450623003e+00 2.849576950073242188e+00 -5.895997881889343262e-01 1.000000000000000000e+01
-1.253121852874756081e+00 3.439188241958618164e+00 -5.797461271286010742e-01 1.000000000000000000e+01
-1.557491898536681907e+00 4.279173851013183594e+00 -5.591365694999694824e-01 1.000000000000000000e+01
-2.028347253799438032e+00 5.575865745544433594e+00 -5.190995931625366211e-01 9.000000000000000000e+00
-2.981546640396118164e+00 8.205097198486328125e+00 -4.575209319591522217e-01 1.000000000000000000e+00
-5.572993755340576172e+00 1.535334968566895064e+01 -2.851025164127349854e-01 2.000000000000000000e+00
-7.708619832992553711e-01 2.132971525192261186e+00 -6.077071428298950195e-01 2.000000000000000000e+01
-8.853706121444702148e-01 2.452494382858275923e+00 -6.019690036773681641e-01 1.100000000000000000e+01
-1.029461503028870073e+00 2.853187799453734907e+00 -5.895997881889343262e-01 1.100000000000000000e+01
-1.238430142402648926e+00 3.436108112335205078e+00 -5.784946680068969727e-01 1.000000000000000000e+01
-1.542545318603516069e+00 4.284584522247313565e+00 -5.591365694999694824e-01 1.000000000000000000e+01
-2.005498647689818892e+00 5.573538303375244141e+00 -5.182280540466308594e-01 9.000000000000000000e+00
-2.956940889358520952e+00 8.226732254028320312e+00 -4.581489562988281250e-01 1.000000000000000000e+00
-5.519366741180419922e+00 1.537270927429199041e+01 -2.851025164127349854e-01 2.000000000000000000e+00
-7.647123932838439941e-01 2.139287710189818892e+00 -6.087424159049987793e-01 2.000000000000000000e+01
-8.768044114112854004e-01 2.455569744110106978e+00 -6.019690036773681641e-01 1.200000000000000000e+01
-1.023454904556273970e+00 2.867858171463013139e+00 -5.918895006179809570e-01 1.100000000000000000e+01
-1.222448587417602983e+00 3.429245948791503906e+00 -5.766174197196960449e-01 1.100000000000000000e+01
-1.533573031425476074e+00 4.306773662567138672e+00 -5.613301992416381836e-01 8.000000000000000000e+00
-1.984027028083801047e+00 5.574873924255371094e+00 -5.177050828933715820e-01 9.000000000000000000e+00
-2.928206205368041992e+00 8.237003326416015625e+00 -4.581489562988281250e-01 1.000000000000000000e+00
-5.441582679748535156e+00 1.532404327392577947e+01 -2.838459312915802002e-01 2.000000000000000000e+00
-7.601909637451171875e-01 2.149096727371215820e+00 -6.108129620552062988e-01 1.900000000000000000e+01
-8.660597801208496094e-01 2.451114177703856978e+00 -6.001694202423095703e-01 1.200000000000000000e+01
-1.014592885971068892e+00 2.873087644577025923e+00 -5.922711491584777832e-01 1.100000000000000000e+01
-1.211727142333983931e+00 3.435143709182738814e+00 -5.769302845001220703e-01 9.000000000000000000e+00
-1.512685894966125044e+00 4.293112754821777344e+00 -5.588927865028381348e-01 1.000000000000000000e+01
-1.973470687866210938e+00 5.603973865509033203e+00 -5.197968482971191406e-01 9.000000000000000000e+00
-2.888945579528809038e+00 8.212754249572753906e+00 -4.562648534774780273e-01 1.000000000000000000e+00
-5.414600849151611328e+00 1.540992259979248047e+01 -2.851025164127349854e-01 2.000000000000000000e+00
-7.539603114128112793e-01 2.155384302139281782e+00 -6.118482351303100586e-01 1.900000000000000000e+01
-8.562129139900207520e-01 2.450443029403686968e+00 -5.992696285247802734e-01 1.200000000000000000e+01
-1.001321434974669966e+00 2.867344141006470171e+00 -5.903630256652832031e-01 1.100000000000000000e+01
-1.203632593154907005e+00 3.450543403625487837e+00 -5.788075327873229980e-01 9.000000000000000000e+00
-1.498997211456299050e+00 4.302115917205811435e+00 -5.593802928924560547e-01 8.000000000000000000e+00
-1.949965715408324973e+00 5.599538803100585938e+00 -5.187509655952453613e-01 9.000000000000000000e+00
-2.857635498046875000e+00 8.215243339538574219e+00 -4.558461904525756836e-01 1.000000000000000000e+00
-5.327961444854736328e+00 1.533428287506104049e+01 -2.833572626113892157e-01 2.000000000000000000e+00
-7.476950287818908691e-01 2.161654472351074219e+00 -6.128835082054138184e-01 2.000000000000000000e+01
-8.514723181724548340e-01 2.464468240737915039e+00 -6.019690036773681641e-01 1.300000000000000000e+01
-9.906656146049499512e-01 2.868966341018677202e+00 -5.899814367294311523e-01 1.100000000000000000e+01
-1.191580533981323020e+00 3.454723834991455078e+00 -5.788075327873229980e-01 9.000000000000000000e+00
-1.485264182090759055e+00 4.311075687408447266e+00 -5.598677396774291992e-01 1.000000000000000000e+01
-1.927164554595947044e+00 5.596892356872558594e+00 -5.178794264793395996e-01 6.000000000000000000e+00
-2.838035583496094194e+00 8.251609802246093750e+00 -4.573116004467009943e-01 1.000000000000000000e+00
-5.254910945892333984e+00 1.529605102539063033e+01 -2.823101282119750977e-01 2.000000000000000000e+00
-7.332685589790344238e-01 2.144144058227539062e+00 -6.071894764900207520e-01 1.900000000000000000e+01
-8.428645133972167969e-01 2.467425584793090820e+00 -6.019690036773681641e-01 1.600000000000000000e+01
-9.800107479095458984e-01 2.870548963546752930e+00 -5.895997881889343262e-01 1.000000000000000000e+01
-1.183339476585387962e+00 3.470080137252808061e+00 -5.806847214698791504e-01 9.000000000000000000e+00
-1.470846652984618919e+00 4.318113327026367188e+00 -5.601115226745605469e-01 8.000000000000000000e+00
-1.903763532638550027e+00 5.592268466949462891e+00 -5.168335437774658203e-01 6.000000000000000000e+00
-2.802784919738769975e+00 8.242556571960449219e+00 -4.562648534774780273e-01 1.000000000000000000e+00
-5.198913574218750000e+00 1.530672740936278942e+01 -2.821705043315886896e-01 2.000000000000000000e+00
-7.276358604431152344e-01 2.152180910110474077e+00 -6.087424159049987793e-01 2.000000000000000000e+01
-8.336229920387268066e-01 2.468506336212158203e+00 -6.015191078186035156e-01 1.500000000000000000e+01
-9.756350517272949219e-01 2.890693664550780806e+00 -5.930343866348266602e-01 1.100000000000000000e+01
-1.166171073913573997e+00 3.459214687347412109e+00 -5.781818032264709473e-01 9.000000000000000000e+00
-1.451963782310486062e+00 4.311933040618895596e+00 -5.586490631103515625e-01 8.000000000000000000e+00
-1.888044238090514915e+00 5.610209941864013672e+00 -5.178794264793395996e-01 8.000000000000000000e+00
-2.773996114730834961e+00 8.252289772033691406e+00 -4.562648534774780273e-01 1.000000000000000000e+00
-5.160727024078369141e+00 1.537027835845947088e+01 -2.830082178115844727e-01 2.000000000000000000e+00
-7.207312583923339844e-01 2.156539916992187944e+00 -6.092600226402282715e-01 1.900000000000000000e+01
-8.200647830963134766e-01 2.456613540649414062e+00 -5.979198813438415527e-01 1.500000000000000000e+01
-9.642960429191589355e-01 2.890357017517089844e+00 -5.922711491584777832e-01 1.100000000000000000e+01
-1.152840137481689009e+00 3.459516286849976030e+00 -5.775560736656188965e-01 9.000000000000000000e+00
-1.434395790100098100e+00 4.309441089630126953e+00 -5.576741099357604980e-01 1.000000000000000000e+01
-1.870336055755615012e+00 5.622437953948974609e+00 -5.184023380279541016e-01 8.000000000000000000e+00
-2.741394519805908203e+00 8.250550270080566406e+00 -4.556368291378021240e-01 1.000000000000000000e+00
-5.081848144531250000e+00 1.531228256225585938e+01 -2.816120386123657227e-01 2.000000000000000000e+00
-7.153947353363037109e-01 2.164420843124390093e+00 -6.108129620552062988e-01 1.700000000000000000e+01
-8.131356835365295410e-01 2.463020324707030806e+00 -5.988197326660156250e-01 1.500000000000000000e+01
-9.534757137298583984e-01 2.889810085296630859e+00 -5.915079116821289062e-01 1.100000000000000000e+01
-1.138888478279113992e+00 3.455815792083739790e+00 -5.763045549392700195e-01 9.000000000000000000e+00
-1.419476509094238059e+00 4.312288761138916016e+00 -5.574303865432739258e-01 1.000000000000000000e+01
-1.859152555465698020e+00 5.651320457458496094e+00 -5.204941034317016602e-01 9.000000000000000000e+00
-2.714019775390625000e+00 8.259595870971679688e+00 -4.556368291378021240e-01 1.000000000000000000e+00
-5.031043052673339844e+00 1.532905101776123047e+01 -2.816120386123657227e-01 2.000000000000000000e+00
-7.054356932640075684e-01 2.159559488296508789e+00 -6.087424159049987793e-01 1.600000000000000000e+01
-8.051376342773437500e-01 2.467696428298950195e+00 -5.992696285247802734e-01 1.400000000000000000e+01
-9.409480690956115723e-01 2.885654687881470171e+00 -5.899814367294311523e-01 1.300000000000000000e+01
-1.131712317466736062e+00 3.474796295166016069e+00 -5.788075327873229980e-01 9.000000000000000000e+00
-1.406871557235717995e+00 4.324768066406250000e+00 -5.584053397178649902e-01 1.000000000000000000e+01
-1.830790281295775923e+00 5.631248950958251953e+00 -5.180537104606628418e-01 9.000000000000000000e+00
-2.675302028656005859e+00 8.238625526428222656e+00 -4.539620876312255859e-01 1.000000000000000000e+00
-4.989842891693115234e+00 1.538456153869629084e+01 -2.823101282119750977e-01 2.000000000000000000e+00
-6.955193281173706055e-01 2.154654979705810991e+00 -6.066718697547912598e-01 1.700000000000000000e+01
-7.983128428459167480e-01 2.476055860519409180e+00 -6.006193161010742188e-01 1.200000000000000000e+01
-9.296652674674987793e-01 2.885184288024901900e+00 -5.892181992530822754e-01 1.100000000000000000e+01
-1.118365764617919922e+00 3.474964618682860884e+00 -5.781818032264709473e-01 9.000000000000000000e+00
-1.391159296035767046e+00 4.327763080596923828e+00 -5.581616163253784180e-01 1.000000000000000000e+01
-1.811731815338134988e+00 5.639502048492431641e+00 -5.182280540466308594e-01 9.000000000000000000e+00
-2.657511711120605025e+00 8.282145500183105469e+00 -4.558461904525756836e-01 1.000000000000000000e+00
-4.943433761596679688e+00 1.542473697662354049e+01 -2.827289700508118231e-01 2.000000000000000000e+00
-6.885809898376464844e-01 2.158910274505614790e+00 -6.071894764900207520e-01 1.600000000000000000e+01
-7.908478975296020508e-01 2.482541084289550781e+00 -6.015191078186035156e-01 1.300000000000000000e+01
-9.183972477912902832e-01 2.884670495986938032e+00 -5.884549617767333984e-01 1.200000000000000000e+01
-1.102637410163878950e+00 3.467552423477172852e+00 -5.763045549392700195e-01 9.000000000000000000e+00
-1.380250334739685059e+00 4.345836162567138672e+00 -5.598677396774291992e-01 1.000000000000000000e+01
-1.787213087081908958e+00 5.630599498748779297e+00 -5.168335437774658203e-01 9.000000000000000000e+00
-2.622549533843994141e+00 8.272333145141601562e+00 -4.547994732856749933e-01 1.000000000000000000e+00
-4.882317543029785156e+00 1.541902256011963068e+01 -2.823101282119750977e-01 2.000000000000000000e+00
-6.839437484741210938e-01 2.170513391494750977e+00 -6.097776889801025391e-01 1.700000000000000000e+01
-7.769122123718261719e-01 2.468556880950928178e+00 -5.974699854850769043e-01 1.100000000000000000e+01
-9.100894331932067871e-01 2.893476963043212891e+00 -5.895997881889343262e-01 1.200000000000000000e+01
-1.088158607482909934e+00 3.463841915130614790e+00 -5.750530958175659180e-01 1.000000000000000000e+01
-1.365072131156920943e+00 4.350627899169921875e+00 -5.598677396774291992e-01 1.000000000000000000e+01
-1.772316813468933105e+00 5.652012825012207031e+00 -5.182280540466308594e-01 9.000000000000000000e+00
-2.582912921905518022e+00 8.247129440307617188e+00 -4.529153704643250067e-01 1.000000000000000000e+00
-4.816525459289550781e+00 1.539780044555664062e+01 -2.816120386123657227e-01 2.000000000000000000e+00
-6.775113940238952637e-01 2.176576614379882812e+00 -6.108129620552062988e-01 1.700000000000000000e+01
-7.700262069702148438e-01 2.476836442947388139e+00 -5.988197326660156250e-01 1.200000000000000000e+01
-9.005662798881530762e-01 2.898510932922362837e+00 -5.899814367294311523e-01 1.100000000000000000e+01
-1.078402638435363992e+00 3.475165605545043945e+00 -5.763045549392700195e-01 9.000000000000000000e+00
-1.342825174331665039e+00 4.332612991333007812e+00 -5.569428801536560059e-01 1.000000000000000000e+01
-1.763777256011962891e+00 5.694325447082520419e+00 -5.215399861335754395e-01 8.000000000000000000e+00
-2.560012102127075195e+00 8.275176048278808594e+00 -4.539620876312255859e-01 1.000000000000000000e+00
-6.665033102035522461e-01 2.167849063873291016e+00 -6.077071428298950195e-01 1.800000000000000000e+01
-7.636638283729553223e-01 2.486960887908935991e+00 -6.006193161010742188e-01 1.300000000000000000e+01
-8.869873285293579102e-01 2.890375852584838867e+00 -5.876917243003845215e-01 1.100000000000000000e+01
-1.068580985069274902e+00 3.486463546752930132e+00 -5.775560736656188965e-01 1.000000000000000000e+01
-1.327693343162537065e+00 4.337274074554443359e+00 -5.569428801536560059e-01 1.000000000000000000e+01
-1.731649756431580034e+00 5.660437583923339844e+00 -5.178794264793395996e-01 9.000000000000000000e+00
-2.525274753570557085e+00 8.264960289001464844e+00 -4.529153704643250067e-01 1.000000000000000000e+00
-4.708912372589111328e+00 1.543105125427245916e+01 -2.816120386123657227e-01 2.000000000000000000e+00
-6.578094959259033203e-01 2.166465282440185991e+00 -6.066718697547912598e-01 1.700000000000000000e+01
-7.555435895919799805e-01 2.491476297378540039e+00 -6.010692119598388672e-01 1.200000000000000000e+01
-8.780314326286315918e-01 2.897212028503417969e+00 -5.884549617767333984e-01 1.100000000000000000e+01
-1.055259823799133079e+00 3.486391067504882812e+00 -5.769302845001220703e-01 9.000000000000000000e+00
-1.313694238662719949e+00 4.345682144165039062e+00 -5.574303865432739258e-01 1.000000000000000000e+01
-1.711880564689636008e+00 5.666447639465332031e+00 -5.178794264793395996e-01 6.000000000000000000e+00
-2.496409177780150923e+00 8.273724555969238281e+00 -4.529153704643250067e-01 1.000000000000000000e+00
-4.606553554534912109e+00 1.528656387329101918e+01 -2.786800265312194824e-01 2.000000000000000000e+00
-6.528421640396118164e-01 2.176036357879639116e+00 -6.087424159049987793e-01 1.800000000000000000e+01
-7.439213991165161133e-01 2.482767581939696822e+00 -5.983697772026062012e-01 1.100000000000000000e+01
-8.717981576919555664e-01 2.911392211914062944e+00 -5.907446742057800293e-01 1.100000000000000000e+01
-1.038032889366149902e+00 3.470945596694945845e+00 -5.738016366958618164e-01 9.000000000000000000e+00
-1.297571897506714089e+00 4.344308376312255859e+00 -5.566991567611694336e-01 1.100000000000000000e+01
-1.689091563224792036e+00 5.658729076385498047e+00 -5.166592597961425781e-01 8.000000000000000000e+00
-2.460970640182495117e+00 8.255161285400390625e+00 -4.514499604701995850e-01 1.000000000000000000e+00
-4.547847270965576172e+00 1.527492332458495916e+01 -2.781913578510283869e-01 2.000000000000000000e+00
-6.441450715065002441e-01 2.174597263336182085e+00 -6.077071428298950195e-01 1.800000000000000000e+01
-7.324863076210021973e-01 2.476005792617797852e+00 -5.961202979087829590e-01 1.200000000000000000e+01
-8.610736131668090820e-01 2.912534952163695845e+00 -5.903630256652832031e-01 1.000000000000000000e+01
-1.027029395103455034e+00 3.478336811065673828e+00 -5.744273662567138672e-01 9.000000000000000000e+00
-1.278469204902648926e+00 4.335483074188232422e+00 -5.549929738044738770e-01 1.100000000000000000e+01
-1.671581387519835982e+00 5.672235488891601562e+00 -5.173565149307250977e-01 6.000000000000000000e+00
-2.431011915206909180e+00 8.259869575500488281e+00 -4.512406289577484131e-01 1.000000000000000000e+00
-4.494500160217285156e+00 1.529070568084716975e+01 -2.781913578510283869e-01 2.000000000000000000e+00
-6.376347541809082031e-01 2.180540800094604048e+00 -6.087424159049987793e-01 1.600000000000000000e+01
-7.265704274177551270e-01 2.487900495529174805e+00 -5.983697772026062012e-01 1.200000000000000000e+01
-8.492516279220581055e-01 2.909868955612183061e+00 -5.892181992530822754e-01 1.100000000000000000e+01
-1.015987038612365945e+00 3.485693693161011186e+00 -5.750530958175659180e-01 9.000000000000000000e+00
-1.262218117713928001e+00 4.336107730865479404e+00 -5.545055270195007324e-01 1.000000000000000000e+01
-1.652884483337401900e+00 5.681861877441406250e+00 -5.177050828933715820e-01 6.000000000000000000e+00
-2.397706985473632812e+00 8.252961158752441406e+00 -4.504032433032990057e-01 1.000000000000000000e+00
-4.441098213195800781e+00 1.530630111694335938e+01 -2.781913578510283869e-01 2.000000000000000000e+00
-6.310908198356628418e-01 2.186465501785277876e+00 -6.097776889801025391e-01 1.500000000000000000e+01
-7.146430611610412598e-01 2.479186534881591797e+00 -5.956704020500183105e-01 1.100000000000000000e+01
-8.369153141975402832e-01 2.905269622802733931e+00 -5.876917243003845215e-01 1.100000000000000000e+01
-1.005998134613037109e+00 3.496812343597412109e+00 -5.763045549392700195e-01 9.000000000000000000e+00
-1.248719096183777078e+00 4.346210956573486328e+00 -5.552367568016052246e-01 1.100000000000000000e+01
-1.634140610694885032e+00 5.691426753997802734e+00 -5.180537104606628418e-01 8.000000000000000000e+00
-2.375490427017211914e+00 8.284319877624511719e+00 -4.516592919826508123e-01 1.000000000000000000e+00
-4.365621566772460938e+00 1.524481296539306996e+01 -2.767951786518096924e-01 2.000000000000000000e+00
-6.213378310203552246e-01 2.181223392486571822e+00 -6.077071428298950195e-01 1.700000000000000000e+01
-7.123833298683166504e-01 2.504158496856689009e+00 -6.010692119598388672e-01 1.100000000000000000e+01
-8.251582980155944824e-01 2.902508020401000977e+00 -5.865468382835388184e-01 1.100000000000000000e+01
-9.894697070121765137e-01 3.485100507736206055e+00 -5.738016366958618164e-01 9.000000000000000000e+00
-1.231915831565856934e+00 4.344813823699951172e+00 -5.545055270195007324e-01 1.000000000000000000e+01
-1.608832359313965066e+00 5.677927017211914062e+00 -5.163106322288513184e-01 8.000000000000000000e+00
-2.345470666885375977e+00 8.288717269897460938e+00 -4.514499604701995850e-01 1.000000000000000000e+00
-4.323256492614746094e+00 1.529844570159911932e+01 -2.774932682514191229e-01 2.000000000000000000e+00
-6.121518611907958984e-01 2.177799701690673828e+00 -6.061542034149169922e-01 1.600000000000000000e+01
-6.983711123466491699e-01 2.487867832183837891e+00 -5.965701937675476074e-01 1.200000000000000000e+01
-8.166124820709228516e-01 2.911041498184204102e+00 -5.876917243003845215e-01 1.200000000000000000e+01
-9.741011261940002441e-01 3.477120399475098100e+00 -5.719243884086608887e-01 9.000000000000000000e+00
-1.219951152801513894e+00 4.360557556152343750e+00 -5.559679269790649414e-01 1.000000000000000000e+01
-1.592221617698668990e+00 5.695021152496337891e+00 -5.173565149307250977e-01 8.000000000000000000e+00
-2.315448999404906782e+00 8.293006896972656250e+00 -4.512406289577484131e-01 1.000000000000000000e+00
-4.269828796386718750e+00 1.531344413757324041e+01 -2.774932682514191229e-01 2.000000000000000000e+00
-6.058239936828613281e-01 2.181573390960692915e+00 -6.066718697547912598e-01 1.600000000000000000e+01
-6.895102858543395996e-01 2.486293792724608931e+00 -5.956704020500183105e-01 1.100000000000000000e+01
-8.090361356735229492e-01 2.919268369674683061e+00 -5.888365507125854492e-01 1.100000000000000000e+01
-9.636995196342468262e-01 3.482067108154296875e+00 -5.722372531890869141e-01 1.000000000000000000e+01
-1.205717206001281960e+00 4.362455368041992188e+00 -5.557242035865783691e-01 1.100000000000000000e+01
-1.571670174598694070e+00 5.690392971038818359e+00 -5.164849162101745605e-01 8.000000000000000000e+00
-2.285135984420775923e+00 8.284836769104003906e+00 -4.504032433032990057e-01 1.000000000000000000e+00
-4.205768108367919922e+00 1.526894569396973012e+01 -2.764461040496826172e-01 2.000000000000000000e+00
-6.027989387512207031e-01 2.200443744659423828e+00 -6.113305687904357910e-01 1.900000000000000000e+01
-6.828841567039489746e-01 2.496204137802124023e+00 -5.974699854850769043e-01 1.100000000000000000e+01
-7.946993112564086914e-01 2.906924486160277876e+00 -5.857836008071899414e-01 1.000000000000000000e+01
-9.551807641983032227e-01 3.498749256134033203e+00 -5.744273662567138672e-01 1.100000000000000000e+01
-1.185782790184020996e+00 4.349400997161865234e+00 -5.535305738449096680e-01 1.000000000000000000e+01
-1.552321195602416992e+00 5.697766780853270596e+00 -5.166592597961425781e-01 8.000000000000000000e+00
-2.248862028121947798e+00 8.265782356262207031e+00 -4.489378333091735840e-01 1.000000000000000000e+00
-4.139861106872558594e+00 1.523721981048583984e+01 -2.756083905696868896e-01 2.000000000000000000e+00
-5.905790925025939941e-01 2.185749769210814986e+00 -6.066718697547912598e-01 1.600000000000000000e+01
-6.761972308158874512e-01 2.506098508834838867e+00 -5.992696285247802734e-01 1.300000000000000000e+01
-7.886362075805664062e-01 2.924845457077025923e+00 -5.888365507125854492e-01 1.200000000000000000e+01
-9.434756040573120117e-01 3.503969669342041016e+00 -5.747402310371398926e-01 1.000000000000000000e+01
-1.169562339782715066e+00 4.349679470062255859e+00 -5.530430674552917480e-01 1.000000000000000000e+01
-1.530354738235474077e+00 5.695454120635986328e+00 -5.159620046615600586e-01 6.000000000000000000e+00
-2.216889619827270952e+00 8.262007713317871094e+00 -4.483098089694976807e-01 2.000000000000000000e+00
-4.083542346954345703e+00 1.523998832702637074e+01 -2.753989696502686102e-01 2.000000000000000000e+00
-5.859301686286926270e-01 2.198998212814331055e+00 -6.097776889801025391e-01 1.800000000000000000e+01
-6.669441461563110352e-01 2.506560325622559038e+00 -5.988197326660156250e-01 1.200000000000000000e+01
-7.769083380699157715e-01 2.921888351440430132e+00 -5.876917243003845215e-01 1.100000000000000000e+01
-9.276902079582214355e-01 3.493877172470093218e+00 -5.725501179695129395e-01 1.000000000000000000e+01
-1.158442139625549094e+00 4.369085788726806641e+00 -5.549929738044738770e-01 1.100000000000000000e+01
-1.506892561912537065e+00 5.687279701232910156e+00 -5.147418379783630371e-01 9.000000000000000000e+00
-2.184971094131470171e+00 8.258111000061035156e+00 -4.476817548274993896e-01 2.000000000000000000e+00
-4.033384799957275391e+00 1.526574993133544922e+01 -2.756083905696868896e-01 2.000000000000000000e+00
-5.744326710700988770e-01 2.188051223754882812e+00 -6.061542034149169922e-01 1.900000000000000000e+01
-6.562700867652893066e-01 2.503332853317261186e+00 -5.974699854850769043e-01 1.200000000000000000e+01
-7.656963467597961426e-01 2.922817230224608931e+00 -5.873100757598876953e-01 1.000000000000000000e+01
-9.128785133361816406e-01 3.489609479904174805e+00 -5.712986588478088379e-01 1.100000000000000000e+01
-1.139912247657776101e+00 4.363698959350585938e+00 -5.537742972373962402e-01 1.100000000000000000e+01
-1.488050460815429910e+00 5.700475692749023438e+00 -5.154390335083007812e-01 8.000000000000000000e+00
-2.152673959732056108e+00 8.258333206176757812e+00 -4.472630918025969904e-01 2.000000000000000000e+00
-3.964309215545653853e+00 1.523011493682860973e+01 -2.747008800506591797e-01 2.000000000000000000e+00
-5.706636309623718262e-01 2.205004930496215820e+00 -6.102952957153320312e-01 1.900000000000000000e+01
-6.446022391319274902e-01 2.494287729263306108e+00 -5.947706103324890137e-01 1.100000000000000000e+01
-7.564709186553955078e-01 2.929273843765258789e+00 -5.880733132362365723e-01 1.000000000000000000e+01
-9.021717309951782227e-01 3.498513221740723100e+00 -5.722372531890869141e-01 1.000000000000000000e+01
-1.126158118247986062e+00 4.373418807983398438e+00 -5.545055270195007324e-01 1.000000000000000000e+01
-1.469632506370543990e+00 5.711423873901367188e+00 -5.159620046615600586e-01 6.000000000000000000e+00
-2.127810001373291016e+00 8.281272888183593750e+00 -4.481004476547241211e-01 4.000000000000000000e+00
-3.901182889938354048e+00 1.520512104034424006e+01 -2.740027904510498047e-01 2.000000000000000000e+00
-5.615307688713073730e-01 2.201367616653441939e+00 -6.087424159049987793e-01 1.700000000000000000e+01
-6.368536353111267090e-01 2.500299692153931108e+00 -5.956704020500183105e-01 1.000000000000000000e+01
-7.443042397499084473e-01 2.924286127090454102e+00 -5.865468382835388184e-01 1.000000000000000000e+01
-8.909273147583007812e-01 3.505470037460327148e+00 -5.728629827499389648e-01 1.000000000000000000e+01
-1.106978774070739968e+00 4.361930370330811435e+00 -5.525556206703186035e-01 1.000000000000000000e+01
-1.446258664131164995e+00 5.703000545501708984e+00 -5.147418379783630371e-01 8.000000000000000000e+00
-2.093006610870360884e+00 8.265416145324707031e+00 -4.468443989753723145e-01 2.000000000000000000e+00
-3.842200756072998047e+00 1.519538116455077947e+01 -2.735839188098906916e-01 2.000000000000000000e+00
-1.402005767822265980e+01 5.544742202758789062e+01 1.532467555999756037e+01 2.000000000000000000e+01
-5.533722043037414551e-01 2.201440811157227007e+00 -6.082247495651245117e-01 1.600000000000000000e+01
-6.300197839736938477e-01 2.510067939758300781e+00 -5.974699854850769043e-01 1.100000000000000000e+01
-7.336143851280212402e-01 2.924962282180786133e+00 -5.861652493476867676e-01 1.100000000000000000e+01
-8.782055974006652832e-01 3.506642341613769975e+00 -5.725501179695129395e-01 1.000000000000000000e+01
-1.088856577873229980e+00 4.354213237762451172e+00 -5.510931611061096191e-01 1.000000000000000000e+01
-1.424410581588744895e+00 5.700282096862792969e+00 -5.140445828437805176e-01 8.000000000000000000e+00
-2.068010330200194868e+00 8.288173675537109375e+00 -4.476817548274993896e-01 1.000000000000000000e+00
-3.789135694503784180e+00 1.520870113372802912e+01 -2.735839188098906916e-01 2.000000000000000000e+00
-1.403658771514892933e+01 5.633956909179688211e+01 1.555761241912841975e+01 2.100000000000000000e+01
-5.446746945381164551e-01 2.197638511657714844e+00 -6.066718697547912598e-01 1.600000000000000000e+01
-6.216925978660583496e-01 2.512143373489379883e+00 -5.974699854850769043e-01 1.200000000000000000e+01
-7.224969863891601562e-01 2.921661376953125000e+00 -5.850203633308410645e-01 1.000000000000000000e+01
-8.670458793640136719e-01 3.511453151702880859e+00 -5.728629827499389648e-01 1.000000000000000000e+01
-1.075361847877501997e+00 4.361654758453369141e+00 -5.515806674957275391e-01 1.000000000000000000e+01
-1.405499935150146040e+00 5.704974174499511719e+00 -5.140445828437805176e-01 6.000000000000000000e+00
-2.040514469146728960e+00 8.294986724853515625e+00 -4.476817548274993896e-01 1.000000000000000000e+00
-3.725325107574462891e+00 1.516680717468262074e+01 -2.726065814495087225e-01 2.000000000000000000e+00
-5.374583601951599121e-01 2.201403141021728960e+00 -6.071894764900207520e-01 1.600000000000000000e+01
-6.129198074340820312e-01 2.514298200607299805e+00 -5.974699854850769043e-01 1.100000000000000000e+01
-7.174050807952880859e-01 2.945147752761840820e+00 -5.892181992530822754e-01 1.100000000000000000e+01
-8.510485887527465820e-01 3.499103069305419922e+00 -5.703600645065307617e-01 1.000000000000000000e+01
-1.063878059387207031e+00 4.380814075469970703e+00 -5.535305738449096680e-01 1.000000000000000000e+01
-1.383697867393494096e+00 5.702100753784179688e+00 -5.133473277091979980e-01 8.000000000000000000e+00
-2.011547088623046875e+00 8.302058219909667969e+00 -4.476817548274993896e-01 1.000000000000000000e+00
-3.666717767715454102e+00 1.515639495849609020e+01 -2.721877396106719971e-01 2.000000000000000000e+00
-1.321168994903563920e+01 5.465231323242188211e+01 1.506585693359375000e+01 1.900000000000000000e+01
-5.311257243156433105e-01 2.208900690078734907e+00 -6.087424159049987793e-01 1.700000000000000000e+01
-6.032297015190124512e-01 2.512632369995117188e+00 -5.965701937675476074e-01 1.100000000000000000e+01
-7.062042951583862305e-01 2.943815946578979048e+00 -5.884549617767333984e-01 1.100000000000000000e+01
-8.369887471199035645e-01 3.494368314743041992e+00 -5.691086053848266602e-01 1.000000000000000000e+01
-1.044885873794556108e+00 4.369055747985839844e+00 -5.515806674957275391e-01 1.000000000000000000e+01
-1.367490053176880105e+00 5.722398757934570312e+00 -5.147418379783630371e-01 9.000000000000000000e+00
-1.976065754890441895e+00 8.281831741333007812e+00 -4.462163746356964111e-01 2.000000000000000000e+00
-3.613789796829224077e+00 1.516910171508789062e+01 -2.721877396106719971e-01 2.000000000000000000e+00
-1.311031150817870916e+01 5.507396316528320312e+01 1.516938400268555043e+01 2.000000000000000000e+01
-5.234119296073913574e-01 2.210741281509398970e+00 -6.087424159049987793e-01 1.800000000000000000e+01
-5.935586690902709961e-01 2.510929822921752930e+00 -5.956704020500183105e-01 1.100000000000000000e+01
-6.941189169883728027e-01 2.938620328903197798e+00 -5.869284868240356445e-01 1.100000000000000000e+01
-8.288668394088745117e-01 3.514572381973267046e+00 -5.719243884086608887e-01 1.000000000000000000e+01
-1.028263688087462935e+00 4.366879940032958984e+00 -5.508494377136230469e-01 1.100000000000000000e+01
-1.348419547080994096e+00 5.731016159057617188e+00 -5.150904655456542969e-01 6.000000000000000000e+00
-1.953539252281188965e+00 8.315898895263671875e+00 -4.476817548274993896e-01 1.000000000000000000e+00
-3.561731100082397017e+00 1.518551731109618963e+01 -2.722575366497039795e-01 2.000000000000000000e+00
-5.173424482345581055e-01 2.216137170791625977e+00 -6.097776889801025391e-01 1.700000000000000000e+01
-5.874368548393249512e-01 2.520373582839965820e+00 -5.974699854850769043e-01 1.100000000000000000e+01
-6.844382286071777344e-01 2.938874483108520952e+00 -5.865468382835388184e-01 1.100000000000000000e+01
-8.182688355445861816e-01 3.519083023071289062e+00 -5.722372531890869141e-01 1.000000000000000000e+01
-1.011846184730530007e+00 4.358486652374267578e+00 -5.493869781494140625e-01 1.100000000000000000e+01
-1.325906157493591087e+00 5.715815544128417969e+00 -5.133473277091979980e-01 8.000000000000000000e+00
-1.930108428001404031e+00 8.333669662475585938e+00 -4.483098089694976807e-01 1.000000000000000000e+00
-3.500491380691527876e+00 1.513818359375000000e+01 -2.712104022502899170e-01 2.000000000000000000e+00
-1.261250400543213068e+01 5.454388427734375000e+01 1.500063419342041016e+01 1.900000000000000000e+01
-5.070079565048217773e-01 2.206632852554320845e+00 -6.066718697547912598e-01 1.700000000000000000e+01
-5.790712237358093262e-01 2.524308204650878906e+00 -5.979198813438415527e-01 1.200000000000000000e+01
-6.728596091270446777e-01 2.935504913330078125e+00 -5.854020118713378906e-01 1.100000000000000000e+01
-8.064206242561340332e-01 3.523843288421630859e+00 -5.725501179695129395e-01 1.000000000000000000e+01
-9.983947277069091797e-01 4.369732856750488281e+00 -5.503619313240051270e-01 1.100000000000000000e+01
-1.306833028793334961e+00 5.724293708801270419e+00 -5.136959552764892578e-01 8.000000000000000000e+00
-1.901894450187683105e+00 8.344251632690429688e+00 -4.485191404819489081e-01 1.000000000000000000e+00
-3.447628021240233931e+00 1.515031051635742010e+01 -2.712104022502899170e-01 2.000000000000000000e+00
-1.233797740936278942e+01 5.426197052001953125e+01 1.491056537628174006e+01 1.900000000000000000e+01
-4.989168345928192139e-01 2.208476305007935014e+00 -6.066718697547912598e-01 1.800000000000000000e+01
-5.711015462875366211e-01 2.532116651535034180e+00 -5.992696285247802734e-01 1.100000000000000000e+01
-6.629591584205627441e-01 2.941781759262084961e+00 -5.861652493476867676e-01 1.100000000000000000e+01
-7.891635894775390625e-01 3.507503271102904829e+00 -5.694214701652526855e-01 1.000000000000000000e+01
-9.823721647262573242e-01 4.373363018035888672e+00 -5.503619313240051270e-01 1.100000000000000000e+01
-1.281480431556702104e+00 5.709604740142822266e+00 -5.119528174400329590e-01 6.000000000000000000e+00
-1.867804765701293945e+00 8.335574150085449219e+00 -4.476817548274993896e-01 1.000000000000000000e+00
-3.383344888687133789e+00 1.512381553649901988e+01 -2.705123126506804865e-01 2.000000000000000000e+00
-4.937194883823394775e-01 2.221519470214844194e+00 -6.097776889801025391e-01 1.700000000000000000e+01
-5.563496947288513184e-01 2.507460117340087891e+00 -5.929709672927856445e-01 1.100000000000000000e+01
-6.526863574981689453e-01 2.944077968597412109e+00 -5.861652493476867676e-01 1.100000000000000000e+01
-7.773422002792358398e-01 3.512165307998656782e+00 -5.697343349456787109e-01 1.000000000000000000e+01
-9.666720032691955566e-01 4.374826908111572266e+00 -5.501182079315185547e-01 1.100000000000000000e+01
-1.264119625091552956e+00 5.725716590881347656e+00 -5.129987001419067383e-01 8.000000000000000000e+00
-1.828379154205322044e+00 8.295232772827148438e+00 -4.451696574687957764e-01 2.000000000000000000e+00
-3.334829807281494141e+00 1.515506362915039062e+01 -2.708613574504851740e-01 2.000000000000000000e+00
-4.855493903160095215e-01 2.221341848373413086e+00 -6.092600226402282715e-01 1.900000000000000000e+01
-5.484246015548706055e-01 2.513194799423218218e+00 -5.938707590103149414e-01 1.100000000000000000e+01
-6.394780278205871582e-01 2.932910919189453125e+00 -5.834938883781433105e-01 1.000000000000000000e+01
-7.680187225341796875e-01 3.528368711471558061e+00 -5.719243884086608887e-01 1.100000000000000000e+01
-9.471797943115234375e-01 4.358776569366455078e+00 -5.476808547973632812e-01 1.000000000000000000e+01
-1.247084617614746094e+00 5.743723392486572266e+00 -5.142188668251037598e-01 9.000000000000000000e+00
-1.801104545593261941e+00 8.309371948242187500e+00 -4.455883204936981201e-01 1.000000000000000000e+00
-3.275141716003417969e+00 1.513534069061278942e+01 -2.703028619289398193e-01 2.000000000000000000e+00
-1.189165401458740057e+01 5.495464324951171875e+01 1.506585693359375000e+01 1.900000000000000000e+01
-4.765746891498566229e-01 2.217357158660889116e+00 -6.077071428298950195e-01 1.800000000000000000e+01
-5.404661893844604492e-01 2.518904685974121094e+00 -5.947706103324890137e-01 1.100000000000000000e+01
-6.284132599830627441e-01 2.931286096572875977e+00 -5.827306509017944336e-01 1.100000000000000000e+01
-7.540441155433654785e-01 3.523301601409912109e+00 -5.706729292869567871e-01 9.000000000000000000e+00
-9.332033395767211914e-01 4.367879867553710938e+00 -5.484120249748229980e-01 1.000000000000000000e+01
-1.223700165748595969e+00 5.732453823089599609e+00 -5.128244161605834961e-01 9.000000000000000000e+00
-1.774586081504821999e+00 8.327329635620117188e+00 -4.462163746356964111e-01 1.000000000000000000e+00
-3.205645322799683061e+00 1.506844329833984020e+01 -2.689066827297211248e-01 2.000000000000000000e+00
-4.684197008609771729e-01 2.215145111083983931e+00 -6.066718697547912598e-01 1.700000000000000000e+01
-5.345252752304077148e-01 2.532123327255249023e+00 -5.974699854850769043e-01 1.100000000000000000e+01
-6.203100085258483887e-01 2.941037654876708984e+00 -5.842571258544921875e-01 1.200000000000000000e+01
-7.423563003540039062e-01 3.525782585144042969e+00 -5.706729292869567871e-01 1.000000000000000000e+01
-9.166721701622009277e-01 4.361237525939941406e+00 -5.471933484077453613e-01 1.000000000000000000e+01
-1.204683899879456010e+00 5.736480236053466797e+00 -5.128244161605834961e-01 9.000000000000000000e+00
-1.746961951255797896e+00 8.333168029785156250e+00 -4.462163746356964111e-01 1.000000000000000000e+00
-3.162212848663330078e+00 1.511030769348145064e+01 -2.694651484489440918e-01 2.000000000000000000e+00
-1.153314590454101918e+01 5.510994720458983664e+01 1.508656215667724965e+01 1.900000000000000000e+01
-4.606845378875731867e-01 2.216766834259033203e+00 -6.066718697547912598e-01 1.800000000000000000e+01
-5.233081579208374023e-01 2.522525072097777876e+00 -5.947706103324890137e-01 1.000000000000000000e+01
-6.100400686264038086e-01 2.943185091018677202e+00 -5.842571258544921875e-01 1.200000000000000000e+01
-7.272427678108215332e-01 3.514811754226685014e+00 -5.684828162193298340e-01 1.000000000000000000e+01
-9.050568342208862305e-01 4.381906986236572266e+00 -5.493869781494140625e-01 1.100000000000000000e+01
-1.185457825660706010e+00 5.744552612304688388e+00 -5.131729841232299805e-01 9.000000000000000000e+00
-1.715445280075073020e+00 8.327478408813476562e+00 -4.455883204936981201e-01 1.000000000000000000e+00
-3.109448671340941939e+00 1.512125396728515980e+01 -2.694651484489440918e-01 2.000000000000000000e+00
-1.130464267730713068e+01 5.502317047119141336e+01 1.505136299133300959e+01 1.900000000000000000e+01
-4.541045427322388250e-01 2.222067832946776900e+00 -6.077071428298950195e-01 1.800000000000000000e+01
-5.141612887382507324e-01 2.520427703857421875e+00 -5.938707590103149414e-01 1.100000000000000000e+01
-6.038054823875427246e-01 2.962505340576171875e+00 -5.876917243003845215e-01 1.100000000000000000e+01
-7.167647480964660645e-01 3.523011207580565962e+00 -5.694214701652526855e-01 9.000000000000000000e+00
-8.893356919288635254e-01 4.379048347473145419e+00 -5.486558079719543457e-01 1.100000000000000000e+01
-1.164816975593566895e+00 5.740642070770263672e+00 -5.124757885932922363e-01 8.000000000000000000e+00
-1.690199851989746094e+00 8.344865798950195312e+00 -4.462163746356964111e-01 1.000000000000000000e+00
-3.055325031280518022e+00 1.511188125610351918e+01 -2.691161036491394043e-01 2.000000000000000000e+00
-4.486264586448668878e-01 2.235003709793090820e+00 -6.108129620552062988e-01 1.800000000000000000e+01
-5.061259269714355469e-01 2.526028633117675781e+00 -5.947706103324890137e-01 1.100000000000000000e+01
-5.919193029403686523e-01 2.956894636154174805e+00 -5.861652493476867676e-01 1.100000000000000000e+01
-7.029144763946533203e-01 3.517743349075316939e+00 -5.681699514389038086e-01 9.000000000000000000e+00
-8.709381818771362305e-01 4.366551876068115234e+00 -5.467059016227722168e-01 1.000000000000000000e+01
-1.143992543220520020e+00 5.740765094757080078e+00 -5.121271610260009766e-01 8.000000000000000000e+00
-1.656384825706481934e+00 8.327208518981933594e+00 -4.449602961540222168e-01 1.000000000000000000e+00
-3.000998258590697798e+00 1.511460876464843928e+01 -2.689764797687531073e-01 2.000000000000000000e+00
-4.393278062343596857e-01 2.228974580764770952e+00 -6.087424159049987793e-01 1.800000000000000000e+01
-4.965529739856719971e-01 2.523955821990966797e+00 -5.938707590103149414e-01 1.200000000000000000e+01
-5.781863927841186523e-01 2.941605329513549805e+00 -5.827306509017944336e-01 1.100000000000000000e+01
-6.944339871406555176e-01 3.539559841156005859e+00 -5.712986588478088379e-01 9.000000000000000000e+00
-8.545463085174560547e-01 4.363721370697020596e+00 -5.459746718406677246e-01 1.000000000000000000e+01
-1.123564004898071067e+00 5.742767810821533203e+00 -5.119528174400329590e-01 9.000000000000000000e+00
-1.629604101181030051e+00 8.344700813293457031e+00 -4.455883204936981201e-01 1.000000000000000000e+00
-2.947454929351807085e+00 1.512106704711914062e+01 -2.689066827297211248e-01 2.000000000000000000e+00
-4.282419085502625067e-01 2.213424444198607954e+00 -6.040836572647094727e-01 1.600000000000000000e+01
-4.888482093811035156e-01 2.531413793563843218e+00 -5.952205061912536621e-01 1.200000000000000000e+01
-5.686585903167724609e-01 2.947460889816284180e+00 -5.834938883781433105e-01 1.000000000000000000e+01
-6.813273429870605469e-01 3.538082838058472124e+00 -5.706729292869567871e-01 9.000000000000000000e+00
-8.411823511123657227e-01 4.376424312591552734e+00 -5.471933484077453613e-01 1.000000000000000000e+01
-1.099378108978271040e+00 5.725131988525390625e+00 -5.100353956222534180e-01 8.000000000000000000e+00
-1.598209977149962935e+00 8.338569641113281250e+00 -4.449602961540222168e-01 2.000000000000000000e+00
-2.904423713684082031e+00 1.518232917785645064e+01 -2.698141932487487793e-01 2.000000000000000000e+00
-4.215940237045288086e-01 2.220599651336669922e+00 -6.056365370750427246e-01 1.700000000000000000e+01
-4.789204895496367853e-01 2.527360916137694868e+00 -5.938707590103149414e-01 1.100000000000000000e+01
-5.609228610992431641e-01 2.962930917739868164e+00 -5.861652493476867676e-01 1.100000000000000000e+01
-6.678726673126220703e-01 3.534616470336914062e+00 -5.697343349456787109e-01 9.000000000000000000e+00
-8.247969746589660645e-01 4.373482227325438565e+00 -5.464621186256408691e-01 9.000000000000000000e+00
-1.081231474876404031e+00 5.738724231719970703e+00 -5.109069347381591797e-01 6.000000000000000000e+00
-1.569831490516663042e+00 8.348023414611816406e+00 -4.451696574687957764e-01 2.000000000000000000e+00
-2.838130235671997070e+00 1.512162113189697088e+01 -2.685576379299163818e-01 2.000000000000000000e+00
-4.145475327968596857e-01 2.225856065750122070e+00 -6.066718697547912598e-01 1.800000000000000000e+01
-4.693831801414489746e-01 2.525185346603393999e+00 -5.929709672927856445e-01 1.100000000000000000e+01
-5.509353280067443848e-01 2.966801166534423828e+00 -5.865468382835388184e-01 1.000000000000000000e+01
-6.519306898117065430e-01 3.517503261566162109e+00 -5.666056275367736816e-01 9.000000000000000000e+00
-8.095256686210632324e-01 4.376334667205811435e+00 -5.464621186256408691e-01 1.000000000000000000e+01
-1.063003301620482954e+00 5.752259731292724609e+00 -5.117785334587097168e-01 9.000000000000000000e+00
-1.534885764122009055e+00 8.322026252746582031e+00 -4.434948861598969061e-01 1.000000000000000000e+00
-2.789672851562500000e+00 1.515503597259520951e+01 -2.689764797687531073e-01 2.000000000000000000e+00
-1.023915100097656072e+01 5.567927551269531250e+01 1.516938400268555043e+01 2.000000000000000000e+01
-4.092914760112761896e-01 2.236649036407471147e+00 -6.092600226402282715e-01 1.600000000000000000e+01
-4.617978632450103760e-01 2.528564453125000000e+00 -5.934208631515502930e-01 1.300000000000000000e+01
-5.391454696655273438e-01 2.954997777938843218e+00 -5.838755369186401367e-01 1.100000000000000000e+01
-6.419385671615600586e-01 3.525364160537720171e+00 -5.675442218780517578e-01 9.000000000000000000e+00
-7.961279749870300293e-01 4.380809307098388672e+00 -5.467059016227722168e-01 1.000000000000000000e+01
-1.044214963912964089e+00 5.751649856567382812e+00 -5.114299058914184570e-01 9.000000000000000000e+00
-1.510870337486267090e+00 8.338598251342773438e+00 -4.441229104995728094e-01 2.000000000000000000e+00
-2.742048263549805132e+00 1.516372489929199041e+01 -2.689764797687531073e-01 2.000000000000000000e+00
-1.028015899658202947e+01 5.685002136230468750e+01 1.547996711730957031e+01 2.000000000000000000e+01
-3.997760713100432794e-01 2.228556632995605025e+00 -6.066718697547912598e-01 1.700000000000000000e+01
-4.539989829063416082e-01 2.535915851593018022e+00 -5.947706103324890137e-01 1.100000000000000000e+01
-5.281360745429992676e-01 2.952996492385863814e+00 -5.831122994422912598e-01 1.100000000000000000e+01
-6.310172080993652344e-01 3.535362005233765093e+00 -5.687957406044006348e-01 9.000000000000000000e+00
-7.787424921989440918e-01 4.371835708618164062e+00 -5.452434420585632324e-01 1.000000000000000000e+01
-1.024829745292664018e+00 5.759182929992675781e+00 -5.117785334587097168e-01 9.000000000000000000e+00
-1.480357050895690918e+00 8.335955619812011719e+00 -4.437042474746704102e-01 1.000000000000000000e+00
-2.684912681579589844e+00 1.514957618713379084e+01 -2.685576379299163818e-01 2.000000000000000000e+00
-3.896532654762268066e-01 2.216619729995727983e+00 -6.030483841896057129e-01 1.600000000000000000e+01
-4.458176493644713800e-01 2.541323900222777876e+00 -5.956704020500183105e-01 1.100000000000000000e+01
-5.171471834182739258e-01 2.950954437255858931e+00 -5.823490619659423828e-01 1.100000000000000000e+01
-6.190129518508911133e-01 3.539489030838013139e+00 -5.691086053848266602e-01 8.000000000000000000e+00
-7.631359100341796875e-01 4.372571468353270596e+00 -5.449997186660766602e-01 9.000000000000000000e+00
-9.975338578224182129e-01 5.721507072448729581e+00 -5.081179738044738770e-01 9.000000000000000000e+00
-1.453989028930664062e+00 8.356813430786132812e+00 -4.445416033267974854e-01 1.000000000000000000e+00
-2.628593683242797852e+00 1.513915443420409979e+01 -2.682085931301116943e-01 2.000000000000000000e+00
-9.684735298156738281e+00 5.577838134765625000e+01 1.516938400268555043e+01 2.000000000000000000e+01
-3.832247257232666016e-01 2.225581645965576172e+00 -6.051189303398132324e-01 1.600000000000000000e+01
-4.349639415740966797e-01 2.531341075897216797e+00 -5.929709672927856445e-01 1.100000000000000000e+01
-5.081717967987060547e-01 2.960481405258179155e+00 -5.838755369186401367e-01 1.100000000000000000e+01
-6.049864888191223145e-01 3.531893014907836914e+00 -5.675442218780517578e-01 9.000000000000000000e+00
-7.485370635986328125e-01 4.379122257232666016e+00 -5.454871654510498047e-01 9.000000000000000000e+00
-9.805741906166076660e-01 5.742630004882813388e+00 -5.096867680549621582e-01 9.000000000000000000e+00
-1.424138426780700906e+00 8.357900619506835938e+00 -4.443322718143463135e-01 1.000000000000000000e+00
-2.579084157943726030e+00 1.516795158386229936e+01 -2.685576379299163818e-01 2.000000000000000000e+00
-9.564342498779296875e+00 5.630869293212891336e+01 1.530397033691406072e+01 2.000000000000000000e+01
-3.764171898365020752e-01 2.232620716094971147e+00 -6.066718697547912598e-01 1.800000000000000000e+01
-4.248320162296295166e-01 2.525156974792480025e+00 -5.911713838577270508e-01 1.100000000000000000e+01
-4.988108575344086248e-01 2.968045711517333984e+00 -5.850203633308410645e-01 1.200000000000000000e+01
-5.939610600471496582e-01 3.541776180267333984e+00 -5.687957406044006348e-01 9.000000000000000000e+00
-7.332465052604675293e-01 4.381708621978759766e+00 -5.454871654510498047e-01 9.000000000000000000e+00
-9.608511924743652344e-01 5.747982978820800781e+00 -5.098611116409301758e-01 8.000000000000000000e+00
-1.394297957420348899e+00 8.358880996704101562e+00 -4.441229104995728094e-01 1.000000000000000000e+00
-2.524809122085570845e+00 1.516897106170653942e+01 -2.684180140495299738e-01 2.000000000000000000e+00
