9.143083572387695312e+00 -5.038928508758544922e+00 -5.471200942993164062e-01 5.000000000000000000e+00
2.185543537139893022e+00 -1.209472775459289995e+00 -6.693060398101806641e-01 1.600000000000000000e+01
2.536647558212279829e+00 -1.404929399490356001e+00 -6.694543361663818359e-01 1.300000000000000000e+01
3.003499984741210938e+00 -1.664182066917418990e+00 -6.674498915672302246e-01 1.000000000000000000e+01
3.648556470870972124e+00 -2.023260354995727983e+00 -6.607791781425476074e-01 1.000000000000000000e+01
4.761015892028808594e+00 -2.642333984375000000e+00 -6.685752272605895996e-01 9.000000000000000000e+00
6.615767478942871094e+00 -3.673219919204711914e+00 -6.620350480079650879e-01 3.000000000000000000e+00
9.045130729675292969e+00 -5.026187419891357422e+00 -5.423051714897155762e-01 7.000000000000000000e+00
2.186369419097899947e+00 -1.219918251037598100e+00 -6.708589792251586914e-01 1.600000000000000000e+01
2.521519422531127930e+00 -1.408074617385864036e+00 -6.667549014091491699e-01 1.100000000000000000e+01
2.997672796249390093e+00 -1.674656152725219949e+00 -6.674498915672302246e-01 1.100000000000000000e+01
3.651816844940185991e+00 -2.041768074035644975e+00 -6.626563668251037598e-01 1.000000000000000000e+01
4.642627239227294922e+00 -2.597867727279663086e+00 -6.532196998596191406e-01 1.100000000000000000e+01
6.644629955291748047e+00 -3.719648122787476030e+00 -6.662185192108154297e-01 3.000000000000000000e+00
9.379501342773437500e+00 -5.254924297332763672e+00 -5.634489059448242188e-01 2.000000000000000000e+00
2.185679912567139116e+00 -1.229055643081665039e+00 -6.718942523002624512e-01 1.600000000000000000e+01
2.520232677459716797e+00 -1.418340086936950906e+00 -6.676547527313232422e-01 1.300000000000000000e+01
2.988681316375731978e+00 -1.682661175727844016e+00 -6.666866540908813477e-01 1.100000000000000000e+01
3.641584157943726030e+00 -2.051927089691162109e+00 -6.620306372642517090e-01 1.000000000000000000e+01
4.794793128967285156e+00 -2.703932523727416992e+00 -6.758874058723449707e-01 1.000000000000000000e+01
6.632258415222167969e+00 -3.741662263870238814e+00 -6.662185192108154297e-01 2.000000000000000000e+00
9.466375350952148438e+00 -5.344917297363281250e+00 -5.697292089462280273e-01 5.000000000000000000e+00
2.183056831359862837e+00 -1.237630248069762962e+00 -6.724118590354919434e-01 1.500000000000000000e+01
2.528825759887694868e+00 -1.434822082519531028e+00 -6.712539196014404297e-01 1.300000000000000000e+01
2.986204385757445845e+00 -1.695021629333496094e+00 -6.674498915672302246e-01 1.100000000000000000e+01
3.641269683837891069e+00 -2.068529129028319868e+00 -6.632821559906005859e-01 1.000000000000000000e+01
4.716298103332520419e+00 -2.681408166885375977e+00 -6.661378145217895508e-01 6.000000000000000000e+00
6.598374843597412109e+00 -3.752969980239868164e+00 -6.641267538070678711e-01 2.000000000000000000e+00
9.360873222351074219e+00 -5.328526496887207031e+00 -5.644956231117248535e-01 5.000000000000000000e+00
2.165305614471435991e+00 -1.237574100494384988e+00 -6.682707667350769043e-01 1.600000000000000000e+01
2.527184963226317915e+00 -1.445575833320617898e+00 -6.721537709236145020e-01 1.400000000000000000e+01
2.980269432067871094e+00 -1.705435156822205034e+00 -6.674498915672302246e-01 1.100000000000000000e+01
3.630598545074462891e+00 -2.079263448715209961e+00 -6.626563668251037598e-01 1.100000000000000000e+01
4.718965053558349609e+00 -2.704764842987060991e+00 -6.678439974784851074e-01 8.000000000000000000e+00
6.607703685760498047e+00 -3.788863658905028853e+00 -6.663928031921386719e-01 3.000000000000000000e+00
9.487728118896484375e+00 -5.444674015045166016e+00 -5.732880830764770508e-01 3.000000000000000000e+00
2.159298658370972124e+00 -1.244160413742064986e+00 -6.677531599998474121e-01 1.600000000000000000e+01
2.518747329711914062e+00 -1.452441573143004927e+00 -6.712539196014404297e-01 1.300000000000000000e+01
2.977699279785155806e+00 -1.717789888381958008e+00 -6.682131290435791016e-01 1.000000000000000000e+01
3.626739978790283203e+00 -2.093899250030518022e+00 -6.632821559906005859e-01 1.000000000000000000e+01
4.718089103698729581e+00 -2.726186275482178178e+00 -6.690626740455627441e-01 6.000000000000000000e+00
6.599612712860107422e+00 -3.814897060394287109e+00 -6.669157147407531738e-01 2.000000000000000000e+00
9.434088706970214844e+00 -5.457756042480468750e+00 -5.711946487426757812e-01 6.000000000000000000e+00
2.166635990142821822e+00 -1.258482336997986062e+00 -6.713765859603881836e-01 1.600000000000000000e+01
2.496814250946044922e+00 -1.451431035995482954e+00 -6.667549014091491699e-01 1.200000000000000000e+01
2.971684932708739790e+00 -1.728173494338989036e+00 -6.682131290435791016e-01 1.100000000000000000e+01
3.622823238372803178e+00 -2.108533620834351030e+00 -6.639078855514526367e-01 1.000000000000000000e+01
4.679383754730224609e+00 -2.725653409957886186e+00 -6.649191379547119141e-01 8.000000000000000000e+00
6.606913566589354581e+00 -3.849948167800902876e+00 -6.690074801445007324e-01 2.000000000000000000e+00
9.401177406311035156e+00 -5.482604980468750000e+00 -5.703572630882263184e-01 6.000000000000000000e+00
2.168898344039916992e+00 -1.269942164421081987e+00 -6.734471321105957031e-01 1.600000000000000000e+01
2.496776580810546875e+00 -1.463093400001526101e+00 -6.681046485900878906e-01 1.200000000000000000e+01
2.958859682083129883e+00 -1.734564542770385964e+00 -6.666866540908813477e-01 1.000000000000000000e+01
3.622256278991699219e+00 -2.125165224075316939e+00 -6.651593446731567383e-01 1.000000000000000000e+01
4.534607410430908203e+00 -2.662566423416138139e+00 -6.456637978553771973e-01 1.700000000000000000e+01
6.579690933227539062e+00 -3.864914178848267046e+00 -6.676129698753356934e-01 2.000000000000000000e+00
9.357877731323242188e+00 -5.501216888427734375e+00 -5.688918232917785645e-01 2.000000000000000000e+00
2.159461021423339844e+00 -1.274559497833251953e+00 -6.718942523002624512e-01 1.600000000000000000e+01
2.503399610519409180e+00 -1.478737711906433105e+00 -6.712539196014404297e-01 1.100000000000000000e+01
2.954477071762084961e+00 -1.745881199836730957e+00 -6.670682430267333984e-01 9.000000000000000000e+00
3.625017642974853960e+00 -2.143829584121704102e+00 -6.670365333557128906e-01 1.000000000000000000e+01
4.566284656524658203e+00 -2.702645063400268999e+00 -6.515135169029235840e-01 1.300000000000000000e+01
6.600447654724121094e+00 -3.908159971237183061e+00 -6.710992455482482910e-01 2.000000000000000000e+00
2.145037412643433061e+00 -1.276163220405579057e+00 -6.687884330749511719e-01 1.500000000000000000e+01
2.508269071578979048e+00 -1.493448972702025923e+00 -6.739533543586730957e-01 1.100000000000000000e+01
2.953424930572510210e+00 -1.759197592735290971e+00 -6.682131290435791016e-01 1.000000000000000000e+01
3.620905876159667969e+00 -2.158493041992187944e+00 -6.676623225212097168e-01 1.000000000000000000e+01
4.656354141235352273e+01 -2.776845741271973012e+01 6.656747341156005859e+00 5.700000000000000000e+01
4.541480064392089844e+00 -2.709414482116699219e+00 -6.493198871612548828e-01 1.700000000000000000e+01
6.583343982696533203e+00 -3.929133892059326172e+00 -6.707506179809570312e-01 3.000000000000000000e+00
2.148853778839110884e+00 -1.288610577583312988e+00 -6.713765859603881836e-01 1.700000000000000000e+01
2.494685888290404829e+00 -1.497181296348571999e+00 -6.717038750648498535e-01 1.200000000000000000e+01
2.955682277679442915e+00 -1.774549126625061035e+00 -6.701211929321289062e-01 9.000000000000000000e+00
3.596416950225830078e+00 -2.160945177078247070e+00 -6.645336151123046875e-01 1.000000000000000000e+01
4.545604228973388672e+00 -2.733434677124022993e+00 -6.512697935104370117e-01 1.400000000000000000e+01
6.576417446136474609e+00 -3.956198453903197798e+00 -6.714478135108947754e-01 3.000000000000000000e+00
2.145995855331420898e+00 -1.297103047370911089e+00 -6.718942523002624512e-01 1.600000000000000000e+01
2.481107473373413086e+00 -1.500837087631226030e+00 -6.694543361663818359e-01 1.200000000000000000e+01
2.957868099212646040e+00 -1.789937734603882058e+00 -6.720292568206787109e-01 1.100000000000000000e+01
3.602369308471680132e+00 -2.181672334671020952e+00 -6.670365333557128906e-01 1.000000000000000000e+01
4.637892246246337891e+00 -2.811020612716674805e+00 -6.658940911293029785e-01 9.000000000000000000e+00
6.603456020355224609e+00 -4.003922462463378906e+00 -6.756313443183898926e-01 1.000000000000000000e+00
2.144754648208618164e+00 -1.306596159934998003e+00 -6.729295253753662109e-01 1.500000000000000000e+01
2.482509136199951172e+00 -1.513546466827393022e+00 -6.712539196014404297e-01 1.100000000000000000e+01
2.948249816894530806e+00 -1.798207163810729980e+00 -6.712660193443298340e-01 1.200000000000000000e+01
3.587987422943114790e+00 -2.190116882324219194e+00 -6.657850742340087891e-01 1.000000000000000000e+01
4.589089393615722656e+00 -2.803391218185424805e+00 -6.602880954742431641e-01 9.000000000000000000e+00
6.603040218353270596e+00 -4.035259723663330078e+00 -6.770257949829101562e-01 1.000000000000000000e+00
2.141826868057250977e+00 -1.315085649490356001e+00 -6.734471321105957031e-01 1.500000000000000000e+01
2.487172603607178178e+00 -1.528324246406554954e+00 -6.739533543586730957e-01 1.400000000000000000e+01
2.931919813156127930e+00 -1.802318692207335982e+00 -6.689763665199279785e-01 1.200000000000000000e+01
3.602192878723144975e+00 -2.216084003448485884e+00 -6.698523759841918945e-01 9.000000000000000000e+00
4.577585220336914062e+00 -2.818352460861206055e+00 -6.600443720817565918e-01 1.100000000000000000e+01
6.568556785583496094e+00 -4.045745849609375000e+00 -6.749340891838073730e-01 2.000000000000000000e+00
2.132295131683350053e+00 -1.319504261016845925e+00 -6.718942523002624512e-01 1.600000000000000000e+01
2.483479499816894975e+00 -1.538022875785828081e+00 -6.744032502174377441e-01 1.300000000000000000e+01
2.927279710769652876e+00 -1.813575983047484907e+00 -6.693579554557800293e-01 1.100000000000000000e+01
3.597793102264403853e+00 -2.230726242065430132e+00 -6.704781055450439453e-01 9.000000000000000000e+00
4.631815910339354581e+00 -2.874086380004882812e+00 -6.693064570426940918e-01 1.100000000000000000e+01
6.556087493896484375e+00 -4.069700241088867188e+00 -6.751083731651306152e-01 2.000000000000000000e+00
4.542786026000977273e+01 -2.824336242675780895e+01 -9.337037205696105957e-01 1.400000000000000000e+01
2.127676248550415039e+00 -1.326939344406127930e+00 -6.718942523002624512e-01 1.500000000000000000e+01
2.476442337036132812e+00 -1.545650601387023926e+00 -6.739533543586730957e-01 1.200000000000000000e+01
2.927592515945435014e+00 -1.827942132949829102e+00 -6.708844304084777832e-01 1.100000000000000000e+01
3.574907541275023970e+00 -2.233850240707397017e+00 -6.676623225212097168e-01 1.000000000000000000e+01
4.581361293792724609e+00 -2.864976406097412109e+00 -6.634566783905029297e-01 1.100000000000000000e+01
6.551976203918457031e+00 -4.098900794982910156e+00 -6.761542558670043945e-01 3.000000000000000000e+00
2.131676912307738814e+00 -1.338754296302794966e+00 -6.744824051856994629e-01 1.500000000000000000e+01
2.460025072097777876e+00 -1.546163916587830034e+00 -6.708040237426757812e-01 1.300000000000000000e+01
2.921835422515869141e+00 -1.837130427360534890e+00 -6.708844304084777832e-01 1.200000000000000000e+01
3.571215867996215820e+00 -2.247174263000487837e+00 -6.682880520820617676e-01 1.000000000000000000e+01
4.538742542266845703e+00 -2.858198881149291992e+00 -6.585819125175476074e-01 1.400000000000000000e+01
6.571096420288085938e+00 -4.139642238616943359e+00 -6.794661879539489746e-01 2.000000000000000000e+00
2.130255460739136186e+00 -1.348253369331360085e+00 -6.755176782608032227e-01 1.500000000000000000e+01
2.459551811218262163e+00 -1.557869911193848100e+00 -6.721537709236145020e-01 1.200000000000000000e+01
2.918721437454224077e+00 -1.849419951438904031e+00 -6.716476678848266602e-01 1.100000000000000000e+01
3.573359489440917969e+00 -2.265973567962646040e+00 -6.701652407646179199e-01 1.000000000000000000e+01
4.522033691406250000e+00 -2.869769811630249023e+00 -6.576069593429565430e-01 1.700000000000000000e+01
6.556606292724609375e+00 -4.162554264068604404e+00 -6.794661879539489746e-01 2.000000000000000000e+00
2.122042417526245117e+00 -1.353973865509032981e+00 -6.744824051856994629e-01 1.500000000000000000e+01
2.463680028915404829e+00 -1.573166728019713911e+00 -6.748531460762023926e-01 1.200000000000000000e+01
2.898687362670897993e+00 -1.851650118827820046e+00 -6.685947179794311523e-01 1.100000000000000000e+01
3.575016498565673828e+00 -2.285439252853393999e+00 -6.720424890518188477e-01 1.000000000000000000e+01
4.524862289428710938e+00 -2.894883155822753906e+00 -6.595568656921386719e-01 1.700000000000000000e+01
6.531236648559570312e+00 -4.180113315582275391e+00 -6.784203052520751953e-01 2.000000000000000000e+00
2.114053487777709961e+00 -1.359283328056335005e+00 -6.734471321105957031e-01 1.500000000000000000e+01
2.461451292037963867e+00 -1.583866000175476074e+00 -6.757529377937316895e-01 1.100000000000000000e+01
2.902111053466796875e+00 -1.868133068084717019e+00 -6.708844304084777832e-01 1.100000000000000000e+01
3.550410747528076172e+00 -2.287206649780272993e+00 -6.689137816429138184e-01 1.000000000000000000e+01
4.531414031982421875e+00 -2.921416521072388139e+00 -6.619942784309387207e-01 2.600000000000000000e+01
6.511582851409912109e+00 -4.199646472930908203e+00 -6.778973937034606934e-01 2.000000000000000000e+00
2.109534263610839844e+00 -1.366286277770996094e+00 -6.734471321105957031e-01 1.600000000000000000e+01
2.459455966949462891e+00 -1.594139695167541948e+00 -6.766527891159057617e-01 1.200000000000000000e+01
2.895900249481201172e+00 -1.877746582031250000e+00 -6.708844304084777832e-01 1.100000000000000000e+01
3.542806625366210938e+00 -2.298967599868773970e+00 -6.689137816429138184e-01 1.000000000000000000e+01
4.543344020843505859e+00 -2.950482130050659180e+00 -6.651628613471984863e-01 4.000000000000000000e+01
6.509315967559813565e+00 -4.228814601898193359e+00 -6.791175603866577148e-01 3.000000000000000000e+00
2.107987880706787109e+00 -1.375753283500670943e+00 -6.744824051856994629e-01 1.600000000000000000e+01
2.447350025177001953e+00 -1.598452568054198997e+00 -6.748531460762023926e-01 1.100000000000000000e+01
2.902476310729980025e+00 -1.896434545516967995e+00 -6.739373803138732910e-01 1.100000000000000000e+01
3.543026447296143022e+00 -2.316725730895996094e+00 -6.704781055450439453e-01 9.000000000000000000e+00
4.513084888458251953e+00 -2.953279972076416016e+00 -6.622380018234252930e-01 1.400000000000000000e+01
6.516185283660888672e+00 -4.265696525573729581e+00 -6.813836097717285156e-01 3.000000000000000000e+00
2.115842580795288086e+00 -1.391964197158813032e+00 -6.786235570907592773e-01 1.600000000000000000e+01
2.443102836608887163e+00 -1.608483433723449929e+00 -6.753030419349670410e-01 1.200000000000000000e+01
2.895505905151367188e+00 -1.907059907913208008e+00 -6.739373803138732910e-01 1.200000000000000000e+01
3.541108846664429155e+00 -2.334044456481934038e+00 -6.717295646667480469e-01 9.000000000000000000e+00
4.507201194763183594e+00 -2.973080635070800781e+00 -6.629692316055297852e-01 1.600000000000000000e+01
6.502170085906982422e+00 -4.290648460388183594e+00 -6.815578937530517578e-01 3.000000000000000000e+00
4.462669754028320312e+01 -2.949298286437987926e+01 -9.337037205696105957e-01 1.400000000000000000e+01
2.107750415802001953e+00 -1.397206664085387962e+00 -6.775882840156555176e-01 1.600000000000000000e+01
2.435849189758300781e+00 -1.615924358367919922e+00 -6.748531460762023926e-01 1.100000000000000000e+01
2.879016637802124023e+00 -1.910641908645630105e+00 -6.716476678848266602e-01 1.200000000000000000e+01
3.547749757766724077e+00 -2.356226921081542969e+00 -6.745454072952270508e-01 1.000000000000000000e+01
4.508368492126464844e+00 -2.996487140655518022e+00 -6.646754145622253418e-01 1.700000000000000000e+01
6.483835220336914062e+00 -4.311112880706787109e+00 -6.812092661857604980e-01 4.000000000000000000e+00
2.093221664428710938e+00 -1.398117542266845925e+00 -6.744824051856994629e-01 1.900000000000000000e+01
2.443154811859130859e+00 -1.633080720901489036e+00 -6.784523725509643555e-01 1.100000000000000000e+01
2.882121801376343218e+00 -1.927227735519408958e+00 -6.739373803138732910e-01 1.100000000000000000e+01
3.536219835281372070e+00 -2.366399288177489790e+00 -6.739196777343750000e-01 1.000000000000000000e+01
4.504478931427001953e+00 -3.016624450683594194e+00 -6.656503677368164062e-01 2.900000000000000000e+01
6.453849792480468750e+00 -4.323739051818847656e+00 -6.796404719352722168e-01 3.000000000000000000e+00
2.091533899307250977e+00 -1.407572984695435014e+00 -6.755176782608032227e-01 2.300000000000000000e+01
2.434206724166870117e+00 -1.639421820640563965e+00 -6.775525808334350586e-01 1.100000000000000000e+01
2.883517742156981978e+00 -1.942761421203613059e+00 -6.758454442024230957e-01 1.200000000000000000e+01
3.518110990524291992e+00 -2.372102499008179155e+00 -6.720424890518188477e-01 1.000000000000000000e+01
4.520249843597412109e+00 -3.050095081329346147e+00 -6.695501804351806641e-01 2.700000000000000000e+01
6.408992767333984375e+00 -4.326176166534423828e+00 -6.765028834342956543e-01 3.000000000000000000e+00
2.093003511428833008e+00 -1.419201970100403054e+00 -6.775882840156555176e-01 2.300000000000000000e+01
2.418794155120850053e+00 -1.641343474388123003e+00 -6.748531460762023926e-01 1.100000000000000000e+01
2.875094413757324219e+00 -1.951712250709533913e+00 -6.754638552665710449e-01 1.100000000000000000e+01
3.509809255599976030e+00 -2.384368658065795898e+00 -6.720424890518188477e-01 1.000000000000000000e+01
4.511217117309570312e+00 -3.066971063613892046e+00 -6.697939038276672363e-01 2.200000000000000000e+01
6.382320404052734375e+00 -4.340677738189697266e+00 -6.752827167510986328e-01 4.000000000000000000e+00
2.096012592315673828e+00 -1.431948065757751021e+00 -6.801764369010925293e-01 2.500000000000000000e+01
2.419484853744506836e+00 -1.654175996780395952e+00 -6.766527891159057617e-01 1.100000000000000000e+01
2.861782312393188032e+00 -1.957303047180176003e+00 -6.739373803138732910e-01 1.100000000000000000e+01
3.511245489120482954e+00 -2.403300046920775923e+00 -6.739196777343750000e-01 1.000000000000000000e+01
4.507034778594970703e+00 -3.087186813354492188e+00 -6.707688570022583008e-01 2.600000000000000000e+01
6.370416641235351562e+00 -4.365182399749755859e+00 -6.756313443183898926e-01 5.000000000000000000e+00
2.084635972976685014e+00 -1.434874534606934038e+00 -6.781058907508850098e-01 2.500000000000000000e+01
2.420115232467650923e+00 -1.667033314704895020e+00 -6.784523725509643555e-01 1.100000000000000000e+01
2.851699352264403853e+00 -1.965052604675292969e+00 -6.731741428375244141e-01 1.200000000000000000e+01
3.509339809417725053e+00 -2.420027494430541992e+00 -6.751711368560791016e-01 1.000000000000000000e+01
4.510935306549072266e+00 -3.113048076629639116e+00 -6.729624867439270020e-01 2.900000000000000000e+01
6.286276817321777344e+00 -4.339851379394531250e+00 -6.683102250099182129e-01 6.000000000000000000e+00
2.073264837265015093e+00 -1.437739014625549094e+00 -6.760353446006774902e-01 2.100000000000000000e+01
2.420685529708861861e+00 -1.679915189743041992e+00 -6.802520155906677246e-01 1.100000000000000000e+01
2.846435308456420898e+00 -1.976114511489867942e+00 -6.735557317733764648e-01 1.000000000000000000e+01
3.502493381500244141e+00 -2.433389902114868164e+00 -6.754840016365051270e-01 1.000000000000000000e+01
4.521229267120361328e+00 -3.143506765365601030e+00 -6.761311292648315430e-01 2.400000000000000000e+01
6.266182422637938565e+00 -4.358355045318604404e+00 -6.677873134613037109e-01 7.000000000000000000e+00
2.069817066192626953e+00 -1.446073651313781960e+00 -6.765530109405517578e-01 2.300000000000000000e+01
2.411612510681151900e+00 -1.686121463775634988e+00 -6.793521642684936523e-01 1.100000000000000000e+01
2.837911128997803178e+00 -1.984913229942321999e+00 -6.731741428375244141e-01 1.100000000000000000e+01
3.495596170425415039e+00 -2.446733713150023970e+00 -6.757968664169311523e-01 1.000000000000000000e+01
4.515106678009033203e+00 -3.162686347961425781e+00 -6.768623590469360352e-01 2.100000000000000000e+01
6.262352466583251953e+00 -4.388205051422119141e+00 -6.690074801445007324e-01 7.000000000000000000e+00
2.072655677795410156e+00 -1.458849549293518066e+00 -6.791411638259887695e-01 2.400000000000000000e+01
2.402525901794434038e+00 -1.692284822463989036e+00 -6.784523725509643555e-01 1.100000000000000000e+01
2.840594530105590820e+00 -2.001592397689818892e+00 -6.754638552665710449e-01 1.200000000000000000e+01
3.483805418014525923e+00 -2.456643819808959961e+00 -6.751711368560791016e-01 1.000000000000000000e+01
4.510527133941650391e+00 -3.183005809783935991e+00 -6.778373122215270996e-01 1.500000000000000000e+01
6.235603332519531250e+00 -4.401994705200195312e+00 -6.677873134613037109e-01 7.000000000000000000e+00
2.073854207992554155e+00 -1.470545291900634988e+00 -6.812117099761962891e-01 2.700000000000000000e+01
2.399782419204711914e+00 -1.702916383743285911e+00 -6.793521642684936523e-01 1.100000000000000000e+01
2.836791992187500000e+00 -2.013768434524536133e+00 -6.762270927429199219e-01 1.200000000000000000e+01
3.484871149063109907e+00 -2.475653886795043945e+00 -6.770483851432800293e-01 1.000000000000000000e+01
4.486445426940917969e+00 -3.189529418945312944e+00 -6.758874058723449707e-01 1.500000000000000000e+01
6.168242454528808594e+00 -4.386783123016357422e+00 -6.622093319892883301e-01 8.000000000000000000e+00
2.068708419799805132e+00 -1.477775454521178977e+00 -6.812117099761962891e-01 2.400000000000000000e+01
2.384311676025391069e+00 -1.704483032226562944e+00 -6.766527891159057617e-01 1.100000000000000000e+01
2.828148603439331055e+00 -2.022516489028931108e+00 -6.758454442024230957e-01 1.200000000000000000e+01
3.482633829116820845e+00 -2.492401838302611861e+00 -6.782998442649841309e-01 1.000000000000000000e+01
4.452690601348876953e+00 -3.188988924026488814e+00 -6.724750399589538574e-01 1.400000000000000000e+01
6.146413803100585938e+00 -4.403645992279052734e+00 -6.615120768547058105e-01 1.100000000000000000e+01
2.049682378768920898e+00 -1.474474191665648970e+00 -6.765530109405517578e-01 2.300000000000000000e+01
2.391298770904541016e+00 -1.721488714218140093e+00 -6.802520155906677246e-01 1.200000000000000000e+01
2.819833040237427202e+00 -2.030736446380614790e+00 -6.754638552665710449e-01 1.100000000000000000e+01
3.471144437789916992e+00 -2.501626968383789062e+00 -6.776741147041320801e-01 1.000000000000000000e+01
4.480731487274169922e+00 -3.231605529785155806e+00 -6.783247590065002441e-01 1.400000000000000000e+01
6.109156608581542969e+00 -4.407683849334716797e+00 -6.590717434883117676e-01 1.200000000000000000e+01
2.050780296325684038e+00 -1.486154317855834961e+00 -6.786235570907592773e-01 2.300000000000000000e+01
2.388430118560791016e+00 -1.732113599777221902e+00 -6.811518073081970215e-01 1.100000000000000000e+01
2.811138153076171875e+00 -2.039414405822753906e+00 -6.750822067260742188e-01 1.000000000000000000e+01
3.455996990203856978e+00 -2.509086132049560991e+00 -6.764226555824279785e-01 1.000000000000000000e+01
4.493513584136962891e+00 -3.264728784561156782e+00 -6.819808483123779297e-01 1.500000000000000000e+01
6.084063529968261719e+00 -4.421953678131104404e+00 -6.580258607864379883e-01 9.000000000000000000e+00
2.054941892623900923e+00 -1.500138163566588911e+00 -6.817293763160705566e-01 2.300000000000000000e+01
2.369781017303466797e+00 -1.731243729591370073e+00 -6.775525808334350586e-01 1.100000000000000000e+01
2.821437835693358931e+00 -2.061957120895386186e+00 -6.792800426483154297e-01 1.100000000000000000e+01
3.450406551361083984e+00 -2.523466825485229048e+00 -6.770483851432800293e-01 1.000000000000000000e+01
4.483692169189453125e+00 -3.281566619873046875e+00 -6.822245717048645020e-01 1.500000000000000000e+01
6.033224582672119141e+00 -4.417270183563232422e+00 -6.541910171508789062e-01 1.200000000000000000e+01
2.057474613189696822e+00 -1.513024568557739036e+00 -6.843175292015075684e-01 2.100000000000000000e+01
2.362153768539429155e+00 -1.738350152969359907e+00 -6.771026849746704102e-01 1.300000000000000000e+01
2.798412799835205078e+00 -2.060153961181641069e+00 -6.754638552665710449e-01 1.100000000000000000e+01
3.454299926757812944e+00 -2.544868946075439009e+00 -6.795513033866882324e-01 1.000000000000000000e+01
4.469014167785645419e+00 -3.294841527938843218e+00 -6.817371249198913574e-01 1.400000000000000000e+01
6.004940986633300781e+00 -4.428842067718505859e+00 -6.527965068817138672e-01 1.100000000000000000e+01
2.039762020111083984e+00 -1.510998010635375977e+00 -6.801764369010925293e-01 2.100000000000000000e+01
2.370160818099976030e+00 -1.757029771804810014e+00 -6.811518073081970215e-01 1.100000000000000000e+01
2.786473751068114790e+00 -2.066401243209838867e+00 -6.743189692497253418e-01 1.200000000000000000e+01
3.439050674438477007e+00 -2.552202224731444868e+00 -6.782998442649841309e-01 1.000000000000000000e+01
4.460673332214354581e+00 -3.312788486480712891e+00 -6.822245717048645020e-01 1.400000000000000000e+01
6.079006671905517578e+00 -4.516314983367919922e+00 -6.625579595565795898e-01 1.000000000000000000e+01
2.029830217361450195e+00 -1.514642834663390891e+00 -6.786235570907592773e-01 1.900000000000000000e+01
2.370259046554564986e+00 -1.769956350326538086e+00 -6.829513907432556152e-01 1.100000000000000000e+01
2.790253639221190962e+00 -2.084339857101439986e+00 -6.769903302192687988e-01 1.100000000000000000e+01
3.436449527740478960e+00 -2.568922281265258789e+00 -6.795513033866882324e-01 1.000000000000000000e+01
4.458619594573974609e+00 -3.335473537445067915e+00 -6.836870312690734863e-01 1.500000000000000000e+01
6.047253131866455078e+00 -4.525569438934326172e+00 -6.608148217201232910e-01 6.000000000000000000e+00
2.030974388122559038e+00 -1.526007533073425071e+00 -6.806941032409667969e-01 1.700000000000000000e+01
2.361261367797852007e+00 -1.775464415550231934e+00 -6.820515990257263184e-01 1.100000000000000000e+01
2.786464214324951172e+00 -2.095941543579102007e+00 -6.777535676956176758e-01 1.100000000000000000e+01
3.424755096435546875e+00 -2.577927827835083008e+00 -6.789255738258361816e-01 1.000000000000000000e+01
4.460218906402587891e+00 -3.359795570373535156e+00 -6.856369376182556152e-01 1.400000000000000000e+01
5.946288108825683594e+00 -4.480849266052246094e+00 -6.514019966125488281e-01 7.000000000000000000e+00
2.028716087341309038e+00 -1.535419344902039018e+00 -6.817293763160705566e-01 1.700000000000000000e+01
2.351942539215087891e+00 -1.781342744827270952e+00 -6.811518073081970215e-01 1.100000000000000000e+01
2.788520097732543945e+00 -2.112769126892089844e+00 -6.800432801246643066e-01 1.100000000000000000e+01
3.422031879425048828e+00 -2.594640731811522993e+00 -6.801770329475402832e-01 1.000000000000000000e+01
4.450045108795166016e+00 -3.376543998718262163e+00 -6.858806610107421875e-01 1.200000000000000000e+01
5.941719532012938565e+00 -4.510010719299316406e+00 -6.526222229003906250e-01 7.000000000000000000e+00
2.026416540145874023e+00 -1.544834017753601074e+00 -6.827646493911743164e-01 1.500000000000000000e+01
2.339512825012207031e+00 -1.784813761711121050e+00 -6.793521642684936523e-01 1.100000000000000000e+01
2.770203351974486861e+00 -2.114152431488037109e+00 -6.773719191551208496e-01 1.100000000000000000e+01
3.416093826293944868e+00 -2.608968019485474077e+00 -6.808027625083923340e-01 1.000000000000000000e+01
4.433500289916992188e+00 -3.388440847396851030e+00 -6.851494312286376953e-01 1.000000000000000000e+01
5.924357891082763672e+00 -4.529513359069824219e+00 -6.524478793144226074e-01 7.000000000000000000e+00
2.019479513168334961e+00 -1.550721526145935059e+00 -6.822469830513000488e-01 1.400000000000000000e+01
2.347175359725952148e+00 -1.803655862808227983e+00 -6.834012866020202637e-01 1.300000000000000000e+01
2.767476320266724077e+00 -2.127398967742919922e+00 -6.785168051719665527e-01 1.100000000000000000e+01
3.410097599029541016e+00 -2.623285293579102007e+00 -6.814285516738891602e-01 1.000000000000000000e+01
4.424791336059570312e+00 -3.406317710876464844e+00 -6.856369376182556152e-01 1.000000000000000000e+01
5.891146659851074219e+00 -4.536793708801270419e+00 -6.505304574966430664e-01 7.000000000000000000e+00
2.006413698196411133e+00 -1.551851749420166016e+00 -6.796588301658630371e-01 1.500000000000000000e+01
2.345488309860229048e+00 -1.815416336059570090e+00 -6.847510337829589844e-01 1.100000000000000000e+01
2.761585712432860884e+00 -2.138248205184936968e+00 -6.788983941078186035e-01 1.200000000000000000e+01
3.410288810729980025e+00 -2.642432212829589844e+00 -6.833057403564453125e-01 1.000000000000000000e+01
4.423855304718017578e+00 -3.430257320404053178e+00 -6.873431205749511719e-01 1.200000000000000000e+01
5.894165992736816406e+00 -4.571983814239501953e+00 -6.526222229003906250e-01 7.000000000000000000e+00
2.007080316543579102e+00 -1.563594937324523926e+00 -6.817293763160705566e-01 1.300000000000000000e+01
2.334526300430297852e+00 -1.819998145103455034e+00 -6.834012866020202637e-01 1.200000000000000000e+01
2.755653142929077148e+00 -2.149082183837891069e+00 -6.792800426483154297e-01 1.100000000000000000e+01
3.388586044311522993e+00 -2.644597530364989790e+00 -6.808027625083923340e-01 1.000000000000000000e+01
4.427499294281005859e+00 -3.457897186279296875e+00 -6.897804737091064453e-01 1.200000000000000000e+01
5.892301082611083984e+00 -4.603569984436035156e+00 -6.541910171508789062e-01 6.000000000000000000e+00
2.007689476013184038e+00 -1.575361728668212891e+00 -6.837999224662780762e-01 1.400000000000000000e+01
2.323561191558837891e+00 -1.824525475502013938e+00 -6.820515990257263184e-01 1.100000000000000000e+01
2.757398128509521040e+00 -2.165964603424071822e+00 -6.815697550773620605e-01 1.100000000000000000e+01
3.385545969009398970e+00 -2.661292791366577148e+00 -6.820542812347412109e-01 1.000000000000000000e+01
4.409161090850830078e+00 -3.468421697616577148e+00 -6.888055205345153809e-01 1.200000000000000000e+01
5.716490745544433594e+00 -4.498435020446777344e+00 -6.364112496376037598e-01 1.300000000000000000e+01
2.003693819046020952e+00 -1.583558082580565962e+00 -6.843175292015075684e-01 1.400000000000000000e+01
2.314121246337891069e+00 -1.830207467079163042e+00 -6.811518073081970215e-01 1.100000000000000000e+01
2.745201587677001953e+00 -2.171922206878662109e+00 -6.804248690605163574e-01 1.000000000000000000e+01
3.376235723495482954e+00 -2.673094511032104048e+00 -6.820542812347412109e-01 1.000000000000000000e+01
4.393915176391601562e+00 -3.481325864791870117e+00 -6.883180737495422363e-01 1.200000000000000000e+01
5.791316032409667969e+00 -4.590140819549561435e+00 -6.465212702751159668e-01 1.200000000000000000e+01
2.001455068588256836e+00 -1.592599630355834961e+00 -6.853528022766113281e-01 1.400000000000000000e+01
2.314137220382689986e+00 -1.842726945877074973e+00 -6.829513907432556152e-01 1.200000000000000000e+01
2.736448526382445845e+00 -2.179790496826171875e+00 -6.800432801246643066e-01 1.100000000000000000e+01
3.379710197448730025e+00 -2.694126367568970171e+00 -6.845571994781494141e-01 1.000000000000000000e+01
4.380795001983642578e+00 -3.494639635086060014e+00 -6.880742907524108887e-01 1.400000000000000000e+01
5.843027114868164062e+00 -4.662757873535156250e+00 -6.540166735649108887e-01 6.000000000000000000e+00
1.982316374778748003e+00 -1.588703036308289018e+00 -6.806941032409667969e-01 1.400000000000000000e+01
2.313771486282349077e+00 -1.855670452117919922e+00 -6.847510337829589844e-01 1.100000000000000000e+01
2.727291822433472124e+00 -2.188100576400756836e+00 -6.796616315841674805e-01 1.000000000000000000e+01
3.361043214797974077e+00 -2.698487043380736861e+00 -6.826800107955932617e-01 1.000000000000000000e+01
4.385591983795166016e+00 -3.523586750030518022e+00 -6.907554268836975098e-01 1.200000000000000000e+01
5.804974079132080078e+00 -4.665651321411132812e+00 -6.515763401985168457e-01 8.000000000000000000e+00
1.984274864196776900e+00 -1.601679921150207964e+00 -6.832822561264038086e-01 1.400000000000000000e+01
2.307280063629149947e+00 -1.863735795021056907e+00 -6.847510337829589844e-01 1.100000000000000000e+01
2.727272272109984907e+00 -2.203776836395264116e+00 -6.815697550773620605e-01 1.100000000000000000e+01
3.354675292968750000e+00 -2.712687015533446822e+00 -6.833057403564453125e-01 1.000000000000000000e+01
4.379438400268554688e+00 -3.543868780136107954e+00 -6.917303800582885742e-01 1.200000000000000000e+01
5.830464839935302734e+00 -4.719732284545898438e+00 -6.562827229499816895e-01 8.000000000000000000e+00
1.983168840408324973e+00 -1.612252473831176980e+00 -6.848351955413818359e-01 1.500000000000000000e+01
2.294713735580443892e+00 -1.866859078407288042e+00 -6.829513907432556152e-01 1.100000000000000000e+01
2.716517686843872070e+00 -2.210804939270019975e+00 -6.808065176010131836e-01 1.100000000000000000e+01
3.335995912551879883e+00 -2.716895818710327148e+00 -6.814285516738891602e-01 1.000000000000000000e+01
4.370118618011474609e+00 -3.561642408370972124e+00 -6.922178864479064941e-01 1.200000000000000000e+01
5.801600456237792969e+00 -4.729983806610107422e+00 -6.548882722854614258e-01 6.000000000000000000e+00
1.976316571235656960e+00 -1.617596387863158958e+00 -6.843175292015075684e-01 1.500000000000000000e+01
2.300570964813231978e+00 -1.884336948394774947e+00 -6.865506172180175781e-01 1.400000000000000000e+01
2.712208747863769975e+00 -2.222289562225341797e+00 -6.815697550773620605e-01 1.100000000000000000e+01
3.342243194580078125e+00 -2.740468502044678178e+00 -6.845571994781494141e-01 1.000000000000000000e+01
4.355214595794677734e+00 -3.573596239089965820e+00 -6.917303800582885742e-01 1.200000000000000000e+01
5.829004287719726562e+00 -4.784591674804688388e+00 -6.597689986228942871e-01 7.000000000000000000e+00
1.970658063888550027e+00 -1.624485135078429954e+00 -6.843175292015075684e-01 1.400000000000000000e+01
2.286463022232056108e+00 -1.886155486106873003e+00 -6.843010783195495605e-01 1.200000000000000000e+01
2.701406478881835938e+00 -2.229244232177733931e+00 -6.808065176010131836e-01 1.100000000000000000e+01
3.337226390838623047e+00 -2.755891799926757812e+00 -6.854958534240722656e-01 1.100000000000000000e+01
4.348834514617919922e+00 -3.593835115432738814e+00 -6.927053332328796387e-01 1.200000000000000000e+01
5.850657463073729581e+00 -4.836645603179931641e+00 -6.641267538070678711e-01 7.000000000000000000e+00
1.957543730735779031e+00 -1.625184178352355957e+00 -6.817293763160705566e-01 1.400000000000000000e+01
2.288858652114868164e+00 -1.901597142219543013e+00 -6.870005130767822266e-01 1.300000000000000000e+01
2.695118427276610884e+00 -2.239915132522583008e+00 -6.811881065368652344e-01 1.100000000000000000e+01
3.326067447662353960e+00 -2.766261100769042969e+00 -6.851829290390014648e-01 1.100000000000000000e+01
4.336263656616210938e+00 -3.608993530273437944e+00 -6.927053332328796387e-01 1.200000000000000000e+01
5.777085781097412109e+00 -4.809870719909667969e+00 -6.576772332191467285e-01 7.000000000000000000e+00
1.954823017120361106e+00 -1.634485721588134988e+00 -6.827646493911743164e-01 1.400000000000000000e+01
2.279217958450316939e+00 -1.907074093818664995e+00 -6.861007213592529297e-01 1.300000000000000000e+01
2.694810628890991211e+00 -2.255609750747681108e+00 -6.830962300300598145e-01 1.100000000000000000e+01
3.313362360000609907e+00 -2.775317430496215820e+00 -6.845571994781494141e-01 1.000000000000000000e+01
4.329724788665770596e+00 -3.629208803176879883e+00 -6.936802864074707031e-01 1.200000000000000000e+01
5.690032482147216797e+00 -4.771120548248291016e+00 -6.496589183807373047e-01 6.000000000000000000e+00
1.956494212150573953e+00 -1.647521138191222922e+00 -6.853528022766113281e-01 1.400000000000000000e+01
2.262115716934204102e+00 -1.906228184700011985e+00 -6.829513907432556152e-01 1.100000000000000000e+01
2.685419559478760210e+00 -2.263737440109252930e+00 -6.827145814895629883e-01 1.000000000000000000e+01
3.306674242019652876e+00 -2.789413690567017046e+00 -6.851829290390014648e-01 1.000000000000000000e+01
2.855030059814453125e+01 -2.409272956848144887e+01 4.586918354034423828e+00 1.900000000000000000e+01
4.320063591003417969e+00 -3.646861314773560014e+00 -6.941677927970886230e-01 1.200000000000000000e+01
5.709877014160156250e+00 -4.821804523468017578e+00 -6.538423895835876465e-01 8.000000000000000000e+00
1.958098173141479048e+00 -1.660588026046752930e+00 -6.879410147666931152e-01 1.600000000000000000e+01
2.258419513702393022e+00 -1.916634798049926980e+00 -6.838511824607849121e-01 1.100000000000000000e+01
2.681991100311278853e+00 -2.276909351348876953e+00 -6.838594675064086914e-01 1.000000000000000000e+01
3.298422813415526900e+00 -2.802218198776245117e+00 -6.854958534240722656e-01 1.100000000000000000e+01
2.846602630615234020e+01 -2.419224166870116832e+01 4.586918354034423828e+00 1.900000000000000000e+01
4.301258087158203125e+00 -3.656775712966918945e+00 -6.931928396224975586e-01 1.200000000000000000e+01
5.530613422393798828e+00 -4.703593254089354581e+00 -6.351910233497619629e-01 6.000000000000000000e+00
1.948173046112060991e+00 -1.663309097290039062e+00 -6.863881349563598633e-01 1.500000000000000000e+01
2.260941028594971147e+00 -1.931708574295043945e+00 -6.865506172180175781e-01 1.200000000000000000e+01
2.666963815689086914e+00 -2.279412746429442915e+00 -6.819513440132141113e-01 1.100000000000000000e+01
3.299620389938354048e+00 -2.822128295898437944e+00 -6.876859068870544434e-01 1.000000000000000000e+01
4.292124271392822266e+00 -3.673600673675537109e+00 -6.936802864074707031e-01 1.200000000000000000e+01
5.496824264526367188e+00 -4.706357955932617188e+00 -6.330993175506591797e-01 6.000000000000000000e+00
1.932101368904113992e+00 -1.661282777786255105e+00 -6.827646493911743164e-01 1.500000000000000000e+01
2.258615732192993164e+00 -1.943402051925658958e+00 -6.879003047943115234e-01 1.300000000000000000e+01
2.661966800689696822e+00 -2.291269779205321822e+00 -6.827145814895629883e-01 1.000000000000000000e+01
3.288252592086791992e+00 -2.832339763641356978e+00 -6.873730421066284180e-01 1.100000000000000000e+01
4.303332328796386719e+00 -3.709297418594359907e+00 -6.975800991058349609e-01 1.200000000000000000e+01
5.435095310211181641e+00 -4.686484336853027344e+00 -6.278699636459350586e-01 6.000000000000000000e+00
1.935053229331969993e+00 -1.675604581832885964e+00 -6.858704686164855957e-01 1.500000000000000000e+01
2.250345706939696822e+00 -1.949998140335083008e+00 -6.874504089355468750e-01 1.100000000000000000e+01
2.661370038986206055e+00 -2.306977510452270952e+00 -6.846227049827575684e-01 1.100000000000000000e+01
3.264916181564331055e+00 -2.832151174545288086e+00 -6.845571994781494141e-01 1.000000000000000000e+01
4.299353122711181641e+00 -3.732104063034058061e+00 -6.990425586700439453e-01 1.200000000000000000e+01
5.539052009582520419e+00 -4.809935092926025391e+00 -6.418148875236511230e-01 9.000000000000000000e+00
1.930648446083069070e+00 -1.683618664741515891e+00 -6.863881349563598633e-01 1.500000000000000000e+01
2.236183643341064009e+00 -1.951434850692749023e+00 -6.852009296417236328e-01 1.200000000000000000e+01
2.659216880798339844e+00 -2.321417808532714844e+00 -6.861491203308105469e-01 1.100000000000000000e+01
3.260960817337036133e+00 -2.848728895187377930e+00 -6.858087182044982910e-01 1.000000000000000000e+01
4.274343013763427734e+00 -3.736636638641356978e+00 -6.970926523208618164e-01 1.200000000000000000e+01
5.622714519500732422e+00 -4.917116165161132812e+00 -6.534937620162963867e-01 9.000000000000000000e+00
1.938120722770690918e+00 -1.701482415199280007e+00 -6.910468339920043945e-01 1.500000000000000000e+01
2.234092235565185991e+00 -1.962698101997375044e+00 -6.865506172180175781e-01 1.400000000000000000e+01
2.644130706787108931e+00 -2.323743343353271040e+00 -6.842410564422607422e-01 1.000000000000000000e+01
3.266329765319824219e+00 -2.872572422027587891e+00 -6.889373660087585449e-01 1.000000000000000000e+01
4.279810428619384766e+00 -3.766527891159058061e+00 -7.000175118446350098e-01 1.200000000000000000e+01
5.618340969085693359e+00 -4.946267127990722656e+00 -6.548882722854614258e-01 1.000000000000000000e+01
1.930722355842590110e+00 -1.706957697868346946e+00 -6.905292272567749023e-01 1.500000000000000000e+01
2.230146646499633789e+00 -1.973067045211791992e+00 -6.874504089355468750e-01 1.400000000000000000e+01
2.631592750549315962e+00 -2.329055547714232954e+00 -6.830962300300598145e-01 1.100000000000000000e+01
3.256282567977904829e+00 -2.883956432342528853e+00 -6.889373660087585449e-01 1.000000000000000000e+01
4.275550365447998047e+00 -3.789344310760498047e+00 -7.014799118041992188e-01 1.300000000000000000e+01
5.569733619689941406e+00 -4.938091754913330078e+00 -6.512277126312255859e-01 7.000000000000000000e+00
1.914949774742126021e+00 -1.704360246658324973e+00 -6.869057416915893555e-01 1.600000000000000000e+01
2.232322931289672852e+00 -1.988228321075439009e+00 -6.901498436927795410e-01 1.400000000000000000e+01
2.634115695953369141e+00 -2.346911430358887163e+00 -6.857675313949584961e-01 1.100000000000000000e+01
3.245226621627808061e+00 -2.893424272537231001e+00 -6.886245012283325195e-01 1.000000000000000000e+01
2.824984741210937855e+01 -2.519624137878417969e+01 4.647852897644042969e+00 1.900000000000000000e+01
4.258517265319824219e+00 -3.799536943435668945e+00 -7.007487416267395020e-01 1.000000000000000000e+01
5.542922973632813388e+00 -4.947247982025145596e+00 -6.500075459480285645e-01 1.200000000000000000e+01
1.911865949630737083e+00 -1.713613033294677956e+00 -6.879410147666931152e-01 1.600000000000000000e+01
2.219566345214844194e+00 -1.990803718566894975e+00 -6.883502006530761719e-01 1.300000000000000000e+01
2.627368688583374023e+00 -2.357403039932250977e+00 -6.861491203308105469e-01 1.100000000000000000e+01
3.230697631835937944e+00 -2.900775432586669922e+00 -6.876859068870544434e-01 1.000000000000000000e+01
4.254088401794433594e+00 -3.822339296340941939e+00 -7.022111415863037109e-01 1.300000000000000000e+01
5.504874706268311435e+00 -4.947919845581054688e+00 -6.475671529769897461e-01 9.000000000000000000e+00
1.915911078453063965e+00 -1.729337215423583984e+00 -6.915645003318786621e-01 1.600000000000000000e+01
2.206819057464600053e+00 -1.993314385414123979e+00 -6.865506172180175781e-01 1.400000000000000000e+01
2.624950647354125977e+00 -2.371824741363524947e+00 -6.876755952835083008e-01 1.100000000000000000e+01
3.229343652725220171e+00 -2.919984102249145952e+00 -6.895630955696105957e-01 1.000000000000000000e+01
4.234831809997558594e+00 -3.831837892532349077e+00 -7.012361884117126465e-01 1.100000000000000000e+01
5.499386787414550781e+00 -4.977801799774169922e+00 -6.489616632461547852e-01 1.900000000000000000e+01
3.741381835937500000e+01 -3.391287994384766336e+01 -8.814163208007812500e-01 1.300000000000000000e+01
1.908433437347412109e+00 -1.734714984893799050e+00 -6.910468339920043945e-01 1.600000000000000000e+01
2.198405981063843218e+00 -1.999694228172302024e+00 -6.861007213592529297e-01 1.300000000000000000e+01
2.618107318878173828e+00 -2.382294416427611861e+00 -6.880572438240051270e-01 1.000000000000000000e+01
3.220591783523560014e+00 -2.932568788528441939e+00 -6.898760199546813965e-01 1.000000000000000000e+01
4.233169078826904297e+00 -3.857293128967285156e+00 -7.031860947608947754e-01 1.100000000000000000e+01
5.481977462768554688e+00 -4.996967792510986328e+00 -6.489616632461547852e-01 1.800000000000000000e+01
1.899516463279723899e+00 -1.738757371902466042e+00 -6.900115609169006348e-01 1.700000000000000000e+01
2.204345226287841797e+00 -2.019202709197998047e+00 -6.901498436927795410e-01 1.300000000000000000e+01
2.606880664825439009e+00 -2.388766050338745117e+00 -6.872940063476562500e-01 1.000000000000000000e+01
3.221983194351195845e+00 -2.954473257064818892e+00 -6.923789381980895996e-01 1.000000000000000000e+01
4.216753482818604404e+00 -3.869361877441405806e+00 -7.026986479759216309e-01 1.100000000000000000e+01
5.443953037261962891e+00 -4.997210502624511719e+00 -6.465212702751159668e-01 1.300000000000000000e+01
1.884912967681884988e+00 -1.737521171569823997e+00 -6.869057416915893555e-01 1.600000000000000000e+01
2.197283506393433061e+00 -2.026885032653809038e+00 -6.901498436927795410e-01 1.300000000000000000e+01
2.594197988510131836e+00 -2.393857002258300781e+00 -6.861491203308105469e-01 1.000000000000000000e+01
3.204394102096558061e+00 -2.959001541137694868e+00 -6.908146142959594727e-01 1.000000000000000000e+01
4.209053039550781250e+00 -3.889446258544921875e+00 -7.036736011505126953e-01 1.100000000000000000e+01
5.467441558837890625e+00 -5.054050922393798828e+00 -6.514019966125488281e-01 9.000000000000000000e+00
1.879642844200134055e+00 -1.746060729026793990e+00 -6.874234080314636230e-01 1.600000000000000000e+01
2.183775424957274947e+00 -2.029999732971190962e+00 -6.883502006530761719e-01 1.200000000000000000e+01
2.589300394058227983e+00 -2.407811164855957031e+00 -6.872940063476562500e-01 1.000000000000000000e+01
3.191562652587891069e+00 -2.969937801361083984e+00 -6.905017495155334473e-01 9.000000000000000000e+00
4.202804088592529297e+00 -3.913696050643920898e+00 -7.051360011100769043e-01 1.100000000000000000e+01
5.496104240417479581e+00 -5.119822502136229581e+00 -6.571543216705322266e-01 7.000000000000000000e+00
1.882001280784606934e+00 -1.760529637336730957e+00 -6.905292272567749023e-01 1.500000000000000000e+01
2.175253391265869141e+00 -2.036278486251831055e+00 -6.879003047943115234e-01 1.300000000000000000e+01
2.590910911560059038e+00 -2.426228523254394975e+00 -6.899653077125549316e-01 9.000000000000000000e+00
3.179734706878662109e+00 -2.979709625244141069e+00 -6.901888847351074219e-01 1.000000000000000000e+01
4.189116954803466797e+00 -3.928342819213867188e+00 -7.051360011100769043e-01 1.100000000000000000e+01
5.441871643066406250e+00 -5.104898452758789062e+00 -6.527965068817138672e-01 1.100000000000000000e+01
1.883494377136230025e+00 -1.773054242134094016e+00 -6.931173801422119141e-01 1.500000000000000000e+01
2.171682596206665039e+00 -2.045774459838867188e+00 -6.888001561164855957e-01 1.600000000000000000e+01
2.576131820678710938e+00 -2.427623987197875977e+00 -6.880572438240051270e-01 1.000000000000000000e+01
3.181855201721190962e+00 -3.000526428222655806e+00 -6.926918029785156250e-01 1.000000000000000000e+01
2.621840095520019887e+01 -2.473290252685546875e+01 4.425563335418701172e+00 1.800000000000000000e+01
4.176754951477050781e+00 -3.941483974456787109e+00 -7.051360011100769043e-01 1.100000000000000000e+01
2.781985664367676137e+01 -2.625279998779296875e+01 6.058393955230712891e+00 1.400000000000000000e+01
5.443193435668945312e+00 -5.138381481170654297e+00 -6.548882722854614258e-01 8.000000000000000000e+00
1.871685743331908958e+00 -1.774301767349242942e+00 -6.910468339920043945e-01 1.600000000000000000e+01
2.164528131484984907e+00 -2.053342580795288086e+00 -6.888001561164855957e-01 1.500000000000000000e+01
2.561945915222167969e+00 -2.431195735931396040e+00 -6.865307688713073730e-01 1.100000000000000000e+01
3.171362161636352983e+00 -3.011614799499512163e+00 -6.926918029785156250e-01 1.000000000000000000e+01
4.162971496582031250e+00 -3.956039428710937944e+00 -7.051360011100769043e-01 1.100000000000000000e+01
2.758027839660644887e+01 -2.621848678588866832e+01 6.027107238769531250e+00 1.300000000000000000e+01
5.425223827362061435e+00 -5.157350540161132812e+00 -6.548882722854614258e-01 7.000000000000000000e+00
1.858494043350219949e+00 -1.774154663085937944e+00 -6.884586811065673828e-01 1.900000000000000000e+01
2.165802240371704102e+00 -2.068962335586547852e+00 -6.914995312690734863e-01 1.800000000000000000e+01
2.561959981918334961e+00 -2.448262214660644975e+00 -6.888204813003540039e-01 1.100000000000000000e+01
3.156547307968140093e+00 -3.018570899963378906e+00 -6.917532086372375488e-01 9.000000000000000000e+00
2.699469375610351918e+01 -2.582374382019042969e+01 4.586918354034423828e+00 1.900000000000000000e+01
4.156307697296142578e+00 -3.977409124374390093e+00 -7.063547372817993164e-01 9.000000000000000000e+00
2.706502914428710938e+01 -2.590007781982421875e+01 5.933246612548828125e+00 1.300000000000000000e+01
