3.501605987548828125e+01 -4.740580081939697266e+00 9.468118667602539062e+00 7.000000000000000000e+00
2.407899141311645952e+00 -3.289849162101746161e-01 -6.511887311935424805e-01 1.900000000000000000e+01
2.753192663192749023e+00 -3.771404623985291082e-01 -6.415604352951049805e-01 1.300000000000000000e+01
3.222937107086182085e+00 -4.420605301856995184e-01 -6.323410272598266602e-01 1.300000000000000000e+01
3.882607698440552202e+00 -5.339223146438598633e-01 -6.207319498062133789e-01 9.000000000000000000e+00
3.599353408813477273e+01 -4.956102848052979404e+00 4.461149215698242188e+00 1.900000000000000000e+01
4.955554962158203125e+00 -6.832327842712402344e-01 -6.142215132713317871e-01 1.000000000000000000e+01
6.594035625457763672e+00 -9.103063941001892090e-01 -5.823746919631958008e-01 6.000000000000000000e+00
1.021447753906250000e+01 -1.413741946220397949e+00 -5.404210686683654785e-01 2.000000000000000000e+00
3.332070541381835938e+01 -4.617702484130859375e+00 7.766210079193115234e+00 9.000000000000000000e+00
2.033404350280762074e+01 -2.821581602096558061e+00 -3.583328127861022949e-01 3.000000000000000000e+00
3.492551803588867188e+01 -4.846316337585449219e+00 9.447930335998535156e+00 1.400000000000000000e+01
2.387604713439940962e+00 -3.347060978412628174e-01 -6.460123658180236816e-01 1.900000000000000000e+01
5.975305938720703125e+01 -8.387110710144042969e+00 1.053217768669127974e+00 6.200000000000000000e+01
2.747999668121337891e+00 -3.862061798572539728e-01 -6.406605839729309082e-01 1.400000000000000000e+01
3.209709644317626953e+00 -4.516665637493134100e-01 -6.300513148307800293e-01 1.200000000000000000e+01
3.892456293106079102e+00 -5.491275787353515625e-01 -6.226091980934143066e-01 1.000000000000000000e+01
3.908163070678710938e+01 -5.520390510559082031e+00 4.846256256103515625e+00 2.000000000000000000e+01
4.961001873016357422e+00 -7.016386985778808594e-01 -6.151964664459228516e-01 1.000000000000000000e+01
6.582927227020263672e+00 -9.322009086608886719e-01 -5.816774368286132812e-01 5.000000000000000000e+00
1.028857803344726918e+01 -1.460617542266845925e+00 -5.446079373359680176e-01 2.000000000000000000e+00
3.559258651733397727e+01 -5.059237480163574219e+00 8.299794197082519531e+00 1.000000000000000000e+01
2.042305755615234020e+01 -2.906631469726562944e+00 -3.600780367851256769e-01 3.000000000000000000e+00
3.439113616943358664e+01 -4.900707721710205078e+00 9.308168411254882812e+00 1.300000000000000000e+01
2.378713130950928178e+00 -3.423540294170380194e-01 -6.439417600631713867e-01 1.800000000000000000e+01
5.972192001342772727e+01 -8.606060028076171875e+00 1.053217768669127974e+00 6.200000000000000000e+01
2.756209611892700195e+00 -3.976669311523438055e-01 -6.429101228713989258e-01 1.300000000000000000e+01
3.219691276550292969e+00 -4.651118814945220947e-01 -6.323410272598266602e-01 1.300000000000000000e+01
3.880642652511597124e+00 -5.619748830795288086e-01 -6.210448145866394043e-01 1.000000000000000000e+01
4.037738418579102273e+01 -5.854442119598388672e+00 5.009561061859130859e+00 2.400000000000000000e+01
4.976077556610107422e+00 -7.223836779594421387e-01 -6.173900961875915527e-01 9.000000000000000000e+00
3.531694793701171875e+01 -5.127007484436035156e+00 5.652289867401123047e+00 1.300000000000000000e+01
6.579466342926025391e+00 -9.563222527503967285e-01 -5.816774368286132812e-01 5.000000000000000000e+00
1.033058834075927912e+01 -1.505228519439697044e+00 -5.471200942993164062e-01 2.000000000000000000e+00
3.583605957031250000e+01 -5.227915763854979581e+00 8.360980987548828125e+00 1.000000000000000000e+01
2.051120185852051137e+01 -2.995916843414307085e+00 -3.618232905864716131e-01 3.000000000000000000e+00
3.464144134521483664e+01 -5.059814453125000000e+00 9.380637168884277344e+00 1.400000000000000000e+01
2.381325960159302202e+00 -3.512189686298369806e-01 -6.449770331382751465e-01 2.000000000000000000e+01
2.754804849624633789e+00 -4.072854816913604736e-01 -6.429101228713989258e-01 1.200000000000000000e+01
3.221932172775268999e+00 -4.769228100776671808e-01 -6.331042647361755371e-01 1.300000000000000000e+01
3.882565259933472124e+00 -5.760973095893859863e-01 -6.216705441474914551e-01 1.000000000000000000e+01
4.969598770141601562e+00 -7.391649484634399414e-01 -6.169025897979736328e-01 1.000000000000000000e+01
3.524711990356445312e+01 -5.248851299285888672e+00 5.644155502319335938e+00 1.300000000000000000e+01
6.585941314697265625e+00 -9.807503819465637207e-01 -5.825489759445190430e-01 6.000000000000000000e+00
3.417940139770507812e+01 -5.095949172973632812e+00 6.717239856719970703e+00 5.900000000000000000e+01
1.029366588592528942e+01 -1.536561965942383035e+00 -5.454453229904174805e-01 2.000000000000000000e+00
4.005387496948242188e+01 -5.986091613769531250e+00 9.349865913391113281e+00 1.200000000000000000e+01
2.050061798095703125e+01 -3.067496061325072798e+00 -3.618232905864716131e-01 3.000000000000000000e+00
3.617592620849608664e+01 -5.419438838958740234e+00 9.801477432250976562e+00 7.000000000000000000e+00
2.389636516571044922e+00 -3.609719276428223211e-01 -6.475652456283569336e-01 2.100000000000000000e+01
3.773310470581054688e+01 -5.706595897674561435e+00 6.661234498023986816e-01 3.100000000000000000e+01
2.743732452392578125e+00 -4.154403507709503174e-01 -6.406605839729309082e-01 1.300000000000000000e+01
3.803268814086914062e+01 -5.765483856201171875e+00 2.015980958938599077e+00 2.200000000000000000e+01
3.226071119308472124e+00 -4.890493154525756836e-01 -6.342490911483764648e-01 1.200000000000000000e+01
3.884436607360839844e+00 -5.902400016784667969e-01 -6.222962737083435059e-01 1.000000000000000000e+01
4.970912933349609375e+00 -7.571053504943847656e-01 -6.173900961875915527e-01 1.000000000000000000e+01
6.617930889129638672e+00 -1.009139776229857954e+00 -5.856865644454956055e-01 6.000000000000000000e+00
3.414199829101563211e+01 -5.212263584136962891e+00 6.713423728942871094e+00 5.900000000000000000e+01
1.029218769073485973e+01 -1.573087692260741965e+00 -5.456546545028686523e-01 2.000000000000000000e+00
4.200104904174804688e+01 -6.434566020965576172e+00 1.138544940948485973e+01 1.100000000000000000e+01
2.399816751480102983e+00 -3.710823953151702881e-01 -6.506710648536682129e-01 2.100000000000000000e+01
3.763786315917968750e+01 -5.826648712158203125e+00 6.647970676422119141e-01 3.100000000000000000e+01
2.738414049148560014e+00 -4.244183003902434748e-01 -6.397607922554016113e-01 1.400000000000000000e+01
3.212704181671143022e+00 -4.985012710094451904e-01 -6.319593787193298340e-01 1.200000000000000000e+01
3.882352590560913086e+00 -6.037955880165100098e-01 -6.222962737083435059e-01 1.000000000000000000e+01
3.657532119750977273e+01 -5.694846153259277344e+00 4.544995307922363281e+00 1.900000000000000000e+01
4.968239784240722656e+00 -7.744524478912353516e-01 -6.173900961875915527e-01 9.000000000000000000e+00
3.529939651489257812e+01 -5.508803844451904297e+00 5.658547401428222656e+00 1.300000000000000000e+01
6.614367961883544922e+00 -1.032234430313109907e+00 -5.856865644454956055e-01 5.000000000000000000e+00
3.422058486938477273e+01 -5.346562862396240234e+00 6.732504367828369141e+00 5.900000000000000000e+01
1.031425952911376953e+01 -1.613325715065001997e+00 -5.471200942993164062e-01 2.000000000000000000e+00
2.383373498916625977e+00 -3.762101233005524237e-01 -6.465299725532531738e-01 1.900000000000000000e+01
3.769442749023438211e+01 -5.956723690032958984e+00 6.661234498023986816e-01 3.100000000000000000e+01
2.746691226959228960e+00 -4.345417320728302002e-01 -6.420103311538696289e-01 1.500000000000000000e+01
3.211122274398804155e+00 -5.085917711257934570e-01 -6.319593787193298340e-01 1.200000000000000000e+01
3.892142295837401900e+00 -6.178475618362426758e-01 -6.241735219955444336e-01 1.000000000000000000e+01
4.969703197479248047e+00 -7.906806468963623047e-01 -6.178775429725646973e-01 9.000000000000000000e+00
3.567696762084960938e+01 -5.676211357116699219e+00 5.721746921539306641e+00 1.300000000000000000e+01
6.607157230377197266e+00 -1.052382230758666992e+00 -5.853379964828491211e-01 6.000000000000000000e+00
1.032886314392090021e+01 -1.648869395256042036e+00 -5.481668114662170410e-01 2.000000000000000000e+00
3.491486740112304688e+01 -5.579956531524658203e+00 8.163023948669433594e+00 1.000000000000000000e+01
3.674972534179688211e+01 -5.879774093627929688e+00 9.972297668457031250e+00 8.000000000000000000e+00
2.370602607727050781e+00 -3.826801478862761896e-01 -6.434241533279418945e-01 1.800000000000000000e+01
2.750928640365601030e+00 -4.450605213642119806e-01 -6.433600187301635742e-01 1.400000000000000000e+01
3.777522277832031250e+01 -6.118250846862792969e+00 2.005513906478881836e+00 2.100000000000000000e+01
3.199637413024901900e+00 -5.182281732559204102e-01 -6.300513148307800293e-01 1.200000000000000000e+01
3.886062145233153853e+00 -6.307969093322753906e-01 -6.235477924346923828e-01 1.000000000000000000e+01
4.982587814331054688e+00 -8.105732798576354980e-01 -6.198275089263916016e-01 9.000000000000000000e+00
6.595577716827392578e+00 -1.074158072471619096e+00 -5.846407413482666016e-01 6.000000000000000000e+00
1.033487224578857067e+01 -1.686844229698180930e+00 -5.487948656082153320e-01 2.000000000000000000e+00
3.489902496337891336e+01 -5.702426433563232422e+00 8.163923263549804688e+00 1.000000000000000000e+01
2.073324584960937855e+01 -3.391483783721923828e+00 -3.667099773883820135e-01 3.000000000000000000e+00
3.625234985351563211e+01 -5.930053234100341797e+00 9.842887878417968750e+00 7.000000000000000000e+00
2.372996330261230025e+00 -3.919959962368010919e-01 -6.444594264030456543e-01 1.700000000000000000e+01
5.992488861083983664e+01 -9.909755706787109375e+00 1.060198783874511941e+00 6.100000000000000000e+01
2.753124237060546875e+00 -4.557767510414124090e-01 -6.442598104476928711e-01 1.400000000000000000e+01
3.217084884643555132e+00 -5.331618189811706543e-01 -6.338675022125244141e-01 1.000000000000000000e+01
3.870083332061768022e+00 -6.427702307701110840e-01 -6.213576793670654297e-01 1.100000000000000000e+01
3.748209762573242188e+01 -6.232008457183837891e+00 4.665402412414550781e+00 2.000000000000000000e+01
4.979583263397216797e+00 -8.288299441337585449e-01 -6.198275089263916016e-01 9.000000000000000000e+00
3.559153366088867188e+01 -5.930439472198486328e+00 5.714863777160645419e+00 1.300000000000000000e+01
6.601422786712645596e+00 -1.099962115287780984e+00 -5.855122804641723633e-01 6.000000000000000000e+00
1.036407947540283025e+01 -1.730633258819580078e+00 -5.506789088249206543e-01 2.000000000000000000e+00
3.407830810546875000e+01 -5.696639060974121094e+00 7.976764202117919922e+00 1.000000000000000000e+01
2.074040031433105113e+01 -3.470752477645874023e+00 -3.670590221881865900e-01 3.000000000000000000e+00
3.478992080688477273e+01 -5.821836471557617188e+00 9.451554298400878906e+00 2.100000000000000000e+01
2.383043050765991211e+00 -4.022059440612792969e-01 -6.475652456283569336e-01 1.600000000000000000e+01
5.969275665283203125e+01 -1.008555793762207031e+01 1.056708335876465066e+00 6.200000000000000000e+01
2.745752096176147017e+00 -4.644092023372650146e-01 -6.429101228713989258e-01 1.200000000000000000e+01
3.224882602691649947e+00 -5.460270047187805176e-01 -6.357755661010742188e-01 1.200000000000000000e+01
3.879501342773437944e+00 -6.582581400871276855e-01 -6.232349276542663574e-01 1.100000000000000000e+01
3.741314697265625000e+01 -6.354829788208007812e+00 4.659552574157714844e+00 4.000000000000000000e+01
4.972745895385742188e+00 -8.455413579940795898e-01 -6.193400025367736816e-01 9.000000000000000000e+00
6.611291885375976562e+00 -1.125339031219481978e+00 -5.867324471473693848e-01 6.000000000000000000e+00
1.036978816986083984e+01 -1.768815040588378906e+00 -5.513069629669189453e-01 2.000000000000000000e+00
3.421573257446289062e+01 -5.842456340789794922e+00 8.013656616210937500e+00 1.000000000000000000e+01
2.092526817321776988e+01 -3.576821565628052202e+00 -3.705494999885559082e-01 3.000000000000000000e+00
3.489402770996093750e+01 -5.970813274383544922e+00 9.485717773437500000e+00 7.000000000000000000e+00
2.389383077621459961e+00 -4.110004603862761896e-01 -6.496357917785644531e-01 1.800000000000000000e+01
2.740438699722290039e+00 -4.723708927631378174e-01 -6.420103311538696289e-01 1.300000000000000000e+01
3.211543321609497070e+00 -5.541526079177856445e-01 -6.334858536720275879e-01 1.200000000000000000e+01
3.885200262069702148e+00 -6.717889308929443359e-01 -6.244863867759704590e-01 1.100000000000000000e+01
3.850009536743164062e+01 -6.663962364196777344e+00 4.797508716583251953e+00 2.000000000000000000e+01
4.956373214721679688e+00 -8.587871789932250977e-01 -6.176338195800781250e-01 1.000000000000000000e+01
6.648948669433593750e+00 -1.153253793716431108e+00 -5.903930068016052246e-01 8.000000000000000000e+00
1.038385772705077947e+01 -1.804804086685181108e+00 -5.523536801338195801e-01 2.000000000000000000e+00
2.091392898559569957e+01 -3.642542600631713867e+00 -3.705494999885559082e-01 3.000000000000000000e+00
3.479812622070313211e+01 -6.060729026794433594e+00 9.464494705200195312e+00 1.400000000000000000e+01
2.374614715576171875e+00 -4.169995188713073730e-01 -6.460123658180236816e-01 1.600000000000000000e+01
5.972303009033203125e+01 -1.049854087829590021e+01 1.058453559875488059e+00 6.100000000000000000e+01
2.738773107528686968e+00 -4.819339215755463202e-01 -6.420103311538696289e-01 1.200000000000000000e+01
3.213456392288208008e+00 -5.660408139228820801e-01 -6.342490911483764648e-01 1.200000000000000000e+01
3.888667345046997070e+00 -6.863768100738525391e-01 -6.254249811172485352e-01 1.000000000000000000e+01
3.849615097045897727e+01 -6.801765918731688565e+00 4.799945831298828125e+00 2.000000000000000000e+01
4.986576080322265625e+00 -8.819603323936462402e-01 -6.217774152755737305e-01 9.000000000000000000e+00
3.591481399536132812e+01 -6.358606338500976562e+00 5.776812076568604404e+00 1.300000000000000000e+01
6.635073184967041016e+00 -1.174719214439392090e+00 -5.895214676856994629e-01 6.000000000000000000e+00
1.044435787200927912e+01 -1.852901458740233931e+00 -5.559125542640686035e-01 2.000000000000000000e+00
3.434891510009766336e+01 -6.099919795989990234e+00 8.054147720336914062e+00 1.000000000000000000e+01
2.092077445983887074e+01 -3.719023466110229048e+00 -3.708985447883605957e-01 7.000000000000000000e+00
3.481289672851563211e+01 -6.188584327697753906e+00 9.474329948425292969e+00 7.000000000000000000e+00
2.375046253204346147e+00 -4.256267249584197998e-01 -6.465299725532531738e-01 1.700000000000000000e+01
2.752418756484984907e+00 -4.942464828491210938e-01 -6.456094980239868164e-01 1.300000000000000000e+01
3.211461067199707031e+00 -5.772544145584106445e-01 -6.342490911483764648e-01 1.100000000000000000e+01
3.886247873306273970e+00 -6.999466419219970703e-01 -6.254249811172485352e-01 1.000000000000000000e+01
3.826509094238281250e+01 -6.898766994476318359e+00 4.774109840393066406e+00 2.000000000000000000e+01
4.979560375213623047e+00 -8.986562490463256836e-01 -6.212899088859558105e-01 9.000000000000000000e+00
6.621129035949707031e+00 -1.196101784706115945e+00 -5.886498689651489258e-01 6.000000000000000000e+00
1.041817283630370916e+01 -1.885790348052978960e+00 -5.548658370971679688e-01 2.000000000000000000e+00
3.418552017211914062e+01 -6.194072723388671875e+00 8.020854949951171875e+00 1.000000000000000000e+01
2.070697021484375000e+01 -3.755627870559691939e+00 -3.673382401466370184e-01 1.000000000000000000e+01
3.531191253662108664e+01 -6.404529571533203125e+00 9.616163253784179688e+00 7.000000000000000000e+00
2.373546123504639116e+00 -4.339145720005034845e-01 -6.465299725532531738e-01 1.900000000000000000e+01
5.974663162231445312e+01 -1.093322467803955078e+01 1.060198783874511941e+00 6.100000000000000000e+01
2.743009328842163086e+00 -5.024467110633850098e-01 -6.438099145889282227e-01 1.200000000000000000e+01
3.224874973297119141e+00 -5.912935137748718262e-01 -6.373020410537719727e-01 1.100000000000000000e+01
3.879895210266112837e+00 -7.127940058708190918e-01 -6.247992515563964844e-01 1.300000000000000000e+01
4.988106727600097656e+00 -9.181889295578002930e-01 -6.227523684501647949e-01 9.000000000000000000e+00
6.624751091003417969e+00 -1.220650672912598100e+00 -5.893471240997314453e-01 5.000000000000000000e+00
3.753263092041016336e+01 -6.922389030456542969e+00 7.418653964996337891e+00 6.200000000000000000e+01
1.043902397155762074e+01 -1.927221536636352983e+00 -5.563312172889709473e-01 2.000000000000000000e+00
3.320170974731445312e+01 -6.135593414306640625e+00 7.795003890991210938e+00 9.000000000000000000e+00
1.989146995544433949e+01 -3.679484367370605025e+00 -3.530970811843872070e-01 3.000000000000000000e+00
3.521791839599608664e+01 -6.520897388458251953e+00 9.597010612487792969e+00 1.400000000000000000e+01
2.385310888290404829e+00 -4.446754455566406250e-01 -6.501534581184387207e-01 2.100000000000000000e+01
2.737407445907593218e+00 -5.113029479980468750e-01 -6.429101228713989258e-01 1.200000000000000000e+01
3.215071916580200195e+00 -6.011036038398742676e-01 -6.357755661010742188e-01 1.200000000000000000e+01
3.877383470535277876e+00 -7.263330221176147461e-01 -6.247992515563964844e-01 1.300000000000000000e+01
4.984871387481688565e+00 -9.355950355529785156e-01 -6.227523684501647949e-01 9.000000000000000000e+00
6.653738021850585938e+00 -1.250021696090698020e+00 -5.923104286193847656e-01 5.000000000000000000e+00
1.049504184722900035e+01 -1.975471258163451926e+00 -5.596807003021240234e-01 2.000000000000000000e+00
3.319924163818358664e+01 -6.255059719085693359e+00 7.799502849578857422e+00 1.900000000000000000e+01
1.978811073303223012e+01 -3.731848955154418945e+00 -3.514914512634276789e-01 1.300000000000000000e+01
3.530430603027343750e+01 -6.658055305480957031e+00 9.626515388488769531e+00 7.000000000000000000e+00
2.385642051696776900e+00 -4.533596932888031006e-01 -6.506710648536682129e-01 1.900000000000000000e+01
2.733691692352294922e+00 -5.204907059669494629e-01 -6.424602270126342773e-01 1.300000000000000000e+01
3.214882612228393999e+00 -6.126901507377624512e-01 -6.361572146415710449e-01 1.200000000000000000e+01
3.886466264724731001e+00 -7.420861124992370605e-01 -6.266764402389526367e-01 1.000000000000000000e+01
4.971826553344726562e+00 -9.511248469352722168e-01 -6.215336322784423828e-01 1.000000000000000000e+01
6.655204772949218750e+00 -1.274364113807678001e+00 -5.928333401679992676e-01 6.000000000000000000e+00
1.044885253906250000e+01 -2.004567623138428178e+00 -5.575872659683227539e-01 2.000000000000000000e+00
3.318677139282227273e+01 -6.372745990753173828e+00 7.801752567291259766e+00 1.900000000000000000e+01
1.979852867126464844e+01 -3.805428981781005859e+00 -3.519103229045867920e-01 3.000000000000000000e+00
3.554265594482421875e+01 -6.831570625305175781e+00 9.697949409484863281e+00 7.000000000000000000e+00
2.376538753509521040e+00 -4.598004519939423163e-01 -6.486005187034606934e-01 1.800000000000000000e+01
2.737689971923828125e+00 -5.306655764579772949e-01 -6.438099145889282227e-01 1.500000000000000000e+01
3.201269388198852983e+00 -6.211041212081909180e-01 -6.338675022125244141e-01 1.100000000000000000e+01
3.887862205505371094e+00 -7.557238936424255371e-01 -6.273022294044494629e-01 1.300000000000000000e+01
4.984232902526854581e+00 -9.706423878669738770e-01 -6.234835386276245117e-01 1.000000000000000000e+01
6.680275917053222656e+00 -1.302144408226012962e+00 -5.954480171203613281e-01 5.000000000000000000e+00
1.050095462799072088e+01 -2.050690412521361861e+00 -5.607274174690246582e-01 2.000000000000000000e+00
3.324961090087891336e+01 -6.499211311340332031e+00 7.821547985076904297e+00 1.900000000000000000e+01
2.077293205261230113e+01 -4.064193248748779297e+00 -3.694674372673035223e-01 1.000000000000000000e+01
2.373023986816405806e+00 -4.677197337150573730e-01 -6.480829119682312012e-01 1.900000000000000000e+01
2.747292041778564009e+00 -5.424837470054626465e-01 -6.465093493461608887e-01 1.300000000000000000e+01
3.210637807846068892e+00 -6.345587968826293945e-01 -6.361572146415710449e-01 1.200000000000000000e+01
3.885200738906859907e+00 -7.692904472351074219e-01 -6.273022294044494629e-01 1.000000000000000000e+01
3.761832809448242188e+01 -7.455452919006347656e+00 4.708787918090820312e+00 2.000000000000000000e+01
4.982761383056640625e+00 -9.884209632873535156e-01 -6.237273216247558594e-01 9.000000000000000000e+00
6.650284767150878906e+00 -1.320410847663878950e+00 -5.931819677352905273e-01 5.000000000000000000e+00
1.048197937011718928e+01 -2.084995269775391069e+00 -5.600994229316711426e-01 2.000000000000000000e+00
3.353060531616210938e+01 -6.675735950469970703e+00 7.893082618713378906e+00 9.000000000000000000e+00
2.026245117187500000e+01 -4.037805557250976562e+00 -3.606365323066710871e-01 3.000000000000000000e+00
2.369482755661011186e+00 -4.756200909614562988e-01 -6.475652456283569336e-01 1.700000000000000000e+01
2.739650011062622070e+00 -5.509177446365356445e-01 -6.451596021652221680e-01 1.400000000000000000e+01
3.204553842544556108e+00 -6.449874043464660645e-01 -6.353939771652221680e-01 1.200000000000000000e+01
3.878618955612183061e+00 -7.820667624473571777e-01 -6.266764402389526367e-01 1.000000000000000000e+01
3.764266586303710938e+01 -7.596930027008056641e+00 4.715125083923339844e+00 2.000000000000000000e+01
4.994847297668457031e+00 -1.008952379226685014e+00 -6.256772279739379883e-01 9.000000000000000000e+00
6.665163993835449219e+00 -1.347564935684204102e+00 -5.949251055717468262e-01 5.000000000000000000e+00
1.048638248443604049e+01 -2.123950481414794922e+00 -5.607274174690246582e-01 2.000000000000000000e+00
3.370954895019531250e+01 -6.833780765533447266e+00 7.940772056579589844e+00 9.000000000000000000e+00
1.967598342895508168e+01 -3.992396593093872070e+00 -3.504443168640137274e-01 6.000000000000000000e+00
2.381057262420653853e+00 -4.865958392620087225e-01 -6.511887311935424805e-01 2.100000000000000000e+01
2.726255416870117188e+00 -5.581324100494384766e-01 -6.424602270126342773e-01 1.400000000000000000e+01
3.213822603225708008e+00 -6.585340499877929688e-01 -6.376836895942687988e-01 1.200000000000000000e+01
3.864255189895629883e+00 -7.932176589965820312e-01 -6.247992515563964844e-01 1.000000000000000000e+01
4.983517169952392578e+00 -1.024782180786133035e+00 -6.247022747993469238e-01 9.000000000000000000e+00
3.804770278930664062e+01 -7.823913574218750000e+00 6.152254581451416016e+00 1.400000000000000000e+01
6.681885719299316406e+00 -1.375240564346313032e+00 -5.968425273895263672e-01 5.000000000000000000e+00
3.507331848144531250e+01 -7.225039482116699219e+00 6.960711956024169922e+00 6.000000000000000000e+01
1.055323696136474965e+01 -2.175867557525635210e+00 -5.647049546241760254e-01 2.000000000000000000e+00
1.812853240966796875e+01 -3.744340658187866211e+00 -3.231138586997985840e-01 9.000000000000000000e+00
3.558002090454102273e+01 -7.355316638946533203e+00 9.735219955444335938e+00 7.000000000000000000e+00
2.386909723281859907e+00 -4.964779317378997803e-01 -6.532592773437500000e-01 2.100000000000000000e+01
2.728106260299683061e+00 -5.684404373168945312e-01 -6.433600187301635742e-01 1.400000000000000000e+01
3.213426351547241211e+00 -6.701491475105285645e-01 -6.380652785301208496e-01 1.300000000000000000e+01
3.873064517974853960e+00 -8.091253638267517090e-01 -6.266764402389526367e-01 1.000000000000000000e+01
3.709128570556641336e+01 -7.755529880523681641e+00 4.652727603912354404e+00 1.900000000000000000e+01
4.991567611694335938e+00 -1.044611454010009988e+00 -6.261646747589111328e-01 9.000000000000000000e+00
6.677044391632080078e+00 -1.398556351661681907e+00 -5.968425273895263672e-01 6.000000000000000000e+00
1.052993965148925959e+01 -2.209410905838013139e+00 -5.638675689697265625e-01 2.000000000000000000e+00
1.818775939941405895e+01 -3.822817087173461914e+00 -3.244053423404694159e-01 3.000000000000000000e+00
3.554787063598632812e+01 -7.471673965454101562e+00 9.733148574829101562e+00 7.000000000000000000e+00
2.377602100372314009e+00 -5.032067298889160156e-01 -6.511887311935424805e-01 2.100000000000000000e+01
2.737543582916260210e+00 -5.803848505020141602e-01 -6.460594534873962402e-01 1.300000000000000000e+01
3.207226514816284180e+00 -6.805469989776611328e-01 -6.373020410537719727e-01 1.300000000000000000e+01
3.889538764953612837e+00 -8.267469406127929688e-01 -6.298051476478576660e-01 1.000000000000000000e+01
3.733970260620117188e+01 -7.943610191345214844e+00 4.687338829040527344e+00 2.000000000000000000e+01
4.993715763092041016e+00 -1.063269019126892090e+00 -6.268959045410156250e-01 1.000000000000000000e+01
3.625329589843750000e+01 -7.719103336334229404e+00 5.870672702789306641e+00 1.300000000000000000e+01
6.687711238861083984e+00 -1.425177097320557085e+00 -5.982370376586914062e-01 7.000000000000000000e+00
1.046356582641601918e+01 -2.233645200729370117e+00 -5.607274174690246582e-01 2.000000000000000000e+00
4.179837799072266336e+01 -8.930278778076171875e+00 9.867702484130859375e+00 1.300000000000000000e+01
1.797093391418457031e+01 -3.842793464660644975e+00 -3.207752406597136896e-01 6.000000000000000000e+00
3.748110580444335938e+01 -8.021569252014160156e+00 1.027045726776123047e+01 8.000000000000000000e+00
2.362611055374145952e+00 -5.086568593978881836e-01 -6.475652456283569336e-01 1.900000000000000000e+01
2.735501050949097124e+00 -5.899371504783630371e-01 -6.460594534873962402e-01 1.400000000000000000e+01
3.202912330627440962e+00 -6.913239359855651855e-01 -6.369204521179199219e-01 1.200000000000000000e+01
3.882767438888549805e+00 -8.394840359687805176e-01 -6.291794180870056152e-01 1.000000000000000000e+01
3.748248291015625000e+01 -8.110847473144531250e+00 4.708787918090820312e+00 2.000000000000000000e+01
4.978332996368408203e+00 -1.078172802925110085e+00 -6.254334449768066406e-01 1.000000000000000000e+01
6.671012401580811435e+00 -1.445980548858643022e+00 -5.971911549568176270e-01 5.000000000000000000e+00
1.055329418182373047e+01 -2.291344881057738814e+00 -5.659610033035278320e-01 2.000000000000000000e+00
3.657202911376953125e+01 -7.947249889373779297e+00 8.640370368957519531e+00 1.100000000000000000e+01
1.810982322692871094e+01 -3.938647985458374023e+00 -3.234978020191193182e-01 3.000000000000000000e+00
3.797153472900391336e+01 -8.258308410644531250e+00 1.041229057312012074e+01 8.000000000000000000e+00
2.368369817733765093e+00 -5.185536146163940430e-01 -6.496357917785644531e-01 2.000000000000000000e+01
2.733424901962279829e+00 -5.994822382926940918e-01 -6.460594534873962402e-01 1.300000000000000000e+01
3.206232547760010210e+00 -7.037627100944519043e-01 -6.380652785301208496e-01 1.200000000000000000e+01
3.883672237396239790e+00 -8.538807034492492676e-01 -6.298051476478576660e-01 1.000000000000000000e+01
3.667845916748046875e+01 -8.070993423461914062e+00 4.611292362213134766e+00 1.900000000000000000e+01
5.013311862945556641e+00 -1.104082822799683061e+00 -6.303082704544067383e-01 1.000000000000000000e+01
6.677598476409912109e+00 -1.471831083297729048e+00 -5.982370376586914062e-01 5.000000000000000000e+00
1.055303287506104049e+01 -2.329890966415404829e+00 -5.663797259330749512e-01 2.000000000000000000e+00
3.639183807373046875e+01 -8.041225433349609375e+00 8.604377746582031250e+00 1.100000000000000000e+01
1.909565544128417969e+01 -4.222916126251220703e+00 -3.413690626621245783e-01 6.000000000000000000e+00
4.189826965332031250e+01 -9.273280143737792969e+00 1.149829483032226918e+01 1.100000000000000000e+01
2.375973701477050781e+00 -5.289164781570434570e-01 -6.522240042686462402e-01 2.200000000000000000e+01
2.727511644363402876e+00 -6.081718206405639648e-01 -6.451596021652221680e-01 1.400000000000000000e+01
3.219085216522216797e+00 -7.183710932731628418e-01 -6.411182284355163574e-01 1.200000000000000000e+01
3.878740072250366211e+00 -8.670011162757873535e-01 -6.294922828674316406e-01 1.100000000000000000e+01
4.988119125366210938e+00 -1.116804957389831987e+00 -6.276271343231201172e-01 9.000000000000000000e+00
6.693806171417236328e+00 -1.499923348426819070e+00 -6.001544594764709473e-01 6.000000000000000000e+00
1.057601642608642933e+01 -2.373712062835692915e+00 -5.680544972419738770e-01 2.000000000000000000e+00
3.631411361694335938e+01 -8.157103538513183594e+00 8.592679977416992188e+00 1.100000000000000000e+01
1.866718482971191051e+01 -4.196562767028808594e+00 -3.339692354202271063e-01 6.000000000000000000e+00
3.779609680175781250e+01 -8.496926307678222656e+00 1.038019657135009943e+01 8.000000000000000000e+00
2.381649971008300781e+00 -5.389123558998107910e-01 -6.542945504188537598e-01 2.100000000000000000e+01
2.723471641540526900e+00 -6.172581315040588379e-01 -6.447097063064575195e-01 1.300000000000000000e+01
3.208899736404418945e+00 -7.278662919998168945e-01 -6.395917534828186035e-01 1.100000000000000000e+01
3.881469011306763139e+00 -8.818480968475341797e-01 -6.304308772087097168e-01 1.100000000000000000e+01
4.993868350982666016e+00 -1.136412382125854048e+00 -6.288458108901977539e-01 1.000000000000000000e+01
3.614054870605468750e+01 -8.230834007263183594e+00 5.870672702789306641e+00 1.300000000000000000e+01
6.684644222259520596e+00 -1.522395133972167969e+00 -5.998058319091796875e-01 6.000000000000000000e+00
3.567998123168945312e+01 -8.132492065429687500e+00 7.113359451293945312e+00 6.100000000000000000e+01
1.056766605377197088e+01 -2.410614728927611861e+00 -5.680544972419738770e-01 2.000000000000000000e+00
1.848866844177246094e+01 -4.224283218383789062e+00 -3.310372531414031982e-01 3.000000000000000000e+00
3.796055984497070312e+01 -8.680183410644531250e+00 1.043403053283691051e+01 8.000000000000000000e+00
2.366575241088867188e+00 -5.441920757293701172e-01 -6.506710648536682129e-01 1.900000000000000000e+01
2.726997375488280806e+00 -6.280732154846191406e-01 -6.460594534873962402e-01 1.400000000000000000e+01
3.204426288604735884e+00 -7.386220097541809082e-01 -6.392101049423217773e-01 1.200000000000000000e+01
3.887990713119506836e+00 -8.976134061813354492e-01 -6.319952607154846191e-01 1.100000000000000000e+01
4.995673179626464844e+00 -1.155178904533386008e+00 -6.295770406723022461e-01 1.000000000000000000e+01
3.595909118652343750e+01 -8.315032005310058594e+00 5.845643043518066406e+00 1.300000000000000000e+01
6.673466205596923828e+00 -1.544371962547302024e+00 -5.992828607559204102e-01 5.000000000000000000e+00
1.058642673492431996e+01 -2.453801870346068892e+00 -5.695198774337768555e-01 2.000000000000000000e+00
1.807059669494628906e+01 -4.195186614990234375e+00 -3.238119482994080145e-01 9.000000000000000000e+00
3.667828369140625000e+01 -8.515061378479003906e+00 1.008928394317626953e+01 8.000000000000000000e+00
2.353374004364014116e+00 -5.498126745223999023e-01 -6.475652456283569336e-01 2.000000000000000000e+01
2.732378482818603960e+00 -6.393643617630004883e-01 -6.478590369224548340e-01 1.400000000000000000e+01
3.199917078018188032e+00 -7.493554353713989258e-01 -6.388285160064697266e-01 1.200000000000000000e+01
3.879064321517943892e+00 -9.098263382911682129e-01 -6.310566067695617676e-01 1.000000000000000000e+01
5.007070064544677734e+00 -1.176241874694823997e+00 -6.315269470214843750e-01 1.000000000000000000e+01
3.598606109619141336e+01 -8.460335731506347656e+00 5.855029106140136719e+00 1.300000000000000000e+01
6.679671764373779297e+00 -1.570393204689026101e+00 -6.003287434577941895e-01 3.000000000000000000e+00
1.060890197753906072e+01 -2.498064756393433061e+00 -5.711946487426757812e-01 3.000000000000000000e+00
3.790725326538085938e+01 -8.932956695556640625e+00 8.991293907165527344e+00 1.200000000000000000e+01
1.804027175903319957e+01 -4.254567146301270419e+00 -3.235327005386353094e-01 1.200000000000000000e+01
3.669195175170897727e+01 -8.660087585449218750e+00 1.010170745849609020e+01 8.000000000000000000e+00
2.361034154891968218e+00 -5.594303011894226074e-01 -6.501534581184387207e-01 1.900000000000000000e+01
2.732252359390258789e+00 -6.483951807022094727e-01 -6.483089327812194824e-01 1.500000000000000000e+01
3.201367139816284180e+00 -7.603118419647216797e-01 -6.395917534828186035e-01 1.200000000000000000e+01
3.864656209945679155e+00 -9.192655086517333984e-01 -6.291794180870056152e-01 1.000000000000000000e+01
4.246362304687500000e+01 -1.010842990875243963e+01 5.359570026397705078e+00 3.300000000000000000e+01
5.001419067382813388e+00 -1.191506147384643999e+00 -6.312832236289978027e-01 1.000000000000000000e+01
3.605688095092772727e+01 -8.589960098266601562e+00 5.870672702789306641e+00 1.300000000000000000e+01
6.688271522521972656e+00 -1.594604730606079102e+00 -6.015489101409912109e-01 3.000000000000000000e+00
1.062042808532715021e+01 -2.536020040512084961e+00 -5.722413659095764160e-01 3.000000000000000000e+00
3.778802490234375000e+01 -9.030260086059570312e+00 8.969697952270507812e+00 2.400000000000000000e+01
1.798597526550292969e+01 -4.301453590393066406e+00 -3.227997124195098877e-01 6.000000000000000000e+00
3.635795974731445312e+01 -8.695223808288574219e+00 1.001681423187256037e+01 8.000000000000000000e+00
2.360945224761962891e+00 -5.681204199790954590e-01 -6.506710648536682129e-01 2.000000000000000000e+01
2.718605518341064009e+00 -6.551890969276428223e-01 -6.456094980239868164e-01 1.600000000000000000e+01
3.206327915191649947e+00 -7.733232975006103516e-01 -6.411182284355163574e-01 1.200000000000000000e+01
3.886385917663574219e+00 -9.387798309326171875e-01 -6.332467198371887207e-01 1.100000000000000000e+01
4.997229576110839844e+00 -1.208957076072693093e+00 -6.312832236289978027e-01 1.000000000000000000e+01
6.682664871215820312e+00 -1.617941379547118919e+00 -6.015489101409912109e-01 3.000000000000000000e+00
1.063092136383056996e+01 -2.577783346176147017e+00 -5.732880830764770508e-01 3.000000000000000000e+00
3.776005935668945312e+01 -9.163028717041015625e+00 8.970598220825195312e+00 1.200000000000000000e+01
3.704294204711914062e+01 -9.002702713012695312e+00 1.021455287933349965e+01 8.000000000000000000e+00
2.377612829208374023e+00 -5.813583731651306152e-01 -6.558474898338317871e-01 1.900000000000000000e+01
4.230910110473632812e+01 -1.035297107696533025e+01 7.602966427803039551e-01 4.400000000000000000e+01
2.723757028579711914e+00 -6.670029759407043457e-01 -6.474091410636901855e-01 1.500000000000000000e+01
3.197751522064208984e+00 -7.836679816246032715e-01 -6.399733424186706543e-01 1.100000000000000000e+01
4.258063125610352273e+01 -1.044304752349854049e+01 3.835724353790283203e+00 5.400000000000000000e+01
3.871408224105834961e+00 -9.501926898956298828e-01 -6.313694715499877930e-01 1.000000000000000000e+01
4.994692802429199219e+00 -1.227738618850708008e+00 -6.315269470214843750e-01 9.000000000000000000e+00
6.694102287292479581e+00 -1.646707057952881081e+00 -6.031177639961242676e-01 3.000000000000000000e+00
1.062140178680419922e+01 -2.616730451583861861e+00 -5.732880830764770508e-01 3.000000000000000000e+00
3.604227066040039062e+01 -8.886188507080078125e+00 8.570185661315917969e+00 1.100000000000000000e+01
3.913072204589843750e+01 -9.654888153076171875e+00 1.079948329925536932e+01 9.000000000000000000e+00
2.354944467544556108e+00 -5.845348834991455078e-01 -6.501534581184387207e-01 1.900000000000000000e+01
2.723303318023682085e+00 -6.769767403602600098e-01 -6.478590369224548340e-01 1.400000000000000000e+01
3.177849769592285156e+00 -7.905598282814025879e-01 -6.365388035774230957e-01 1.000000000000000000e+01
3.892986059188843218e+00 -9.699087738990783691e-01 -6.354367733001708984e-01 1.000000000000000000e+01
4.998080730438232422e+00 -1.247088074684143066e+00 -6.325019001960754395e-01 9.000000000000000000e+00
6.697978496551513672e+00 -1.672477245330810991e+00 -6.039893031120300293e-01 5.000000000000000000e+00
1.067033100128174006e+01 -2.668326139450072798e+00 -5.764282345771789551e-01 3.000000000000000000e+00
3.595431900024414062e+01 -8.997752189636230469e+00 8.556688308715820312e+00 1.100000000000000000e+01
1.817193603515625000e+01 -4.550990581512451172e+00 -3.269882798194885254e-01 3.000000000000000000e+00
2.354763031005858931e+00 -5.932235717773437500e-01 -6.506710648536682129e-01 2.000000000000000000e+01
2.724702835083007812e+00 -6.874321699142456055e-01 -6.487588286399841309e-01 1.300000000000000000e+01
3.197913169860839844e+00 -8.074150085449218750e-01 -6.411182284355163574e-01 1.100000000000000000e+01
3.883831501007080078e+00 -9.820392131805419922e-01 -6.344981789588928223e-01 1.100000000000000000e+01
3.640845108032227273e+01 -9.212754249572753906e+00 4.611292362213134766e+00 1.900000000000000000e+01
5.005243301391601562e+00 -1.267450809478759988e+00 -6.339643001556396484e-01 9.000000000000000000e+00
6.697893619537354404e+00 -1.697315573692321999e+00 -6.045122146606445312e-01 5.000000000000000000e+00
1.069966983795166016e+01 -2.715382099151610884e+00 -5.785216689109802246e-01 3.000000000000000000e+00
3.557515716552733664e+01 -9.034938812255859375e+00 8.473906517028808594e+00 1.100000000000000000e+01
3.657591247558593750e+01 -9.295894622802734375e+00 1.011206054687500000e+01 8.000000000000000000e+00
2.352678060531616211e+00 -6.014395952224731445e-01 -6.506710648536682129e-01 1.800000000000000000e+01
2.718510866165161133e+00 -6.959723234176635742e-01 -6.478590369224548340e-01 1.400000000000000000e+01
3.196977138519287109e+00 -8.190601468086242676e-01 -6.414998173713684082e-01 1.100000000000000000e+01
3.872726202011107954e+00 -9.936266541481018066e-01 -6.332467198371887207e-01 1.100000000000000000e+01
5.006556510925292969e+00 -1.286396741867064986e+00 -6.346955299377441406e-01 1.000000000000000000e+01
6.697717189788818359e+00 -1.722173810005187988e+00 -6.050351858139038086e-01 6.000000000000000000e+00
1.065144252777099965e+01 -2.742753505706787109e+00 -5.764282345771789551e-01 3.000000000000000000e+00
3.572078704833983664e+01 -9.204773902893066406e+00 8.516197204589843750e+00 1.100000000000000000e+01
3.636950302124022727e+01 -9.385479927062988281e+00 1.006443691253661932e+01 8.000000000000000000e+00
2.356174230575561968e+00 -6.111032962799072266e-01 -6.522240042686462402e-01 1.900000000000000000e+01
4.235398483276367188e+01 -1.099292659759520951e+01 7.637870907783508301e-01 4.500000000000000000e+01
2.708520174026488814e+00 -7.034978270530700684e-01 -6.460594534873962402e-01 1.400000000000000000e+01
3.197898864746094194e+00 -8.312024474143981934e-01 -6.422630548477172852e-01 1.200000000000000000e+01
3.865410804748535156e+00 -1.006143689155579057e+00 -6.326209902763366699e-01 1.100000000000000000e+01
3.587452697753906250e+01 -9.344614028930664062e+00 4.551819801330566406e+00 1.900000000000000000e+01
4.992431163787841797e+00 -1.301361441612244096e+00 -6.334768533706665039e-01 9.000000000000000000e+00
3.643923950195313211e+01 -9.505294799804687500e+00 5.964533329010009766e+00 1.300000000000000000e+01
6.703231811523438388e+00 -1.748560070991515891e+00 -6.060810089111328125e-01 5.000000000000000000e+00
3.483866119384766336e+01 -9.094273567199707031e+00 6.998874187469482422e+00 6.000000000000000000e+01
1.068045234680175959e+01 -2.790013074874877930e+00 -5.785216689109802246e-01 3.000000000000000000e+00
3.565450286865233664e+01 -9.320535659790039062e+00 8.508098602294921875e+00 1.100000000000000000e+01
2.585392379760741832e+01 -6.763361454010009766e+00 -4.664679169654846191e-01 4.000000000000000000e+00
3.635687255859375000e+01 -9.510922431945800781e+00 1.006961345672607067e+01 8.000000000000000000e+00
2.357763290405272993e+00 -6.203072071075439453e-01 -6.532592773437500000e-01 1.900000000000000000e+01
2.711701393127440962e+00 -7.144374847412109375e-01 -6.474091410636901855e-01 1.500000000000000000e+01
3.200673103332519975e+00 -8.438616991043090820e-01 -6.434079408645629883e-01 1.200000000000000000e+01
3.877154588699340820e+00 -1.023664593696594016e+00 -6.351239085197448730e-01 1.100000000000000000e+01
3.597603607177733664e+01 -9.505278587341308594e+00 4.568881511688232422e+00 1.900000000000000000e+01
5.003211498260498047e+00 -1.322839736938477007e+00 -6.354267597198486328e-01 9.000000000000000000e+00
3.583293914794921875e+01 -9.480853080749511719e+00 5.870672702789306641e+00 1.300000000000000000e+01
6.700939655303955078e+00 -1.772967219352721946e+00 -6.064296364784240723e-01 5.000000000000000000e+00
1.067064762115479049e+01 -2.827277898788452148e+00 -5.785216689109802246e-01 3.000000000000000000e+00
3.623382186889647727e+01 -9.613992691040039062e+00 1.004476737976074041e+01 8.000000000000000000e+00
2.357559919357299805e+00 -6.286201477050781250e-01 -6.537768840789794922e-01 1.900000000000000000e+01
4.232841110229492188e+01 -1.129436779022216975e+01 7.646946310997009277e-01 4.500000000000000000e+01
2.718731164932250977e+00 -7.259395718574523926e-01 -6.496586203575134277e-01 1.400000000000000000e+01
3.190270185470581055e+00 -8.524436354637145996e-01 -6.418814659118652344e-01 1.300000000000000000e+01
3.881371736526488814e+00 -1.038558483123779075e+00 -6.363754272460937500e-01 1.100000000000000000e+01
3.601718139648438211e+01 -9.644038200378417969e+00 4.578143596649169922e+00 1.900000000000000000e+01
5.002632141113281250e+00 -1.340451240539551003e+00 -6.359142065048217773e-01 9.000000000000000000e+00
3.573428726196289062e+01 -9.574973106384277344e+00 5.859409332275390625e+00 1.300000000000000000e+01
6.704645633697509766e+00 -1.797758698463439941e+00 -6.073012351989746094e-01 5.000000000000000000e+00
1.068821907043457031e+01 -2.869898557662963867e+00 -5.799870491027832031e-01 3.000000000000000000e+00
3.609727096557617188e+01 -9.706004142761230469e+00 1.001577949523925959e+01 8.000000000000000000e+00
2.351621389389038086e+00 -6.358373165130615234e-01 -6.527416110038757324e-01 1.900000000000000000e+01
4.223854064941406250e+01 -1.142847347259520951e+01 7.637870907783508301e-01 4.500000000000000000e+01
2.716180562973022017e+00 -7.354252934455871582e-01 -6.496586203575134277e-01 1.400000000000000000e+01
3.194854974746704102e+00 -8.656282424926757812e-01 -6.434079408645629883e-01 1.200000000000000000e+01
3.881535768508911133e+00 -1.053135156631469949e+00 -6.370011568069458008e-01 1.100000000000000000e+01
3.648905563354492188e+01 -9.907018661499023438e+00 4.642490863800048828e+00 1.900000000000000000e+01
4.996006965637207031e+00 -1.357385039329529031e+00 -6.356704831123352051e-01 1.000000000000000000e+01
6.675258159637451172e+00 -1.814878702163696067e+00 -6.052094697952270508e-01 5.000000000000000000e+00
1.065115642547607067e+01 -2.899844646453856978e+00 -5.785216689109802246e-01 3.000000000000000000e+00
3.674357986450195312e+01 -1.002433967590332031e+01 1.020523452758789062e+01 8.000000000000000000e+00
2.351363182067871094e+00 -6.441424489021301270e-01 -6.532592773437500000e-01 1.900000000000000000e+01
2.713726997375487837e+00 -7.444283962249755859e-01 -6.496586203575134277e-01 1.400000000000000000e+01
3.188180446624755859e+00 -8.751786351203918457e-01 -6.426447033882141113e-01 1.200000000000000000e+01
3.866593837738037109e+00 -1.062859535217284934e+00 -6.351239085197448730e-01 1.200000000000000000e+01
3.649810791015625000e+01 -1.003954887390137074e+01 4.647852897644042969e+00 1.900000000000000000e+01
5.012531280517578125e+00 -1.379739880561829057e+00 -6.383516192436218262e-01 1.200000000000000000e+01
6.690332412719726562e+00 -1.842824578285217063e+00 -6.071268916130065918e-01 5.000000000000000000e+00
1.071464538574218928e+01 -2.955329179763793945e+00 -5.824992060661315918e-01 3.000000000000000000e+00
3.558345413208007812e+01 -9.828048706054687500e+00 9.891546249389648438e+00 7.000000000000000000e+00
2.349100351333618164e+00 -6.523463129997253418e-01 -6.532592773437500000e-01 1.800000000000000000e+01
2.697969436645507812e+00 -7.502419352531433105e-01 -6.465093493461608887e-01 1.500000000000000000e+01
3.188888788223267046e+00 -8.873547315597534180e-01 -6.434079408645629883e-01 1.200000000000000000e+01
3.600159454345703125e+01 -1.002473831176757990e+01 3.269560575485229048e+00 4.700000000000000000e+01
3.866665840148925781e+00 -1.077410459518433061e+00 -6.357496380805969238e-01 1.200000000000000000e+01
5.007684230804443359e+00 -1.397228479385375977e+00 -6.383516192436218262e-01 9.000000000000000000e+00
6.726077079772949219e+00 -1.877954483032227007e+00 -6.109617352485656738e-01 6.000000000000000000e+00
1.068887615203857067e+01 -2.988410234451293945e+00 -5.816618204116821289e-01 3.000000000000000000e+00
3.825046920776367188e+01 -1.070131492614745916e+01 9.169904708862304688e+00 1.200000000000000000e+01
3.550056457519531250e+01 -9.938656806945800781e+00 9.878087997436523438e+00 7.000000000000000000e+00
2.356106996536254883e+00 -6.631593108177185059e-01 -6.558474898338317871e-01 1.900000000000000000e+01
2.702836751937866211e+00 -7.617695927619934082e-01 -6.483089327812194824e-01 1.500000000000000000e+01
3.187661409378052202e+00 -8.990135192871093750e-01 -6.437895298004150391e-01 1.200000000000000000e+01
3.879990577697753906e+00 -1.095732808113097922e+00 -6.385654807090759277e-01 1.100000000000000000e+01
3.676716232299804688e+01 -1.039019775390625000e+01 4.691238403320313388e+00 2.000000000000000000e+01
4.995135784149169922e+00 -1.412539482116698997e+00 -6.373766660690307617e-01 9.000000000000000000e+00
6.698392391204833984e+00 -1.895454049110413042e+00 -6.090443134307861328e-01 3.000000000000000000e+00
1.075140094757080078e+01 -3.046393632888793945e+00 -5.856393575668334961e-01 3.000000000000000000e+00
3.802539825439453125e+01 -1.078161048889159979e+01 9.124914169311523438e+00 1.200000000000000000e+01
3.860088348388671875e+01 -1.095934104919433949e+01 1.075186061859131037e+01 9.000000000000000000e+00
2.348204374313354048e+00 -6.697899103164672852e-01 -6.542945504188537598e-01 1.800000000000000000e+01
2.711404085159302202e+00 -7.744107246398925781e-01 -6.510083675384521484e-01 1.500000000000000000e+01
3.184504032135010210e+00 -9.101350307464599609e-01 -6.437895298004150391e-01 1.200000000000000000e+01
3.874243021011352983e+00 -1.108726263046265093e+00 -6.382526159286499023e-01 1.100000000000000000e+01
3.692532348632813211e+01 -1.057421875000000000e+01 4.716099739074707031e+00 2.000000000000000000e+01
4.993991374969482422e+00 -1.431060791015625000e+00 -6.378641724586486816e-01 9.000000000000000000e+00
6.684074401855468750e+00 -1.916627526283263938e+00 -6.083470582962036133e-01 3.000000000000000000e+00
3.517567062377929688e+01 -1.009310531616210938e+01 7.113359451293945312e+00 6.100000000000000000e+01
1.080213165283202947e+01 -3.101542472839355025e+00 -5.889888405799865723e-01 3.000000000000000000e+00
3.817482757568358664e+01 -1.096809101104735973e+01 9.169904708862304688e+00 1.200000000000000000e+01
3.753015136718750000e+01 -1.079705047607422053e+01 1.046405410766601918e+01 9.000000000000000000e+00
2.347589492797852007e+00 -6.789287328720092773e-01 -6.548121571540832520e-01 1.900000000000000000e+01
2.710419416427611861e+00 -7.848853468894958496e-01 -6.514582633972167969e-01 1.300000000000000000e+01
3.173604011535644975e+00 -9.196150898933410645e-01 -6.422630548477172852e-01 1.200000000000000000e+01
3.864461898803710938e+00 -1.121267318725585938e+00 -6.373140215873718262e-01 1.000000000000000000e+01
3.644785308837891336e+01 -1.058218288421631037e+01 4.660039901733398438e+00 2.000000000000000000e+01
4.996337890625000000e+00 -1.451570391654968040e+00 -6.388391256332397461e-01 9.000000000000000000e+00
6.686570644378662109e+00 -1.943894028663635032e+00 -6.092186570167541504e-01 3.000000000000000000e+00
1.079069137573242010e+01 -3.141113281250000000e+00 -5.889888405799865723e-01 3.000000000000000000e+00
3.845099639892578125e+01 -1.121472549438476918e+01 1.073219013214110973e+01 9.000000000000000000e+00
2.343351364135742188e+00 -6.865760087966918945e-01 -6.542945504188537598e-01 1.800000000000000000e+01
2.711402893066405806e+00 -7.954388260841369629e-01 -6.523580551147460938e-01 1.400000000000000000e+01
3.183560848236083984e+00 -9.345583915710449219e-01 -6.449344158172607422e-01 1.200000000000000000e+01
3.854838848114014116e+00 -1.133078813552856001e+00 -6.363754272460937500e-01 1.100000000000000000e+01
3.628499984741210938e+01 -1.067237567901610973e+01 4.643953323364257812e+00 1.900000000000000000e+01
5.004570960998535156e+00 -1.472925305366515891e+00 -6.405452489852905273e-01 1.100000000000000000e+01
6.712235450744628906e+00 -1.976791381835937944e+00 -6.121819615364074707e-01 5.000000000000000000e+00
