2.051168680191040039e+00 5.207195281982421875e+00 -4.896409511566162109e-01 9.000000000000000000e+00
2.965020418167113814e+00 7.519444465637207031e+00 -4.236072301864624023e-01 2.000000000000000000e+00
5.275886058807373047e+00 1.336624431610107067e+01 -2.508259713649749756e-01 2.000000000000000000e+00
8.196197748184204102e-01 2.069068193435668945e+00 -5.963190793991088867e-01 1.500000000000000000e+01
9.381359815597534180e-01 2.365841150283813032e+00 -5.875721573829650879e-01 1.100000000000000000e+01
1.077306509017943892e+00 2.715425491333007812e+00 -5.678475499153137207e-01 1.000000000000000000e+01
1.289062261581420898e+00 3.245864629745482954e+00 -5.531522631645202637e-01 9.000000000000000000e+00
1.592809200286865012e+00 4.006623268127441406e+00 -5.294004082679748535e-01 1.000000000000000000e+01
2.066952466964722124e+00 5.196661949157714844e+00 -4.892923533916472834e-01 9.000000000000000000e+00
2.985506772994995117e+00 7.498437404632568359e+00 -4.229792058467864990e-01 2.000000000000000000e+00
5.323142528533936435e+00 1.335610580444335938e+01 -2.509655952453612726e-01 2.000000000000000000e+00
8.289903998374938965e-01 2.071575164794921875e+00 -5.978720188140869141e-01 1.700000000000000000e+01
9.434899687767028809e-01 2.355315923690795898e+00 -5.857725739479064941e-01 1.100000000000000000e+01
1.093351840972899947e+00 2.728049516677856001e+00 -5.712821483612060547e-01 1.000000000000000000e+01
1.298178076744080034e+00 3.235845088958739790e+00 -5.522136688232421875e-01 9.000000000000000000e+00
1.612703442573546919e+00 4.015775680541992188e+00 -5.313503146171569824e-01 1.000000000000000000e+01
2.079137086868286133e+00 5.174625396728515625e+00 -4.878978431224822998e-01 9.000000000000000000e+00
3.008681774139403853e+00 7.480558395385742188e+00 -4.225605130195618231e-01 2.000000000000000000e+00
5.372718811035156250e+00 1.334486389160156072e+01 -2.511052191257476807e-01 2.000000000000000000e+00
8.412845134735107422e-01 2.081206321716309038e+00 -6.014954447746276855e-01 1.900000000000000000e+01
9.502438902854919434e-01 2.348395347595214844e+00 -5.848727226257324219e-01 1.100000000000000000e+01
1.102867841720581055e+00 2.724216461181641069e+00 -5.712821483612060547e-01 1.000000000000000000e+01
1.313174843788146973e+00 3.240447759628295898e+00 -5.537779927253723145e-01 9.000000000000000000e+00
1.619249224662780984e+00 3.991726875305175781e+00 -5.289129614830017090e-01 1.000000000000000000e+01
2.105429172515869141e+00 5.187644004821777344e+00 -4.898152649402617853e-01 9.000000000000000000e+00
3.037782430648804155e+00 7.477412223815917969e+00 -4.229792058467864990e-01 2.000000000000000000e+00
5.413241863250732422e+00 1.331120872497558949e+01 -2.508259713649749756e-01 2.000000000000000000e+00
8.478139042854309082e-01 2.076468467712401900e+00 -6.009778380393981934e-01 1.800000000000000000e+01
9.613845944404602051e-01 2.352279663085937944e+00 -5.866723656654357910e-01 1.100000000000000000e+01
1.110884308815001997e+00 2.716715812683105025e+00 -5.705189108848571777e-01 1.000000000000000000e+01
1.327471256256103960e+00 3.243156909942626953e+00 -5.550295114517211914e-01 9.000000000000000000e+00
1.631667971611022949e+00 3.982376575469971147e+00 -5.284254550933837891e-01 1.000000000000000000e+01
2.118990421295166016e+00 5.169201850891113281e+00 -4.887694120407103937e-01 9.000000000000000000e+00
3.063864946365356001e+00 7.466762542724609375e+00 -4.229792058467864990e-01 2.000000000000000000e+00
5.447517395019531250e+00 1.326263618469237926e+01 -2.502675056457520086e-01 2.000000000000000000e+00
8.535839915275573730e-01 2.069924592971802202e+00 -5.999425649642944336e-01 1.900000000000000000e+01
9.695897102355957031e-01 2.348909378051757812e+00 -5.866723656654357910e-01 1.100000000000000000e+01
1.115864157676696999e+00 2.701933860778809038e+00 -5.682291984558105469e-01 1.000000000000000000e+01
1.336519956588744895e+00 3.233026742935181108e+00 -5.540908575057983398e-01 9.000000000000000000e+00
1.646318078041077104e+00 3.978490829467772993e+00 -5.286692380905151367e-01 1.000000000000000000e+01
2.143118381500244141e+00 5.176500797271729404e+00 -4.901638925075531006e-01 9.000000000000000000e+00
3.091439485549927202e+00 7.459712505340576172e+00 -4.231885373592377264e-01 2.000000000000000000e+00
5.470793247222900391e+00 1.318812751770020064e+01 -2.492203712463378906e-01 2.000000000000000000e+00
8.593187332153320312e-01 2.063365459442139116e+00 -5.989072918891906738e-01 2.000000000000000000e+01
9.762833714485168457e-01 2.341913223266602007e+00 -5.857725739479064941e-01 1.100000000000000000e+01
1.126800417900085005e+00 2.701646327972412109e+00 -5.689924359321594238e-01 1.000000000000000000e+01
1.349319219589232954e+00 3.231987476348876953e+00 -5.547165870666503906e-01 8.000000000000000000e+00
1.660195589065551980e+00 3.972719907760620117e+00 -5.286692380905151367e-01 9.000000000000000000e+00
2.156563282012939009e+00 5.157958984375000000e+00 -4.891180396080017090e-01 9.000000000000000000e+00
3.128254890441894975e+00 7.474669456481933594e+00 -4.246539473533629816e-01 2.000000000000000000e+00
5.516795158386229581e+00 1.316895103454590021e+01 -2.492203712463378906e-01 2.000000000000000000e+00
8.676536083221435547e-01 2.064066410064696822e+00 -5.999425649642944336e-01 2.000000000000000000e+01
9.870672225952148438e-01 2.345847606658935991e+00 -5.875721573829650879e-01 1.100000000000000000e+01
1.136514902114867942e+00 2.699704170227050781e+00 -5.693740248680114746e-01 9.000000000000000000e+00
1.354659914970397949e+00 3.214752674102783203e+00 -5.525265336036682129e-01 9.000000000000000000e+00
1.679532408714293990e+00 3.981825113296508789e+00 -5.306191444396972656e-01 9.000000000000000000e+00
2.176754474639893022e+00 5.158122062683104581e+00 -4.898152649402617853e-01 9.000000000000000000e+00
3.132817983627318892e+00 7.416419029235839844e+00 -4.219324886798859198e-01 2.000000000000000000e+00
5.568222045898438388e+00 1.316900253295898082e+01 -2.495694160461426059e-01 2.000000000000000000e+00
8.748532533645629883e-01 2.061025142669678178e+00 -5.999425649642944336e-01 1.800000000000000000e+01
9.876291751861572266e-01 2.324452161788939986e+00 -5.830731391906738281e-01 1.100000000000000000e+01
1.150539994239806907e+00 2.706561326980590820e+00 -5.716637372970581055e-01 9.000000000000000000e+00
1.368966937065124956e+00 3.217275142669678178e+00 -5.537779927253723145e-01 9.000000000000000000e+00
1.696532845497130904e+00 3.983243465423583984e+00 -5.315940976142883301e-01 9.000000000000000000e+00
2.190060138702393022e+00 5.139494419097900391e+00 -4.887694120407103937e-01 9.000000000000000000e+00
3.160254240036011186e+00 7.409112453460693359e+00 -4.221418201923369806e-01 2.000000000000000000e+00
5.590600967407226562e+00 1.309431266784667969e+01 -2.485222667455672940e-01 2.000000000000000000e+00
8.843253850936889648e-01 2.063285589218140093e+00 -6.014954447746276855e-01 1.900000000000000000e+01
1.000346899032592995e+00 2.331735849380493164e+00 -5.857725739479064941e-01 1.000000000000000000e+01
1.155334472656250000e+00 2.691704273223876953e+00 -5.693740248680114746e-01 9.000000000000000000e+00
1.383308053016663042e+00 3.219736814498900923e+00 -5.550295114517211914e-01 9.000000000000000000e+00
1.704152703285217063e+00 3.962708234786986861e+00 -5.296441912651062012e-01 9.000000000000000000e+00
2.217436313629149947e+00 5.153780937194824219e+00 -4.908611476421356201e-01 9.000000000000000000e+00
3.187677621841431108e+00 7.401704788208007812e+00 -4.223511815071105957e-01 1.000000000000000000e+00
5.620441913604736328e+00 1.303799152374267933e+01 -2.478241771459578913e-01 2.000000000000000000e+00
8.915222287178039551e-01 2.060186147689818892e+00 -6.014954447746276855e-01 1.900000000000000000e+01
1.011578321456908958e+00 2.335382699966431108e+00 -5.875721573829650879e-01 1.000000000000000000e+01
1.163942694664001021e+00 2.685853481292725053e+00 -5.689924359321594238e-01 1.000000000000000000e+01
1.391394257545470969e+00 3.207639694213867188e+00 -5.537779927253723145e-01 9.000000000000000000e+00
1.714812278747559038e+00 3.949452161788939986e+00 -5.286692380905151367e-01 9.000000000000000000e+00
2.225886821746826172e+00 5.124080181121826172e+00 -4.887694120407103937e-01 9.000000000000000000e+00
3.226237535476685014e+00 7.419837951660156250e+00 -4.240259230136870783e-01 1.000000000000000000e+00
5.207857131958007812e+00 1.196582794189452947e+01 -2.277888059616088867e-01 2.000000000000000000e+00
8.940676450729370117e-01 2.046440124511719194e+00 -5.983896255493164062e-01 1.600000000000000000e+01
1.021285772323607954e+00 2.335408449172974077e+00 -5.884719491004943848e-01 1.000000000000000000e+01
1.173310875892638938e+00 2.681774139404296875e+00 -5.689924359321594238e-01 1.000000000000000000e+01
1.401790142059325950e+00 3.200953722000122070e+00 -5.534651279449462891e-01 8.000000000000000000e+00
1.733369708061218040e+00 3.954350709915161133e+00 -5.301316380500793457e-01 9.000000000000000000e+00
2.240558862686156782e+00 5.108980655670166016e+00 -4.880721569061278742e-01 9.000000000000000000e+00
3.236062049865723100e+00 7.371954917907714844e+00 -4.219324886798859198e-01 2.000000000000000000e+00
5.687194347381591797e+00 1.294351291656493963e+01 -2.467770278453826904e-01 2.000000000000000000e+00
9.004260301589965820e-01 2.041539192199707031e+00 -5.978720188140869141e-01 1.600000000000000000e+01
1.029431700706481934e+00 2.331829071044921875e+00 -5.884719491004943848e-01 1.200000000000000000e+01
1.185837745666503906e+00 2.684845924377440962e+00 -5.705189108848571777e-01 1.000000000000000000e+01
1.409759998321532981e+00 3.188814401626586914e+00 -5.522136688232421875e-01 8.000000000000000000e+00
1.750375628471374956e+00 3.955537319183350053e+00 -5.311065912246704102e-01 9.000000000000000000e+00
2.264831542968750000e+00 5.115703105926513672e+00 -4.894666373729705811e-01 9.000000000000000000e+00
3.269866943359375000e+00 7.378874301910400391e+00 -4.229792058467864990e-01 2.000000000000000000e+00
5.748557090759277344e+00 1.296014118194580078e+01 -2.474751174449920932e-01 2.000000000000000000e+00
9.079765081405639648e-01 2.040307044982910156e+00 -5.983896255493164062e-01 1.600000000000000000e+01
1.032400965690613015e+00 2.317721843719481978e+00 -5.857725739479064941e-01 1.100000000000000000e+01
1.193136215209960938e+00 2.677312135696411133e+00 -5.697556734085083008e-01 9.000000000000000000e+00
1.421131491661071999e+00 3.185925960540771040e+00 -5.525265336036682129e-01 9.000000000000000000e+00
1.752152681350708008e+00 3.924334287643433061e+00 -5.276942849159240723e-01 9.000000000000000000e+00
2.284221172332764116e+00 5.113621711730957031e+00 -4.899895787239075262e-01 8.000000000000000000e+00
3.282905101776123047e+00 7.342463970184326172e+00 -4.215137958526610773e-01 2.000000000000000000e+00
5.788235187530517578e+00 1.293370532989501953e+01 -2.473355084657669067e-01 2.000000000000000000e+00
9.198426008224487305e-01 2.047698497772216797e+00 -6.014954447746276855e-01 1.400000000000000000e+01
1.040485024452209029e+00 2.314104080200194868e+00 -5.857725739479064941e-01 1.000000000000000000e+01
1.202474474906920943e+00 2.673130989074707031e+00 -5.697556734085083008e-01 1.000000000000000000e+01
1.437109827995300071e+00 3.191753149032593218e+00 -5.544037222862243652e-01 9.000000000000000000e+00
1.769103050231934038e+00 3.925433397293090820e+00 -5.286692380905151367e-01 9.000000000000000000e+00
2.302875995635985884e+00 5.107433319091796875e+00 -4.901638925075531006e-01 9.000000000000000000e+00
3.305228710174560991e+00 7.323678016662597656e+00 -4.210951030254364014e-01 2.000000000000000000e+00
5.836639881134033203e+00 1.292071151733398082e+01 -2.474751174449920932e-01 2.000000000000000000e+00
9.210458993911743164e-01 2.032319784164429155e+00 -5.978720188140869141e-01 1.500000000000000000e+01
1.049763321876526101e+00 2.314190387725830078e+00 -5.866723656654357910e-01 1.100000000000000000e+01
1.211332321166991965e+00 2.669128894805908203e+00 -5.697556734085083008e-01 1.100000000000000000e+01
1.445235252380371094e+00 3.181574344635010210e+00 -5.534651279449462891e-01 8.000000000000000000e+00
1.778823971748352051e+00 3.912317037582397017e+00 -5.276942849159240723e-01 9.000000000000000000e+00
2.324749946594237837e+00 5.110650062561035156e+00 -4.912097752094268799e-01 9.000000000000000000e+00
3.332807064056396040e+00 7.319948196411132812e+00 -4.215137958526610773e-01 1.000000000000000000e+00
5.862869262695313388e+00 1.286489295959473012e+01 -2.467770278453826904e-01 2.000000000000000000e+00
9.281343817710876465e-01 2.029092311859130859e+00 -5.978720188140869141e-01 1.600000000000000000e+01
1.061079740524291992e+00 2.317599296569824219e+00 -5.884719491004943848e-01 1.100000000000000000e+01
1.215736389160156028e+00 2.654174804687500000e+00 -5.674659609794616699e-01 1.100000000000000000e+01
1.458801984786987083e+00 3.181897163391112837e+00 -5.544037222862243652e-01 9.000000000000000000e+00
1.795781373977660911e+00 3.913300752639770952e+00 -5.286692380905151367e-01 9.000000000000000000e+00
2.337587594985961914e+00 5.091639995574951172e+00 -4.901638925075531006e-01 9.000000000000000000e+00
3.375017404556273970e+00 7.344565868377686435e+00 -4.236072301864624023e-01 2.000000000000000000e+00
5.924452781677246094e+00 1.288068389892577947e+01 -2.474751174449920932e-01 2.000000000000000000e+00
9.316203594207763672e-01 2.018986940383911133e+00 -5.958014130592346191e-01 1.600000000000000000e+01
1.067125201225280984e+00 2.310529470443726030e+00 -5.875721573829650879e-01 1.100000000000000000e+01
1.227825284004210982e+00 2.657257318496704102e+00 -5.689924359321594238e-01 9.000000000000000000e+00
1.467687129974365012e+00 3.173456192016602007e+00 -5.537779927253723145e-01 9.000000000000000000e+00
1.808748483657836914e+00 3.907324075698852983e+00 -5.286692380905151367e-01 9.000000000000000000e+00
2.345248937606811968e+00 5.063973426818847656e+00 -4.882464706897736151e-01 9.000000000000000000e+00
3.379194974899291992e+00 7.289844512939453125e+00 -4.210951030254364014e-01 2.000000000000000000e+00
5.940201759338378906e+00 1.280292034149169922e+01 -2.463581711053847989e-01 2.000000000000000000e+00
9.460019469261169434e-01 2.031484127044678178e+00 -6.004601716995239258e-01 1.600000000000000000e+01
1.073537468910217063e+00 2.303257942199707031e+00 -5.866723656654357910e-01 1.000000000000000000e+01
1.242071628570557085e+00 2.663631200790404829e+00 -5.712821483612060547e-01 1.000000000000000000e+01
1.478755593299865945e+00 3.168313741683959961e+00 -5.537779927253723145e-01 9.000000000000000000e+00
1.825737357139586958e+00 3.908180713653564009e+00 -5.296441912651062012e-01 9.000000000000000000e+00
2.371347188949584961e+00 5.073805809020996094e+00 -4.899895787239075262e-01 9.000000000000000000e+00
3.408005952835083008e+00 7.285241127014160156e+00 -4.215137958526610773e-01 2.000000000000000000e+00
5.978072643280029297e+00 1.276761913299561080e+01 -2.460789233446120938e-01 2.000000000000000000e+00
9.559071660041809082e-01 2.033248186111450195e+00 -6.020131111145019531e-01 1.700000000000000000e+01
1.081972122192383035e+00 2.299307823181151900e+00 -5.866723656654357910e-01 1.200000000000000000e+01
1.250153541564940962e+00 2.655508279800415039e+00 -5.705189108848571777e-01 1.000000000000000000e+01
1.492042183876038042e+00 3.166446447372436968e+00 -5.544037222862243652e-01 9.000000000000000000e+00
1.833275079727173074e+00 3.887099266052246094e+00 -5.276942849159240723e-01 9.000000000000000000e+00
2.389077663421630859e+00 5.063278675079345703e+00 -4.898152649402617853e-01 9.000000000000000000e+00
3.427861452102661133e+00 7.258253097534179688e+00 -4.206764101982117254e-01 2.000000000000000000e+00
6.017991542816162109e+00 1.273115921020507990e+01 -2.457996904850006104e-01 2.000000000000000000e+00
9.605146050453186035e-01 2.024662733078002930e+00 -6.004601716995239258e-01 1.900000000000000000e+01
1.089991569519042969e+00 2.295516967773437944e+00 -5.866723656654357910e-01 1.200000000000000000e+01
1.258572936058043990e+00 2.649354934692382812e+00 -5.701372623443603516e-01 1.000000000000000000e+01
1.501389503479003906e+00 3.157650947570800781e+00 -5.537779927253723145e-01 9.000000000000000000e+00
1.850244522094727007e+00 3.887846231460570845e+00 -5.286692380905151367e-01 9.000000000000000000e+00
2.408450126647949219e+00 5.058506011962890625e+00 -4.901638925075531006e-01 9.000000000000000000e+00
3.453176498413085938e+00 7.246243476867675781e+00 -4.206764101982117254e-01 2.000000000000000000e+00
6.060673236846923828e+00 1.270646572113036932e+01 -2.457298785448074063e-01 2.000000000000000000e+00
9.663895368576049805e-01 2.019723892211914062e+00 -5.999425649642944336e-01 1.800000000000000000e+01
1.099281191825866921e+00 2.295404911041260210e+00 -5.875721573829650879e-01 1.100000000000000000e+01
1.268199920654297097e+00 2.646937370300292969e+00 -5.705189108848571777e-01 1.000000000000000000e+01
1.513560771942138894e+00 3.156217098236083984e+00 -5.544037222862243652e-01 9.000000000000000000e+00
1.863126993179321067e+00 3.881689071655272993e+00 -5.286692380905151367e-01 9.000000000000000000e+00
2.420036792755126953e+00 5.039715290069580078e+00 -4.891180396080017090e-01 9.000000000000000000e+00
3.480647802352904829e+00 7.241953372955322266e+00 -4.210951030254364014e-01 2.000000000000000000e+00
6.106243133544921875e+00 1.269350528717041016e+01 -2.458695024251937866e-01 2.000000000000000000e+00
9.717540144920349121e-01 2.012858629226685014e+00 -5.989072918891906738e-01 1.700000000000000000e+01
1.105591297149657981e+00 2.288044452667235884e+00 -5.866723656654357910e-01 1.000000000000000000e+01
1.274013757705688032e+00 2.635424137115478960e+00 -5.689924359321594238e-01 1.000000000000000000e+01
1.519406557083130105e+00 3.140245437622069868e+00 -5.525265336036682129e-01 9.000000000000000000e+00
1.880126118659972922e+00 3.882308483123778853e+00 -5.296441912651062012e-01 9.000000000000000000e+00
2.441088676452637163e+00 5.038409233093261719e+00 -4.898152649402617853e-01 9.000000000000000000e+00
3.509391546249390093e+00 7.236948013305664062e+00 -4.215137958526610773e-01 1.000000000000000000e+00
6.129559040069580078e+00 1.262893772125243963e+01 -2.450317889451980868e-01 2.000000000000000000e+00
9.828619360923767090e-01 2.016058444976807085e+00 -6.009778380393981934e-01 1.800000000000000000e+01
1.112659454345702903e+00 2.280279636383057085e+00 -5.857725739479064941e-01 1.100000000000000000e+01
1.288429975509643999e+00 2.639334201812744141e+00 -5.709004998207092285e-01 1.000000000000000000e+01
1.529718637466431108e+00 3.130838632583618164e+00 -5.519008040428161621e-01 9.000000000000000000e+00
1.891530871391295943e+00 3.867927551269530806e+00 -5.286692380905151367e-01 1.000000000000000000e+01
2.462167978286743164e+00 5.032578468322753906e+00 -4.901638925075531006e-01 9.000000000000000000e+00
3.526613235473632812e+00 7.201894283294677734e+00 -4.202577173709868830e-01 1.000000000000000000e+00
6.185045719146729404e+00 1.261967372894286932e+01 -2.453110218048095981e-01 2.000000000000000000e+00
9.907459020614624023e-01 2.014348983764647993e+00 -6.014954447746276855e-01 1.600000000000000000e+01
1.122333645820617898e+00 2.279878616333007812e+00 -5.866723656654357910e-01 1.000000000000000000e+01
1.294165492057800071e+00 2.627775669097899947e+00 -5.693740248680114746e-01 1.000000000000000000e+01
1.545004844665526900e+00 3.134338855743408203e+00 -5.534651279449462891e-01 8.000000000000000000e+00
1.901507854461669922e+00 3.854180335998535156e+00 -5.276942849159240723e-01 9.000000000000000000e+00
2.480601787567139116e+00 5.025739669799804688e+00 -4.903382062911986750e-01 9.000000000000000000e+00
3.557038784027100053e+00 7.200284481048583984e+00 -4.208857715129851740e-01 1.000000000000000000e+00
6.229059219360351562e+00 1.259800720214843928e+01 -2.453110218048095981e-01 2.000000000000000000e+00
9.948452115058898926e-01 2.005860328674315962e+00 -5.999425649642944336e-01 1.700000000000000000e+01
1.129887819290160911e+00 2.276144266128540039e+00 -5.866723656654357910e-01 1.100000000000000000e+01
1.301999092102051003e+00 2.621711254119873047e+00 -5.689924359321594238e-01 1.000000000000000000e+01
1.559786438941956010e+00 3.138042688369750977e+00 -5.550295114517211914e-01 9.000000000000000000e+00
1.915162444114685059e+00 3.849630832672119141e+00 -5.279380083084106445e-01 1.000000000000000000e+01
2.491039991378784180e+00 5.005000114440917969e+00 -4.891180396080017090e-01 9.000000000000000000e+00
3.586239337921143022e+00 7.199175357818604404e+00 -4.215137958526610773e-01 2.000000000000000000e+00
6.254740715026854581e+00 1.254506874084473012e+01 -2.446827441453933993e-01 2.000000000000000000e+00
1.000112056732177956e+00 1.998920202255249023e+00 -5.989072918891906738e-01 1.500000000000000000e+01
1.141316413879394975e+00 2.279156208038330078e+00 -5.884719491004943848e-01 1.000000000000000000e+01
1.312901377677917036e+00 2.620661020278931108e+00 -5.697556734085083008e-01 1.000000000000000000e+01
1.565418243408202903e+00 3.121984004974364790e+00 -5.531522631645202637e-01 9.000000000000000000e+00
1.931259632110595925e+00 3.848244905471802202e+00 -5.286692380905151367e-01 9.000000000000000000e+00
2.507601499557495117e+00 4.994493961334229404e+00 -4.889437258243560791e-01 9.000000000000000000e+00
3.622108697891234907e+00 7.208028793334960938e+00 -4.227698445320128839e-01 1.000000000000000000e+00
6.307477951049804688e+00 1.254102420806884943e+01 -2.450317889451980868e-01 2.000000000000000000e+00
1.002907633781433105e+00 1.988868594169616921e+00 -5.968367457389831543e-01 1.600000000000000000e+01
1.146714925765990989e+00 2.272080183029174805e+00 -5.875721573829650879e-01 1.100000000000000000e+01
1.319358229637145996e+00 2.613018512725830078e+00 -5.689924359321594238e-01 1.000000000000000000e+01
1.575218558311461958e+00 3.117050647735596147e+00 -5.531522631645202637e-01 9.000000000000000000e+00
1.952299356460571067e+00 3.859872579574584961e+00 -5.311065912246704102e-01 1.000000000000000000e+01
2.522380113601685014e+00 4.984813690185546875e+00 -4.887694120407103937e-01 9.000000000000000000e+00
3.624883174896239790e+00 7.157414913177490234e+00 -4.204670786857604980e-01 2.000000000000000000e+00
6.337804317474365234e+00 1.250331020355224965e+01 -2.446827441453933993e-01 2.000000000000000000e+00
1.012471437454224077e+00 1.990521311759948953e+00 -5.983896255493164062e-01 1.600000000000000000e+01
1.152870774269104004e+00 2.264590263366699219e+00 -5.866723656654357910e-01 1.100000000000000000e+01
1.331144332885741965e+00 2.613645315170288086e+00 -5.701372623443603516e-01 1.000000000000000000e+01
1.591472148895263894e+00 3.122092723846435991e+00 -5.550295114517211914e-01 9.000000000000000000e+00
1.954935312271117942e+00 3.831815242767333984e+00 -5.281817317008972168e-01 1.000000000000000000e+01
2.547011137008666992e+00 4.990175247192382812e+00 -4.901638925075531006e-01 9.000000000000000000e+00
3.655296564102172852e+00 7.155389785766601562e+00 -4.210951030254364014e-01 2.000000000000000000e+00
6.366845130920410156e+00 1.245262336730957031e+01 -2.441242635250092108e-01 2.000000000000000000e+00
1.028581738471985085e+00 2.003983974456787109e+00 -6.035659909248352051e-01 1.900000000000000000e+01
1.159382224082946999e+00 2.256882667541503906e+00 -5.857725739479064941e-01 1.100000000000000000e+01
1.339817404747009055e+00 2.607002735137939009e+00 -5.697556734085083008e-01 1.100000000000000000e+01
1.598386645317078081e+00 3.107455492019652876e+00 -5.534651279449462891e-01 8.000000000000000000e+00
1.967149257659912109e+00 3.821094512939453125e+00 -5.276942849159240723e-01 9.000000000000000000e+00
2.565284013748168945e+00 4.980806350708007812e+00 -4.901638925075531006e-01 9.000000000000000000e+00
3.677837371826171875e+00 7.134843349456787109e+00 -4.206764101982117254e-01 2.000000000000000000e+00
6.421612262725830078e+00 1.244697570800781072e+01 -2.444733083248137873e-01 2.000000000000000000e+00
1.031130075454711914e+00 1.991803288459778054e+00 -6.009778380393981934e-01 1.900000000000000000e+01
1.170839190483093040e+00 2.259742975234984907e+00 -5.875721573829650879e-01 1.100000000000000000e+01
1.343488454818726030e+00 2.591851949691772017e+00 -5.674659609794616699e-01 1.000000000000000000e+01
1.611953020095824973e+00 3.107117652893065962e+00 -5.544037222862243652e-01 9.000000000000000000e+00
1.984134435653686968e+00 3.821251630783081055e+00 -5.286692380905151367e-01 1.000000000000000000e+01
2.567041158676147017e+00 4.941764354705811435e+00 -4.872005879878997803e-01 9.000000000000000000e+00
3.702720165252685991e+00 7.121961593627929688e+00 -4.206764101982117254e-01 2.000000000000000000e+00
6.452098369598388672e+00 1.239964866638183949e+01 -2.439846396446228027e-01 2.000000000000000000e+00
1.033605813980102983e+00 1.979629516601562944e+00 -5.983896255493164062e-01 1.900000000000000000e+01
1.176914930343627930e+00 2.252187967300415039e+00 -5.866723656654357910e-01 1.100000000000000000e+01
1.354346752166748047e+00 2.590626239776610884e+00 -5.682291984558105469e-01 1.000000000000000000e+01
1.620957493782043013e+00 3.097971439361571822e+00 -5.537779927253723145e-01 9.000000000000000000e+00
2.003907442092895952e+00 3.826612234115601030e+00 -5.303753614425659180e-01 1.000000000000000000e+01
2.590747594833374023e+00 4.945127487182617188e+00 -4.884207844734191895e-01 9.000000000000000000e+00
3.734977960586547852e+00 7.123144149780273438e+00 -4.215137958526610773e-01 2.000000000000000000e+00
6.491624832153320312e+00 1.236996841430664062e+01 -2.438450157642365057e-01 2.000000000000000000e+00
1.041409850120543990e+00 1.977718830108643022e+00 -5.989072918891906738e-01 1.900000000000000000e+01
1.189312219619750977e+00 2.256685972213745117e+00 -5.889218449592590332e-01 1.200000000000000000e+01
1.368875265121459961e+00 2.596302986145019975e+00 -5.705189108848571777e-01 1.000000000000000000e+01
1.628073930740356001e+00 3.085306167602539062e+00 -5.525265336036682129e-01 9.000000000000000000e+00
2.018179655075072798e+00 3.821349382400513139e+00 -5.306191444396972656e-01 1.000000000000000000e+01
2.612647294998168945e+00 4.944862365722656250e+00 -4.892923533916472834e-01 9.000000000000000000e+00
3.759819507598876953e+00 7.110063076019287109e+00 -4.215137958526610773e-01 2.000000000000000000e+00
6.534764766693115234e+00 1.234723377227783025e+01 -2.438450157642365057e-01 2.000000000000000000e+00
1.050119161605834961e+00 1.977483987808227983e+00 -5.999425649642944336e-01 1.900000000000000000e+01
1.188951134681702104e+00 2.237033605575561968e+00 -5.848727226257324219e-01 1.200000000000000000e+01
1.380694746971129927e+00 2.596709251403809038e+00 -5.716637372970581055e-01 9.000000000000000000e+00
1.637905836105346902e+00 3.077860355377196822e+00 -5.522136688232421875e-01 9.000000000000000000e+00
2.032439470291138139e+00 3.816033363342285156e+00 -5.308628678321838379e-01 1.000000000000000000e+01
2.638324499130249023e+00 4.951537609100341797e+00 -4.908611476421356201e-01 6.000000000000000000e+00
3.771458148956298828e+00 7.072223186492919922e+00 -4.200483858585358221e-01 2.000000000000000000e+00
6.574058532714843750e+00 1.231729125976563033e+01 -2.437054067850112915e-01 2.000000000000000000e+00
1.060663461685181108e+00 1.980618357658386008e+00 -6.020131111145019531e-01 2.000000000000000000e+01
1.197673082351685014e+00 2.234587430953979048e+00 -5.853226184844970703e-01 1.200000000000000000e+01
1.387895107269287109e+00 2.588413476943970171e+00 -5.709004998207092285e-01 9.000000000000000000e+00
1.653309941291809082e+00 3.080827236175537109e+00 -5.537779927253723145e-01 9.000000000000000000e+00
2.034476280212401900e+00 3.787929773330688032e+00 -5.279380083084106445e-01 1.000000000000000000e+01
2.649934291839600053e+00 4.931767463684082031e+00 -4.898152649402617853e-01 9.000000000000000000e+00
3.777202606201171875e+00 7.023834228515625000e+00 -4.179549515247344971e-01 2.000000000000000000e+00
6.590477466583251953e+00 1.224496459960938033e+01 -2.427280694246292114e-01 2.000000000000000000e+00
1.067225575447082964e+00 1.977090239524841087e+00 -6.020131111145019531e-01 1.900000000000000000e+01
1.207855463027954102e+00 2.235747098922729048e+00 -5.866723656654357910e-01 1.100000000000000000e+01
1.394603967666625977e+00 2.580342531204224077e+00 -5.701372623443603516e-01 9.000000000000000000e+00
1.666336774826050027e+00 3.080540180206298828e+00 -5.547165870666503906e-01 9.000000000000000000e+00
2.049861431121826172e+00 3.786399364471435991e+00 -5.286692380905151367e-01 9.000000000000000000e+00
2.668171644210814986e+00 4.926456451416015625e+00 -4.901638925075531006e-01 9.000000000000000000e+00
3.829027175903319868e+00 7.063946723937988281e+00 -4.210951030254364014e-01 2.000000000000000000e+00
6.627233028411865234e+00 1.221601104736327947e+01 -2.425884455442428866e-01 2.000000000000000000e+00
1.066731810569762962e+00 1.959778666496277078e+00 -5.978720188140869141e-01 2.000000000000000000e+01
1.221245884895324929e+00 2.241784811019897017e+00 -5.893717408180236816e-01 1.100000000000000000e+01
1.405481576919556108e+00 2.578906297683715820e+00 -5.709004998207092285e-01 9.000000000000000000e+00
1.674242019653320090e+00 3.069502115249633789e+00 -5.537779927253723145e-01 9.000000000000000000e+00
2.070675134658813032e+00 3.793160200119018999e+00 -5.306191444396972656e-01 9.000000000000000000e+00
2.682487010955810991e+00 4.911867141723632812e+00 -4.896409511566162109e-01 9.000000000000000000e+00
3.845998525619506836e+00 7.036517620086669922e+00 -4.202577173709868830e-01 2.000000000000000000e+00
6.673673152923583984e+00 1.219982147216797053e+01 -2.427280694246292114e-01 2.000000000000000000e+00
1.079143166542053001e+00 1.966204404830933061e+00 -6.009778380393981934e-01 1.900000000000000000e+01
1.225310802459717019e+00 2.230676174163817915e+00 -5.875721573829650879e-01 1.000000000000000000e+01
1.414475083351135032e+00 2.573984622955321822e+00 -5.709004998207092285e-01 1.100000000000000000e+01
1.681138515472412109e+00 3.056715726852416992e+00 -5.525265336036682129e-01 9.000000000000000000e+00
2.080074310302733931e+00 3.778952836990356001e+00 -5.296441912651062012e-01 9.000000000000000000e+00
2.690966844558715820e+00 4.886765956878662109e+00 -4.880721569061278742e-01 9.000000000000000000e+00
3.855112791061400923e+00 6.995062351226806641e+00 -4.185829758644104004e-01 2.000000000000000000e+00
6.716217517852783203e+00 1.217645168304443004e+01 -2.427280694246292114e-01 2.000000000000000000e+00
1.084129095077515093e+00 1.959044933319092019e+00 -5.999425649642944336e-01 1.800000000000000000e+01
1.227424860000609907e+00 2.216156959533690962e+00 -5.848727226257324219e-01 1.200000000000000000e+01
1.426305890083312988e+00 2.574183225631713867e+00 -5.720453858375549316e-01 1.100000000000000000e+01
1.691798210144042969e+00 3.050828933715819868e+00 -5.525265336036682129e-01 9.000000000000000000e+00
2.089399337768555132e+00 3.764726161956787109e+00 -5.286692380905151367e-01 9.000000000000000000e+00
2.711877107620238814e+00 4.884310722351074219e+00 -4.887694120407103937e-01 9.000000000000000000e+00
3.885327339172362837e+00 6.992037773132324219e+00 -4.192110002040863037e-01 2.000000000000000000e+00
6.785893917083740234e+00 1.220186614990234020e+01 -2.437054067850112915e-01 2.000000000000000000e+00
1.092501640319823997e+00 1.958813428878783958e+00 -6.009778380393981934e-01 2.000000000000000000e+01
1.235716938972472922e+00 2.213776111602783203e+00 -5.853226184844970703e-01 1.300000000000000000e+01
1.427176713943481001e+00 2.555726528167725053e+00 -5.689924359321594238e-01 1.000000000000000000e+01
1.703833222389220969e+00 3.048650741577147993e+00 -5.531522631645202637e-01 9.000000000000000000e+00
2.107686519622803178e+00 3.768171787261962891e+00 -5.301316380500793457e-01 9.000000000000000000e+00
2.733896493911743164e+00 4.885723114013671875e+00 -4.898152649402617853e-01 9.000000000000000000e+00
3.926058530807495117e+00 7.010481834411621094e+00 -4.210951030254364014e-01 2.000000000000000000e+00
6.798943996429443359e+00 1.213045406341552912e+01 -2.427280694246292114e-01 2.000000000000000000e+00
1.098385572433471902e+00 1.953304052352905051e+00 -6.004601716995239258e-01 1.900000000000000000e+01
1.250127196311950906e+00 2.221337080001831055e+00 -5.884719491004943848e-01 1.100000000000000000e+01
1.438978672027587891e+00 2.555861473083496094e+00 -5.701372623443603516e-01 1.100000000000000000e+01
1.718343496322632058e+00 3.049568414688109907e+00 -5.544037222862243652e-01 9.000000000000000000e+00
2.117901802062987837e+00 3.755604267120360884e+00 -5.294004082679748535e-01 1.000000000000000000e+01
2.748976230621337891e+00 4.872679710388183594e+00 -4.894666373729705811e-01 9.000000000000000000e+00
3.940685987472534180e+00 6.979342937469482422e+00 -4.200483858585358221e-01 2.000000000000000000e+00
6.817635059356688565e+00 1.206486415863036932e+01 -2.418903559446335116e-01 2.000000000000000000e+00
1.098527908325195090e+00 1.937694072723388894e+00 -5.968367457389831543e-01 1.900000000000000000e+01
1.261720180511475053e+00 2.223739624023437944e+00 -5.902715921401977539e-01 1.100000000000000000e+01
1.444015026092529075e+00 2.543993473052978960e+00 -5.686107873916625977e-01 1.100000000000000000e+01
1.726050853729248047e+00 3.038398981094359907e+00 -5.534651279449462891e-01 8.000000000000000000e+00
2.137866258621215820e+00 3.760268211364746094e+00 -5.311065912246704102e-01 9.000000000000000000e+00
2.762028217315673828e+00 4.856126785278320312e+00 -4.887694120407103937e-01 9.000000000000000000e+00
3.976881027221680132e+00 6.986373901367188388e+00 -4.213044345378875732e-01 2.000000000000000000e+00
6.849809169769287109e+00 1.202361774444580078e+01 -2.415413111448287964e-01 2.000000000000000000e+00
1.112953901290893999e+00 1.947265505790710005e+00 -6.009778380393981934e-01 1.900000000000000000e+01
1.261734127998352051e+00 2.205789327621459961e+00 -5.866723656654357910e-01 1.100000000000000000e+01
1.458737015724181907e+00 2.549161195755004883e+00 -5.709004998207092285e-01 1.200000000000000000e+01
1.731737852096558061e+00 3.023784637451171875e+00 -5.519008040428161621e-01 9.000000000000000000e+00
2.147030353546143022e+00 3.745893955230712891e+00 -5.301316380500793457e-01 9.000000000000000000e+00
2.784908771514893022e+00 4.856826305389404297e+00 -4.898152649402617853e-01 9.000000000000000000e+00
3.995279312133789062e+00 6.962055683135986328e+00 -4.206764101982117254e-01 2.000000000000000000e+00
6.885762214660645419e+00 1.198922920227050959e+01 -2.413318753242492953e-01 2.000000000000000000e+00
1.121673345565795898e+00 1.946716547012329102e+00 -6.020131111145019531e-01 2.000000000000000000e+01
1.269426107406615989e+00 2.201371669769287109e+00 -5.866723656654357910e-01 1.200000000000000000e+01
1.469588398933411089e+00 2.547454833984375000e+00 -5.716637372970581055e-01 1.100000000000000000e+01
1.744257569313049094e+00 3.021142721176147017e+00 -5.525265336036682129e-01 9.000000000000000000e+00
2.166051864624022993e+00 3.748689174652100053e+00 -5.315940976142883301e-01 9.000000000000000000e+00
2.799851179122924805e+00 4.843626022338867188e+00 -4.894666373729705811e-01 9.000000000000000000e+00
4.001554489135742188e+00 6.916948795318604404e+00 -4.187923073768615723e-01 1.000000000000000000e+00
6.925566196441650391e+00 1.196165943145751953e+01 -2.412620633840560913e-01 2.000000000000000000e+00
1.133313298225403054e+00 1.951141715049744096e+00 -6.046012639999389648e-01 1.900000000000000000e+01
1.275143861770630105e+00 2.193557500839232954e+00 -5.857725739479064941e-01 1.100000000000000000e+01
1.475510835647583008e+00 2.537218093872069868e+00 -5.705189108848571777e-01 1.000000000000000000e+01
1.761748313903809038e+00 3.026986598968505859e+00 -5.547165870666503906e-01 1.000000000000000000e+01
2.169132709503173828e+00 3.723952293395996094e+00 -5.291566848754882812e-01 9.000000000000000000e+00
2.821757078170775923e+00 4.842430114746093750e+00 -4.903382062911986750e-01 9.000000000000000000e+00
4.013600826263427734e+00 6.882235050201416016e+00 -4.175362586975098211e-01 1.000000000000000000e+00
6.961230278015136719e+00 1.192704963684082031e+01 -2.410526424646378119e-01 2.000000000000000000e+00
1.132946491241455078e+00 1.935701966285706010e+00 -6.009778380393981934e-01 1.800000000000000000e+01
1.288320660591125044e+00 2.199405908584595171e+00 -5.884719491004943848e-01 1.100000000000000000e+01
1.477960944175719993e+00 2.522148132324219194e+00 -5.682291984558105469e-01 1.000000000000000000e+01
1.772775769233704057e+00 3.022831916809082031e+00 -5.550295114517211914e-01 9.000000000000000000e+00
2.181469678878784180e+00 3.716738700866699219e+00 -5.291566848754882812e-01 9.000000000000000000e+00
2.831746816635131836e+00 4.822737693786621094e+00 -4.892923533916472834e-01 8.000000000000000000e+00
4.024258613586425781e+00 6.848224163055419922e+00 -4.162802100181580145e-01 2.000000000000000000e+00
7.008852958679199219e+00 1.191768932342528942e+01 -2.413318753242492953e-01 2.000000000000000000e+00
1.133806467056273970e+00 1.921752333641052024e+00 -5.978720188140869141e-01 1.700000000000000000e+01
1.297971844673156960e+00 2.198251485824584961e+00 -5.893717408180236816e-01 1.100000000000000000e+01
1.489751338958740012e+00 2.522044897079468218e+00 -5.693740248680114746e-01 1.200000000000000000e+01
1.779295682907104048e+00 3.009823322296143022e+00 -5.537779927253723145e-01 9.000000000000000000e+00
2.199484348297119141e+00 3.717643737792969194e+00 -5.303753614425659180e-01 1.000000000000000000e+01
2.843489885330200195e+00 4.804250717163085938e+00 -4.884207844734191895e-01 9.000000000000000000e+00
4.072567939758300781e+00 6.875376701354979581e+00 -4.187923073768615723e-01 2.000000000000000000e+00
7.025937557220458984e+00 1.185186767578125000e+01 -2.404941618442535123e-01 2.000000000000000000e+00
1.139520287513732910e+00 1.916122436523437944e+00 -5.973543524742126465e-01 1.300000000000000000e+01
1.303643941879272017e+00 2.190358161926269975e+00 -5.884719491004943848e-01 1.100000000000000000e+01
1.505576491355895996e+00 2.528637409210205078e+00 -5.720453858375549316e-01 1.100000000000000000e+01
1.783723950386046919e+00 2.993412494659423828e+00 -5.519008040428161621e-01 9.000000000000000000e+00
2.215498208999633789e+00 3.715058326721190962e+00 -5.311065912246704102e-01 9.000000000000000000e+00
2.866367340087891069e+00 4.804562091827392578e+00 -4.894666373729705811e-01 9.000000000000000000e+00
4.096542835235595703e+00 6.861119270324707031e+00 -4.187923073768615723e-01 1.000000000000000000e+00
7.071368217468261719e+00 1.183413696289063033e+01 -2.406337857246398926e-01 2.000000000000000000e+00
1.151168107986449973e+00 1.920417904853821023e+00 -5.999425649642944336e-01 1.100000000000000000e+01
1.303261637687683105e+00 2.172425508499145952e+00 -5.848727226257324219e-01 1.100000000000000000e+01
1.513383626937865989e+00 2.521683216094971147e+00 -5.716637372970581055e-01 1.100000000000000000e+01
1.796196222305298074e+00 2.990554809570312944e+00 -5.525265336036682129e-01 9.000000000000000000e+00
2.224361896514893022e+00 3.700496673583983931e+00 -5.301316380500793457e-01 9.000000000000000000e+00
2.893388509750366211e+00 4.811601638793945312e+00 -4.912097752094268799e-01 9.000000000000000000e+00
4.120467662811279297e+00 6.846777915954589844e+00 -4.187923073768615723e-01 1.000000000000000000e+00
7.108507156372070312e+00 1.180252933502197088e+01 -2.404941618442535123e-01 2.000000000000000000e+00
1.155866503715514915e+00 1.913080930709839089e+00 -5.989072918891906738e-01 9.000000000000000000e+00
1.315878629684448020e+00 2.176201105117797852e+00 -5.871222615242004395e-01 1.200000000000000000e+01
1.519128322601317915e+00 2.511345624923706055e+00 -5.705189108848571777e-01 1.100000000000000000e+01
1.810716271400452104e+00 2.991025924682617188e+00 -5.537779927253723145e-01 9.000000000000000000e+00
2.233150959014893022e+00 3.685918331146239790e+00 -5.291566848754882812e-01 9.000000000000000000e+00
2.903970241546630859e+00 4.791249752044677734e+00 -4.901638925075531006e-01 9.000000000000000000e+00
4.133983612060546875e+00 6.815276145935058594e+00 -4.177455902099608820e-01 2.000000000000000000e+00
7.145511627197265625e+00 1.177080631256104049e+01 -2.403545379638671875e-01 2.000000000000000000e+00
1.164546966552733931e+00 1.912334561347960982e+00 -5.999425649642944336e-01 9.000000000000000000e+00
1.326509356498718040e+00 2.176586627960205078e+00 -5.884719491004943848e-01 1.300000000000000000e+01
1.525841355323791948e+00 2.502675056457519975e+00 -5.697556734085083008e-01 1.000000000000000000e+01
1.825261473655700906e+00 2.991432189941405806e+00 -5.550295114517211914e-01 9.000000000000000000e+00
2.246003627777100053e+00 3.678100824356079102e+00 -5.291566848754882812e-01 1.000000000000000000e+01
2.916522502899169922e+00 4.774282455444335938e+00 -4.894666373729705811e-01 8.000000000000000000e+00
4.168166160583496094e+00 6.817844867706298828e+00 -4.187923073768615723e-01 2.000000000000000000e+00
7.169857501983642578e+00 1.171850013732909979e+01 -2.397960573434829989e-01 2.000000000000000000e+00
1.158078193664551003e+00 1.886853694915771040e+00 -5.932132601737976074e-01 8.000000000000000000e+00
1.333078980445862038e+00 2.170282602310181108e+00 -5.880220532417297363e-01 1.200000000000000000e+01
1.537651538848876953e+00 2.502351760864257812e+00 -5.709004998207092285e-01 1.100000000000000000e+01
1.834657669067383035e+00 2.983360052108765093e+00 -5.547165870666503906e-01 9.000000000000000000e+00
2.262990713119506836e+00 3.677000761032104048e+00 -5.301316380500793457e-01 9.000000000000000000e+00
2.939437627792357954e+00 4.774252414703369141e+00 -4.905125200748444159e-01 9.000000000000000000e+00
4.187748432159423828e+00 6.796452045440673828e+00 -4.183736443519591730e-01 2.000000000000000000e+00
7.210719108581542969e+00 1.169340133666992010e+01 -2.397960573434829989e-01 2.000000000000000000e+00
1.162624955177306907e+00 1.879513978958130105e+00 -5.921779870986938477e-01 7.000000000000000000e+00
1.345775365829467995e+00 2.173900604248046875e+00 -5.902715921401977539e-01 1.100000000000000000e+01
1.545343279838562012e+00 2.495300054550170898e+00 -5.705189108848571777e-01 1.000000000000000000e+01
1.837775826454163042e+00 2.965184450149536133e+00 -5.525265336036682129e-01 9.000000000000000000e+00
2.282090187072753906e+00 3.679200649261475053e+00 -5.315940976142883301e-01 9.000000000000000000e+00
2.947680950164794922e+00 4.750419616699218750e+00 -4.891180396080017090e-01 9.000000000000000000e+00
4.207232475280761719e+00 6.775005817413330078e+00 -4.179549515247344971e-01 2.000000000000000000e+00
7.264159202575683594e+00 1.168854045867919922e+01 -2.402149289846420011e-01 2.000000000000000000e+00
1.170894622802733931e+00 1.878927350044250044e+00 -5.932132601737976074e-01 9.000000000000000000e+00
1.344727039337157981e+00 2.156197786331177202e+00 -5.866723656654357910e-01 1.200000000000000000e+01
1.556727170944214089e+00 2.495158672332764116e+00 -5.716637372970581055e-01 1.100000000000000000e+01
1.845506191253662109e+00 2.955722570419311968e+00 -5.519008040428161621e-01 9.000000000000000000e+00
2.296382188796997070e+00 3.674979448318481001e+00 -5.320815443992614746e-01 9.000000000000000000e+00
2.967642068862915039e+00 4.747376441955566406e+00 -4.898152649402617853e-01 9.000000000000000000e+00
4.225439071655273438e+00 6.754243850708007812e+00 -4.175362586975098211e-01 2.000000000000000000e+00
7.302879810333251953e+00 1.166438770294188920e+01 -2.402149289846420011e-01 2.000000000000000000e+00
1.182583451271056907e+00 1.883008480072021040e+00 -5.958014130592346191e-01 9.000000000000000000e+00
1.352245330810547097e+00 2.151490688323975053e+00 -5.866723656654357910e-01 1.000000000000000000e+01
1.561247348785399947e+00 2.483061552047729048e+00 -5.701372623443603516e-01 1.100000000000000000e+01
1.862124681472778098e+00 2.959294080734252930e+00 -5.537779927253723145e-01 9.000000000000000000e+00
2.300733804702758789e+00 3.653503179550170898e+00 -5.301316380500793457e-01 1.000000000000000000e+01
2.990567445755004883e+00 4.747102737426757812e+00 -4.908611476421356201e-01 9.000000000000000000e+00
4.242599010467529297e+00 6.729316234588623047e+00 -4.169082343578339178e-01 2.000000000000000000e+00
7.343551635742188388e+00 1.163882446289063033e+01 -2.402149289846420011e-01 2.000000000000000000e+00
1.187788367271422896e+00 1.877444028854369895e+00 -5.952838063240051270e-01 1.400000000000000000e+01
1.361457467079163042e+00 2.150287628173828125e+00 -5.875721573829650879e-01 1.100000000000000000e+01
1.569472908973694070e+00 2.477870464324951172e+00 -5.701372623443603516e-01 1.100000000000000000e+01
1.871927738189697044e+00 2.953102827072143999e+00 -5.537779927253723145e-01 9.000000000000000000e+00
2.312836408615111861e+00 3.645853519439696822e+00 -5.301316380500793457e-01 9.000000000000000000e+00
2.999887466430664062e+00 4.727066516876220703e+00 -4.898152649402617853e-01 9.000000000000000000e+00
4.288447856903076172e+00 6.752301692962645596e+00 -4.192110002040863037e-01 2.000000000000000000e+00
7.382106781005859375e+00 1.161440849304199041e+01 -2.402149289846420011e-01 2.000000000000000000e+00
1.197450280189513938e+00 1.878173232078552024e+00 -5.968367457389831543e-01 2.000000000000000000e+01
1.377340674400330034e+00 2.158664703369141069e+00 -5.911713838577270508e-01 1.100000000000000000e+01
1.574943780899048074e+00 2.467412233352661133e+00 -5.689924359321594238e-01 1.000000000000000000e+01
1.884351491928101030e+00 2.949880123138428178e+00 -5.544037222862243652e-01 9.000000000000000000e+00
2.327687263488769975e+00 3.641103029251099077e+00 -5.306191444396972656e-01 9.000000000000000000e+00
3.016369819641112837e+00 4.716566085815429688e+00 -4.898152649402617853e-01 9.000000000000000000e+00
4.303378582000732422e+00 6.723833084106445312e+00 -4.183736443519591730e-01 3.000000000000000000e+00
7.379461765289306641e+00 1.152121353149414062e+01 -2.388187348842621127e-01 2.000000000000000000e+00
1.204326033592223899e+00 1.873771786689758079e+00 -5.968367457389831543e-01 1.900000000000000000e+01
1.383134841918945090e+00 2.150324106216431108e+00 -5.902715921401977539e-01 1.100000000000000000e+01
1.592475652694701926e+00 2.474831104278564009e+00 -5.720453858375549316e-01 1.000000000000000000e+01
1.888733625411987083e+00 2.932988882064818892e+00 -5.525265336036682129e-01 9.000000000000000000e+00
2.339941501617432085e+00 3.630878686904906782e+00 -5.303753614425659180e-01 1.000000000000000000e+01
3.033636569976807085e+00 4.705478668212890625e+00 -4.898152649402617853e-01 9.000000000000000000e+00
4.327993869781494141e+00 6.708015441894531250e+00 -4.183736443519591730e-01 2.000000000000000000e+00
7.452011585235595703e+00 1.154112720489501953e+01 -2.397960573434829989e-01 2.000000000000000000e+00
1.218210697174072044e+00 1.880906820297240989e+00 -6.004601716995239258e-01 2.200000000000000000e+01
1.382153034210205078e+00 2.132400751113892046e+00 -5.866723656654357910e-01 1.100000000000000000e+01
1.601104736328125000e+00 2.469257354736328125e+00 -5.720453858375549316e-01 1.100000000000000000e+01
1.896809577941894975e+00 2.923063993453979048e+00 -5.519008040428161621e-01 9.000000000000000000e+00
2.355844974517821822e+00 3.627683162689208984e+00 -5.311065912246704102e-01 9.000000000000000000e+00
3.057641267776488814e+00 4.706555843353270596e+00 -4.910354614257813055e-01 9.000000000000000000e+00
4.339407444000244141e+00 6.674448013305664062e+00 -4.172222316265106201e-01 3.000000000000000000e+00
7.470440864562988281e+00 1.148152160644531072e+01 -2.390979677438735962e-01 2.000000000000000000e+00
1.228334784507751021e+00 1.883543014526366965e+00 -6.025307178497314453e-01 2.100000000000000000e+01
1.395235776901244895e+00 2.137839555740356001e+00 -5.893717408180236816e-01 1.100000000000000000e+01
1.605634331703186035e+00 2.459283351898192915e+00 -5.709004998207092285e-01 1.100000000000000000e+01
1.909224748611449973e+00 2.922051668167113814e+00 -5.528393983840942383e-01 1.000000000000000000e+01
2.365057229995727983e+00 3.616941213607788086e+00 -5.306191444396972656e-01 9.000000000000000000e+00
3.084409475326538086e+00 4.715267658233642578e+00 -4.929528832435607910e-01 9.000000000000000000e+00
4.360354423522949219e+00 6.660782337188720703e+00 -4.172222316265106201e-01 3.000000000000000000e+00
7.506474018096923828e+00 1.145799636840819957e+01 -2.390979677438735962e-01 2.000000000000000000e+00
