2.432939529418944868e+00 1.734758257865905984e+00 -5.808225870132446289e-01 1.200000000000000000e+01
2.886160612106322798e+00 2.056399106979370117e+00 -5.612868666648864746e-01 1.400000000000000000e+01
3.581876039505004883e+00 2.550214052200316939e+00 -5.398811697959899902e-01 1.000000000000000000e+01
3.156648063659667969e+01 2.246631431579589844e+01 6.136610984802246094e+00 1.400000000000000000e+01
4.712282657623291016e+00 3.353798627853393999e+00 -5.060262680053710938e-01 8.000000000000000000e+00
6.743218898773193359e+00 4.795699596405029297e+00 -4.336557388305664062e-01 1.000000000000000000e+00
3.231504821777343750e+01 2.297359848022460938e+01 9.153708457946777344e+00 1.200000000000000000e+01
1.107426929473876953e+01 7.870073795318604404e+00 -2.371432930231094083e-01 2.000000000000000000e+00
1.839503526687622070e+00 1.303405404090880904e+00 -6.040836572647094727e-01 1.900000000000000000e+01
2.091428756713867188e+00 1.480814099311829057e+00 -5.916212797164916992e-01 1.200000000000000000e+01
2.434172630310059038e+00 1.722852587699889915e+00 -5.796777009963989258e-01 1.200000000000000000e+01
2.899772405624390093e+00 2.050874710083007812e+00 -5.625383257865905762e-01 1.200000000000000000e+01
3.576166152954102007e+00 2.527384281158446822e+00 -5.376875400543212891e-01 9.000000000000000000e+00
4.756506443023681641e+00 3.360321521759033203e+00 -5.095124840736389160e-01 9.000000000000000000e+00
6.766444683074951172e+00 4.776739597320556641e+00 -4.340744316577910822e-01 2.000000000000000000e+00
1.108860111236572088e+01 7.822147846221923828e+00 -2.368640601634978970e-01 2.000000000000000000e+00
3.204721450805664062e+01 2.260682296752930043e+01 1.050857067108153942e+01 9.000000000000000000e+00
1.848328590393065962e+00 1.300955772399901900e+00 -6.056365370750427246e-01 1.900000000000000000e+01
2.100852489471435991e+00 1.477599620819092019e+00 -5.929709672927856445e-01 1.300000000000000000e+01
2.437967061996459961e+00 1.714067816734313965e+00 -5.792961120605468750e-01 1.200000000000000000e+01
2.920748233795166016e+00 2.051974773406981978e+00 -5.653541684150695801e-01 1.100000000000000000e+01
3.593836784362792969e+00 2.522980690002440962e+00 -5.391499996185302734e-01 9.000000000000000000e+00
4.755623340606688565e+00 3.337350606918334961e+00 -5.082923173904418945e-01 6.000000000000000000e+00
6.797770500183104581e+00 4.766925811767578125e+00 -4.351211488246917725e-01 2.000000000000000000e+00
3.146777534484862926e+01 2.205853843688964844e+01 8.872069358825683594e+00 1.200000000000000000e+01
1.111967086791992010e+01 7.791863441467285156e+00 -2.370036840438843051e-01 2.000000000000000000e+00
3.239732360839843750e+01 2.269327735900878906e+01 1.059863948822020951e+01 9.000000000000000000e+00
1.843356609344481978e+00 1.287857532501220925e+00 -6.025307178497314453e-01 1.900000000000000000e+01
2.113986730575561968e+00 1.475834846496582031e+00 -5.952205061912536621e-01 1.500000000000000000e+01
2.445545434951781782e+00 1.706670761108397993e+00 -5.796777009963989258e-01 1.200000000000000000e+01
2.916551113128662109e+00 2.033857583999633789e+00 -5.631640553474426270e-01 1.100000000000000000e+01
3.170475196838378906e+01 2.210109138488769887e+01 4.745348453521729404e+00 2.000000000000000000e+01
3.610764980316162109e+00 2.516094923019409180e+00 -5.403686761856079102e-01 1.000000000000000000e+01
4.773783206939697266e+00 3.325285196304320845e+00 -5.089895129203796387e-01 9.000000000000000000e+00
6.791419029235839844e+00 4.727194309234619141e+00 -4.336557388305664062e-01 2.000000000000000000e+00
3.024568748474121094e+01 2.104479598999023082e+01 8.506749153137207031e+00 1.100000000000000000e+01
1.115336894989014027e+01 7.757568359375000000e+00 -2.371432930231094083e-01 2.000000000000000000e+00
3.250489044189453125e+01 2.259990119934082031e+01 1.060795783996582031e+01 9.000000000000000000e+00
1.851015806198119895e+00 1.283616900444030984e+00 -6.035659909248352051e-01 1.900000000000000000e+01
2.119125604629517046e+00 1.468446731567383035e+00 -5.952205061912536621e-01 1.200000000000000000e+01
2.454715728759766069e+00 1.700359702110290971e+00 -5.804409384727478027e-01 1.200000000000000000e+01
2.923632860183715820e+00 2.023664474487305132e+00 -5.631640553474426270e-01 1.100000000000000000e+01
3.186332702636719105e+01 2.204676246643066051e+01 4.757535457611083984e+00 2.000000000000000000e+01
3.621158361434936968e+00 2.504604816436768022e+00 -5.406123995780944824e-01 9.000000000000000000e+00
4.782083988189697266e+00 3.306335210800170898e+00 -5.086408853530883789e-01 9.000000000000000000e+00
6.821024417877197266e+00 4.712541103363037109e+00 -4.344930946826934814e-01 2.000000000000000000e+00
3.040234565734862926e+01 2.099667549133301137e+01 8.530143737792968750e+00 1.100000000000000000e+01
1.119025325775145951e+01 7.725405216217041016e+00 -2.373527288436889926e-01 2.000000000000000000e+00
1.855485200881958008e+00 1.277147889137268066e+00 -6.035659909248352051e-01 1.800000000000000000e+01
2.109787702560424805e+00 1.451101541519165039e+00 -5.911713838577270508e-01 1.300000000000000000e+01
2.463871717453002930e+00 1.694005370140075906e+00 -5.812041759490966797e-01 1.200000000000000000e+01
2.937191486358643022e+00 2.017920970916748047e+00 -5.644155740737915039e-01 1.100000000000000000e+01
3.252917861938477273e+01 2.233997154235839844e+01 4.845281124114990234e+00 2.000000000000000000e+01
3.629878997802733931e+00 2.491949319839477983e+00 -5.406123995780944824e-01 1.000000000000000000e+01
4.818237781524658203e+00 3.306532859802246094e+00 -5.112555623054504395e-01 9.000000000000000000e+00
6.814372539520263672e+00 4.672889232635498047e+00 -4.330277144908905029e-01 2.000000000000000000e+00
3.046902275085448863e+01 2.088601684570312855e+01 8.528344154357910156e+00 1.100000000000000000e+01
1.119405841827392933e+01 7.670472145080566406e+00 -2.368640601634978970e-01 2.000000000000000000e+00
3.242917633056641336e+01 2.221303558349609020e+01 1.053238201141357067e+01 9.000000000000000000e+00
1.866312623023987038e+00 1.275022268295288086e+00 -6.056365370750427246e-01 1.800000000000000000e+01
2.118059158325194868e+00 1.445925712585448997e+00 -5.920711755752563477e-01 1.300000000000000000e+01
2.464905023574829102e+00 1.682074546813965066e+00 -5.800593495368957520e-01 1.100000000000000000e+01
2.939321279525756836e+00 2.004317283630371094e+00 -5.634769201278686523e-01 1.200000000000000000e+01
3.294157791137695312e+01 2.245437431335448863e+01 4.895004272460938388e+00 2.100000000000000000e+01
3.633634090423583984e+00 2.475910186767578125e+00 -5.398811697959899902e-01 1.000000000000000000e+01
4.839630603790283203e+00 3.296423435211182085e+00 -5.123014450073242188e-01 9.000000000000000000e+00
6.847153186798095703e+00 4.660311698913574219e+00 -4.340744316577910822e-01 1.000000000000000000e+00
3.061263656616210938e+01 2.082776641845703125e+01 8.548140525817871094e+00 1.100000000000000000e+01
1.124060726165770951e+01 7.644845962524414062e+00 -2.372829169034957886e-01 2.000000000000000000e+00
1.870751857757567915e+00 1.268499851226807085e+00 -6.056365370750427246e-01 1.800000000000000000e+01
2.134386539459228960e+00 1.446175217628479004e+00 -5.952205061912536621e-01 1.500000000000000000e+01
2.465884923934936968e+00 1.670157313346863015e+00 -5.789144635200500488e-01 1.200000000000000000e+01
2.954479455947875977e+00 1.999580979347229004e+00 -5.650413036346435547e-01 1.100000000000000000e+01
3.647187471389770952e+00 2.466547489166260210e+00 -5.406123995780944824e-01 1.000000000000000000e+01
3.178369903564453125e+01 2.149492073059082031e+01 6.077166080474854404e+00 1.400000000000000000e+01
4.851107597351074219e+00 3.279510021209716797e+00 -5.123014450073242188e-01 8.000000000000000000e+00
6.866689205169677734e+00 4.638618469238281250e+00 -4.342837631702423096e-01 2.000000000000000000e+00
1.126059436798096058e+01 7.601087093353270596e+00 -2.371432930231094083e-01 2.000000000000000000e+00
3.091161346435546875e+01 2.085799598693848012e+01 9.991968154907226562e+00 8.000000000000000000e+00
1.868976950645446999e+00 1.257321357727051003e+00 -6.035659909248352051e-01 1.700000000000000000e+01
2.133203506469727007e+00 1.433993816375731978e+00 -5.934208631515502930e-01 1.200000000000000000e+01
2.475248813629149947e+00 1.663298249244689941e+00 -5.796777009963989258e-01 1.000000000000000000e+01
2.956868410110474077e+00 1.985435247421265093e+00 -5.641027092933654785e-01 1.000000000000000000e+01
3.657851934432982954e+00 2.454269409179687944e+00 -5.408561229705810547e-01 1.000000000000000000e+01
4.871368408203125000e+00 3.267256736755371094e+00 -5.131729841232299805e-01 9.000000000000000000e+00
6.893599033355712891e+00 4.620091438293457031e+00 -4.349117875099182129e-01 2.000000000000000000e+00
3.225036621093750000e+01 2.160604476928710938e+01 8.962050437927246094e+00 1.200000000000000000e+01
1.128173160552979049e+01 7.555313110351563388e+00 -2.370036840438843051e-01 2.000000000000000000e+00
1.873354434967041016e+00 1.250789761543273926e+00 -6.035659909248352051e-01 1.800000000000000000e+01
2.149543762207030806e+00 1.434109449386596902e+00 -5.965701937675476074e-01 1.100000000000000000e+01
2.479406356811522993e+00 1.653558492660522017e+00 -5.792961120605468750e-01 1.100000000000000000e+01
2.952274322509766069e+00 1.967433571815490945e+00 -5.619125962257385254e-01 9.000000000000000000e+00
3.679614782333374023e+00 2.450288295745850053e+00 -5.428060293197631836e-01 1.000000000000000000e+01
3.186805725097655895e+01 2.121319580078125000e+01 6.063399791717529297e+00 1.400000000000000000e+01
4.862841129302979404e+00 3.236984252929687944e+00 -5.110812783241271973e-01 9.000000000000000000e+00
6.893054485321044922e+00 4.584938526153563565e+00 -4.338650703430175781e-01 2.000000000000000000e+00
3.204647064208983664e+01 2.130775260925292969e+01 8.884666442871093750e+00 1.200000000000000000e+01
1.131469726562500000e+01 7.520314216613770419e+00 -2.371432930231094083e-01 2.000000000000000000e+00
3.268524932861328125e+01 2.171602630615234020e+01 1.051478290557860973e+01 9.000000000000000000e+00
1.877491950988769975e+00 1.244570612907409890e+00 -6.035659909248352051e-01 1.700000000000000000e+01
2.138041019439696822e+00 1.416211962699889915e+00 -5.920711755752563477e-01 1.100000000000000000e+01
2.489787101745605025e+00 1.648579120635986106e+00 -5.804409384727478027e-01 1.200000000000000000e+01
2.962077140808105025e+00 1.959812641143799050e+00 -5.625383257865905762e-01 9.000000000000000000e+00
3.681096315383911133e+00 2.433693647384643999e+00 -5.418310761451721191e-01 1.000000000000000000e+01
4.895157337188720703e+00 3.235121488571166992e+00 -5.133473277091979980e-01 9.000000000000000000e+00
6.911553859710693359e+00 4.564256191253662109e+00 -4.340744316577910822e-01 2.000000000000000000e+00
3.221778869628906250e+01 2.126792907714844105e+01 8.912560462951660156e+00 1.200000000000000000e+01
1.135626411437987926e+01 7.493765354156494141e+00 -2.374923527240752896e-01 2.000000000000000000e+00
3.296614837646483664e+01 2.175368499755859020e+01 1.058311080932617010e+01 9.000000000000000000e+00
1.893122315406799094e+00 1.245441675186157005e+00 -6.071894764900207520e-01 1.900000000000000000e+01
2.142971515655518022e+00 1.408740162849426047e+00 -5.920711755752563477e-01 1.100000000000000000e+01
2.493885755538939986e+00 1.638799905776977983e+00 -5.800593495368957520e-01 1.300000000000000000e+01
2.982109785079956055e+00 1.958135128021240012e+00 -5.650413036346435547e-01 1.100000000000000000e+01
3.504440307617188211e+01 2.300236320495605113e+01 5.147029876708984375e+00 2.800000000000000000e+01
3.682930231094359907e+00 2.416473388671875000e+00 -5.408561229705810547e-01 1.000000000000000000e+01
4.896423816680908203e+00 3.211458206176757812e+00 -5.123014450073242188e-01 8.000000000000000000e+00
6.944149017333984375e+00 4.551050662994384766e+00 -4.351211488246917725e-01 1.000000000000000000e+00
3.241245651245117188e+01 2.123436355590819957e+01 8.945853233337402344e+00 1.200000000000000000e+01
1.135893249511718928e+01 7.438741683959960938e+00 -2.370036840438843051e-01 2.000000000000000000e+00
3.321052551269531250e+01 2.174063682556151988e+01 1.063591003417968928e+01 9.000000000000000000e+00
1.886349797248840110e+00 1.231103897094727007e+00 -6.035659909248352051e-01 1.800000000000000000e+01
2.151385068893433061e+00 1.403005361557007058e+00 -5.929709672927856445e-01 1.000000000000000000e+01
2.493296861648560014e+00 1.625359773635864036e+00 -5.785328745841979980e-01 1.400000000000000000e+01
2.982645988464355025e+00 1.942879199981689009e+00 -5.637897849082946777e-01 9.000000000000000000e+00
3.688434839248656782e+00 2.400792837142943892e+00 -5.403686761856079102e-01 1.000000000000000000e+01
3.288609695434570312e+01 2.140547752380371094e+01 6.214828491210938388e+00 1.400000000000000000e+01
4.921521663665770596e+00 3.202183008193970171e+00 -5.136959552764892578e-01 8.000000000000000000e+00
6.960782527923583984e+00 4.525568485260009766e+00 -4.351211488246917725e-01 2.000000000000000000e+00
3.265346527099608664e+01 2.122161674499512074e+01 8.990843772888183594e+00 1.200000000000000000e+01
1.142301273345947088e+01 7.421025753021240234e+00 -2.377715855836868009e-01 2.000000000000000000e+00
3.258636856079102273e+01 2.116992187500000000e+01 1.041229057312012074e+01 8.000000000000000000e+00
1.895500063896178977e+00 1.227662324905395952e+00 -6.051189303398132324e-01 1.900000000000000000e+01
2.159541368484497070e+00 1.397604703903198020e+00 -5.938707590103149414e-01 1.100000000000000000e+01
2.508845567703247070e+00 1.623044967651366965e+00 -5.808225870132446289e-01 1.300000000000000000e+01
2.999363422393798828e+00 1.938890337944030984e+00 -5.656670331954956055e-01 9.000000000000000000e+00
3.701795101165771040e+00 2.391134500503540039e+00 -5.410999059677124023e-01 1.000000000000000000e+01
3.300748062133789062e+01 2.131266021728515980e+01 6.222962856292724609e+00 1.400000000000000000e+01
4.914257526397705078e+00 3.173095941543579102e+00 -5.117785334587097168e-01 8.000000000000000000e+00
3.095457649230957031e+01 1.997946357727051137e+01 7.161443233489990234e+00 6.100000000000000000e+01
6.986607074737548828e+00 4.507740020751953125e+00 -4.357491731643676758e-01 2.000000000000000000e+00
3.070317459106444957e+01 1.980201721191405895e+01 8.434764862060546875e+00 1.100000000000000000e+01
1.146229267120360973e+01 7.389775276184082031e+00 -2.380508184432983121e-01 2.000000000000000000e+00
3.258904647827147727e+01 2.100220680236816051e+01 1.038847923278808949e+01 8.000000000000000000e+00
1.897722721099853960e+00 1.220656275749206987e+00 -6.046012639999389648e-01 1.900000000000000000e+01
3.226769256591796875e+01 2.074731636047362926e+01 6.696139574050903320e-01 3.200000000000000000e+01
2.167200088500977007e+00 1.392920613288878950e+00 -5.947706103324890137e-01 1.200000000000000000e+01
2.520539045333861861e+00 1.619400024414062944e+00 -5.823490619659423828e-01 1.300000000000000000e+01
3.013751268386840820e+00 1.934793949127197044e+00 -5.672313570976257324e-01 8.000000000000000000e+00
3.712630510330200195e+00 2.381636857986450195e+00 -5.415873527526855469e-01 1.000000000000000000e+01
4.920847415924072266e+00 3.155490875244141069e+00 -5.114299058914184570e-01 9.000000000000000000e+00
6.997370719909667969e+00 4.483613967895507812e+00 -4.355398416519165039e-01 2.000000000000000000e+00
3.074225807189941051e+01 1.969074821472167969e+01 8.428465843200683594e+00 1.100000000000000000e+01
1.152923774719237926e+01 7.381763935089111328e+00 -2.389583438634871881e-01 2.000000000000000000e+00
3.386166763305664062e+01 2.168042755126953125e+01 1.077360153198242010e+01 9.000000000000000000e+00
1.906857252120971902e+00 1.217142820358275923e+00 -6.061542034149169922e-01 1.900000000000000000e+01
2.162190914154053178e+00 1.379059672355652078e+00 -5.920711755752563477e-01 1.000000000000000000e+01
2.526176452636719194e+00 1.610591888427733931e+00 -5.823490619659423828e-01 1.400000000000000000e+01
3.002160549163817915e+00 1.912587165832519975e+00 -5.637897849082946777e-01 7.000000000000000000e+00
3.602797698974608664e+01 2.294351387023926137e+01 5.244525432586669922e+00 3.000000000000000000e+01
3.725945234298706055e+00 2.371860742568970171e+00 -5.423185825347900391e-01 1.000000000000000000e+01
3.143820190429687855e+01 2.000520896911621094e+01 5.901959419250488281e+00 1.300000000000000000e+01
4.938556194305419922e+00 3.142573118209838867e+00 -5.121271610260009766e-01 9.000000000000000000e+00
7.006237030029296875e+00 4.454874515533447266e+00 -4.351211488246917725e-01 2.000000000000000000e+00
3.101473999023437855e+01 1.971293830871582031e+01 8.484253883361816406e+00 1.100000000000000000e+01
1.154818344116210938e+01 7.337184906005859375e+00 -2.388187348842621127e-01 2.000000000000000000e+00
3.272109603881835938e+01 2.078146553039551137e+01 1.038640785217284979e+01 8.000000000000000000e+00
1.915990352630615012e+00 1.213580369949341042e+00 -6.077071428298950195e-01 1.800000000000000000e+01
2.170284986495972124e+00 1.373588204383850098e+00 -5.929709672927856445e-01 1.000000000000000000e+01
2.525146722793579102e+00 1.597565412521362083e+00 -5.808225870132446289e-01 1.400000000000000000e+01
3.002139568328856978e+00 1.897873759269713911e+00 -5.625383257865905762e-01 7.000000000000000000e+00
3.599037933349608664e+01 2.274338340759276988e+01 5.227463722229003906e+00 3.000000000000000000e+01
3.725810289382935014e+00 2.353539466857910156e+00 -5.410999059677124023e-01 1.000000000000000000e+01
4.966341972351074219e+00 3.135952711105347124e+00 -5.138702392578125000e-01 9.000000000000000000e+00
7.018366336822509766e+00 4.428259372711181641e+00 -4.349117875099182129e-01 2.000000000000000000e+00
3.099435424804687855e+01 1.954841995239258168e+01 8.459959030151367188e+00 1.100000000000000000e+01
1.157372474670409979e+01 7.296829223632813388e+00 -2.388187348842621127e-01 2.000000000000000000e+00
3.246299362182617188e+01 2.046678543090819957e+01 1.028288078308104936e+01 8.000000000000000000e+00
1.923486113548279031e+00 1.208940863609313965e+00 -6.087424159049987793e-01 1.900000000000000000e+01
2.181667566299438032e+00 1.370149850845336914e+00 -5.947706103324890137e-01 1.100000000000000000e+01
2.527382373809814009e+00 1.586653590202331987e+00 -5.800593495368957520e-01 1.400000000000000000e+01
3.020459651947021040e+00 1.894730806350708008e+00 -5.647284388542175293e-01 1.000000000000000000e+01
3.141096496582030895e+01 1.969642257690430043e+01 4.552307605743408203e+00 1.900000000000000000e+01
3.732321023941040039e+00 2.339465379714965820e+00 -5.408561229705810547e-01 9.000000000000000000e+00
4.963751316070556641e+00 3.110134840011597124e+00 -5.124757885932922363e-01 6.000000000000000000e+00
7.064252376556395596e+00 4.422811508178710938e+00 -4.367958903312683105e-01 2.000000000000000000e+00
3.107561874389648082e+01 1.944838142395019887e+01 8.463558197021484375e+00 1.100000000000000000e+01
1.158217239379882990e+01 7.245779514312744141e+00 -2.384696751832962036e-01 2.000000000000000000e+00
3.258664703369141336e+01 2.038612937927246094e+01 1.029944515228270951e+01 8.000000000000000000e+00
1.914580821990967019e+00 1.194040894508362038e+00 -6.046012639999389648e-01 1.800000000000000000e+01
2.186436891555786133e+00 1.362526059150696023e+00 -5.947706103324890137e-01 1.000000000000000000e+01
2.541237354278564009e+00 1.583011984825134055e+00 -5.819674134254455566e-01 1.400000000000000000e+01
3.030409336090087891e+00 1.886263608932494895e+00 -5.653541684150695801e-01 1.400000000000000000e+01
3.159413909912109020e+01 1.965797042846680043e+01 4.568881511688232422e+00 1.900000000000000000e+01
3.750578403472899947e+00 2.332713365554810014e+00 -5.423185825347900391e-01 9.000000000000000000e+00
3.265251922607421875e+01 2.030068969726562855e+01 6.089680671691895419e+00 1.400000000000000000e+01
4.984729766845703125e+00 3.099101066589355025e+00 -5.135216116905212402e-01 9.000000000000000000e+00
7.079648017883300781e+00 4.398125648498535156e+00 -4.367958903312683105e-01 1.000000000000000000e+00
3.113007164001464844e+01 1.933156394958496094e+01 8.459959030151367188e+00 1.100000000000000000e+01
1.167195510864257990e+01 7.245382308959960938e+00 -2.397960573434829989e-01 2.000000000000000000e+00
3.274952316284179688e+01 2.032931327819823863e+01 1.032843303680419922e+01 8.000000000000000000e+00
1.928593635559082031e+00 1.193449974060059038e+00 -6.077071428298950195e-01 1.900000000000000000e+01
2.194494724273682085e+00 1.356935381889343040e+00 -5.956704020500183105e-01 1.000000000000000000e+01
2.548417568206787109e+00 1.575163960456847922e+00 -5.823490619659423828e-01 1.400000000000000000e+01
3.026890993118286133e+00 1.869446039199829102e+00 -5.634769201278686523e-01 1.400000000000000000e+01
3.173688697814941051e+01 1.959345054626464844e+01 4.579606056213378906e+00 1.900000000000000000e+01
3.768834114074707031e+00 2.325862407684326172e+00 -5.437809824943542480e-01 1.000000000000000000e+01
4.985343456268311435e+00 3.075405836105347124e+00 -5.124757885932922363e-01 8.000000000000000000e+00
3.265287399291992188e+01 2.013534736633301137e+01 7.456815719604492188e+00 6.200000000000000000e+01
7.081355571746826172e+00 4.365002155303955078e+00 -4.359585046768187921e-01 2.000000000000000000e+00
3.136326980590819957e+01 1.932500839233398082e+01 8.504949569702148438e+00 1.100000000000000000e+01
1.166993236541748047e+01 7.187816143035888672e+00 -2.392375916242598932e-01 2.000000000000000000e+00
3.267905044555664062e+01 2.012001419067383168e+01 1.028288078308104936e+01 8.000000000000000000e+00
1.931101441383362038e+00 1.185699820518494096e+00 -6.071894764900207520e-01 2.100000000000000000e+01
2.189251661300659180e+00 1.343152403831481934e+00 -5.929709672927856445e-01 1.100000000000000000e+01
2.552226781845093218e+00 1.565232276916503906e+00 -5.819674134254455566e-01 1.300000000000000000e+01
3.036766767501831055e+00 1.860933065414428933e+00 -5.641027092933654785e-01 1.300000000000000000e+01
3.198113441467285156e+01 1.959038734436035156e+01 4.604955196380615234e+00 1.900000000000000000e+01
3.766772270202637163e+00 2.306472778320312944e+00 -5.423185825347900391e-01 9.000000000000000000e+00
5.014740943908691406e+00 3.069426536560059038e+00 -5.143932104110717773e-01 8.000000000000000000e+00
7.096549034118652344e+00 4.340257167816162109e+00 -4.359585046768187921e-01 2.000000000000000000e+00
1.175637817382813033e+01 7.184576034545898438e+00 -2.404941618442535123e-01 2.000000000000000000e+00
1.941827774047852007e+00 1.182972073554992898e+00 -6.092600226402282715e-01 2.100000000000000000e+01
2.195591449737548828e+00 1.336515545845031960e+00 -5.934208631515502930e-01 1.300000000000000000e+01
2.562706470489501953e+00 1.559375405311584029e+00 -5.831122994422912598e-01 1.300000000000000000e+01
3.043244123458861861e+00 1.850321412086487038e+00 -5.641027092933654785e-01 1.200000000000000000e+01
3.405781173706054688e+01 2.069933319091796875e+01 4.893541812896729404e+00 2.100000000000000000e+01
3.771407365798950195e+00 2.291248798370360884e+00 -5.418310761451721191e-01 1.000000000000000000e+01
5.010097980499267578e+00 3.042595386505126953e+00 -5.128244161605834961e-01 9.000000000000000000e+00
7.115071296691895419e+00 4.317531108856201172e+00 -4.361678659915924072e-01 1.000000000000000000e+00
3.176400756835937855e+01 1.926728820800780895e+01 8.576933860778808594e+00 1.100000000000000000e+01
1.176086616516112926e+01 7.131052970886229581e+00 -2.400753051042557040e-01 2.000000000000000000e+00
3.355530166625977273e+01 2.034583473205566051e+01 1.051478290557860973e+01 9.000000000000000000e+00
1.937678813934325950e+00 1.171190023422240989e+00 -6.066718697547912598e-01 2.000000000000000000e+01
2.208583831787108931e+00 1.333880782127379927e+00 -5.956704020500183105e-01 1.100000000000000000e+01
2.561411142349243164e+00 1.546361684799193892e+00 -5.815858244895935059e-01 1.300000000000000000e+01
3.066598892211914062e+00 1.849890708923340066e+00 -5.672313570976257324e-01 1.200000000000000000e+01
3.412985992431641336e+01 2.058032417297362926e+01 4.893541812896729404e+00 2.100000000000000000e+01
3.784482717514038086e+00 2.281144618988037109e+00 -5.425623059272766113e-01 1.000000000000000000e+01
3.326767349243164062e+01 2.005250930786133168e+01 6.152254581451416016e+00 1.400000000000000000e+01
5.018981456756591797e+00 3.024060010910034180e+00 -5.126500725746154785e-01 8.000000000000000000e+00
7.126676559448242188e+00 4.290608406066895419e+00 -4.359585046768187921e-01 2.000000000000000000e+00
3.189785766601562855e+01 1.919648742675780895e+01 8.594929695129394531e+00 1.100000000000000000e+01
1.181310367584229049e+01 7.106449604034423828e+00 -2.406337857246398926e-01 2.000000000000000000e+00
3.353341674804688211e+01 2.017281341552734020e+01 1.048579502105713068e+01 9.000000000000000000e+00
1.935128092765808105e+00 1.160445094108581987e+00 -6.046012639999389648e-01 2.000000000000000000e+01
2.213226556777954102e+00 1.326163172721863015e+00 -5.956704020500183105e-01 1.200000000000000000e+01
2.568477630615233931e+00 1.538420081138611062e+00 -5.819674134254455566e-01 1.300000000000000000e+01
3.054392576217650923e+00 1.828016161918639915e+00 -5.637897849082946777e-01 1.100000000000000000e+01
3.397662353515625000e+01 2.032653808593750000e+01 4.861368179321289062e+00 2.100000000000000000e+01
3.800940752029418945e+00 2.273014545440673828e+00 -5.437809824943542480e-01 9.000000000000000000e+00
3.164541625976562855e+01 1.891689300537109020e+01 5.839385509490966797e+00 1.300000000000000000e+01
5.022666454315186435e+00 3.002433061599731001e+00 -5.119528174400329590e-01 9.000000000000000000e+00
7.151898384094238281e+00 4.271850585937500000e+00 -4.365865588188170832e-01 1.000000000000000000e+00
1.184470558166504084e+01 7.069270133972167969e+00 -2.407733947038651068e-01 2.000000000000000000e+00
3.370003128051757812e+01 2.010519790649414062e+01 1.051478290557860973e+01 9.000000000000000000e+00
1.947468161582946999e+00 1.158621788024901900e+00 -6.071894764900207520e-01 2.200000000000000000e+01
2.221192598342895952e+00 1.320421099662780984e+00 -5.965701937675476074e-01 1.300000000000000000e+01
2.572144269943236861e+00 1.528442144393920898e+00 -5.815858244895935059e-01 1.300000000000000000e+01
3.069247484207152876e+00 1.822385787963866965e+00 -5.653541684150695801e-01 1.300000000000000000e+01
3.400298690795897727e+01 2.018147087097167969e+01 4.855031013488770419e+00 2.000000000000000000e+01
3.808851957321166992e+00 2.259732961654663086e+00 -5.437809824943542480e-01 1.000000000000000000e+01
5.031402587890625000e+00 2.983865976333618164e+00 -5.117785334587097168e-01 9.000000000000000000e+00
7.170202732086181641e+00 4.248896121978759766e+00 -4.367958903312683105e-01 2.000000000000000000e+00
3.237648773193358664e+01 1.917792320251464844e+01 8.687609672546386719e+00 1.100000000000000000e+01
1.187275123596191051e+01 7.029919147491455078e+00 -2.408432066440581998e-01 2.000000000000000000e+00
3.621676635742188211e+01 2.144413757324219105e+01 1.127778148651123047e+01 1.000000000000000000e+01
1.956491708755492942e+00 1.154762625694274902e+00 -6.087424159049987793e-01 1.900000000000000000e+01
2.217395305633544922e+00 1.307709932327270952e+00 -5.943207144737243652e-01 1.300000000000000000e+01
2.587611436843872070e+00 1.525436520576477051e+00 -5.838755369186401367e-01 1.400000000000000000e+01
3.077292203903197798e+00 1.812663674354553001e+00 -5.656670331954956055e-01 1.100000000000000000e+01
3.181524848937987926e+01 1.873313522338866832e+01 4.533295631408691406e+00 1.900000000000000000e+01
3.820138216018677202e+00 2.248437643051147017e+00 -5.442684888839721680e-01 1.000000000000000000e+01
3.194696426391601918e+01 1.879567527770996094e+01 5.870672702789306641e+00 1.300000000000000000e+01
5.055525302886962891e+00 2.974367618560791016e+00 -5.131729841232299805e-01 9.000000000000000000e+00
3.323662185668945312e+01 1.954662513732910156e+01 7.494977474212645596e+00 6.300000000000000000e+01
7.171216011047363281e+00 4.215744018554688388e+00 -4.359585046768187921e-01 2.000000000000000000e+00
1.191101169586181996e+01 6.996535301208496094e+00 -2.411224544048309049e-01 2.000000000000000000e+00
1.962177753448486106e+00 1.148902297019958052e+00 -6.092600226402282715e-01 2.200000000000000000e+01
2.221946477890015093e+00 1.299961805343627930e+00 -5.943207144737243652e-01 1.200000000000000000e+01
2.577667951583861861e+00 1.507474780082703081e+00 -5.804409384727478027e-01 1.200000000000000000e+01
3.090422868728638139e+00 1.805897355079651101e+00 -5.669184923171997070e-01 1.100000000000000000e+01
3.193529701232910156e+01 1.865400505065917969e+01 4.541095256805419922e+00 1.900000000000000000e+01
3.814249277114868164e+00 2.227081537246704102e+00 -5.423185825347900391e-01 9.000000000000000000e+00
3.205688095092772727e+01 1.871752166748046875e+01 5.879433155059813565e+00 1.300000000000000000e+01
5.062435626983642578e+00 2.954693794250487837e+00 -5.128244161605834961e-01 1.100000000000000000e+01
3.330465316772460938e+01 1.943048858642578125e+01 7.494977474212645596e+00 6.300000000000000000e+01
7.192789554595947266e+00 4.194710731506347656e+00 -4.363771975040435791e-01 2.000000000000000000e+00
3.368807983398438211e+01 1.963842964172362926e+01 9.002541542053222656e+00 1.200000000000000000e+01
1.193536186218262074e+01 6.954915523529052734e+00 -2.411224544048309049e-01 2.000000000000000000e+00
1.966176271438599077e+00 1.142046093940735085e+00 -6.092600226402282715e-01 2.100000000000000000e+01
2.238268852233887163e+00 1.299045205116271973e+00 -5.974699854850769043e-01 1.300000000000000000e+01
2.581216096878052202e+00 1.497482657432555930e+00 -5.800593495368957520e-01 1.200000000000000000e+01
3.098416805267333984e+00 1.796089410781859907e+00 -5.672313570976257324e-01 1.000000000000000000e+01
3.232312393188477273e+01 1.872952270507812855e+01 4.586918354034423828e+00 1.900000000000000000e+01
3.832306623458861861e+00 2.219723463058472124e+00 -5.437809824943542480e-01 9.000000000000000000e+00
5.070994377136229581e+00 2.936006069183350053e+00 -5.126500725746154785e-01 9.000000000000000000e+00
7.241963863372802734e+00 4.189580440521240234e+00 -4.384706318378447931e-01 1.000000000000000000e+00
3.284208297729492188e+01 1.899197006225585938e+01 8.758694648742675781e+00 1.100000000000000000e+01
1.194571685791015980e+01 6.905204772949218750e+00 -2.408432066440581998e-01 2.000000000000000000e+00
1.963060259819030984e+00 1.132003307342529075e+00 -6.071894764900207520e-01 2.200000000000000000e+01
2.244027376174927202e+00 1.292980074882507102e+00 -5.979198813438415527e-01 1.200000000000000000e+01
2.585907936096190962e+00 1.489366173744202104e+00 -5.800593495368957520e-01 1.100000000000000000e+01
3.104044198989868164e+00 1.786346673965454102e+00 -5.672313570976257324e-01 1.100000000000000000e+01
3.229576873779296875e+01 1.857839202880859020e+01 4.574731349945068359e+00 1.900000000000000000e+01
3.846144676208496094e+00 2.211631298065185991e+00 -5.447559356689453125e-01 1.000000000000000000e+01
5.090557098388671875e+00 2.926017999649047852e+00 -5.136959552764892578e-01 9.000000000000000000e+00
3.428392791748046875e+01 1.969820976257323863e+01 7.685786247253417969e+00 6.300000000000000000e+01
7.255090236663818359e+00 4.166808605194091797e+00 -4.384706318378447931e-01 1.000000000000000000e+00
3.301313018798828125e+01 1.895273590087890980e+01 8.788388252258300781e+00 1.100000000000000000e+01
1.195694446563721058e+01 6.861670494079589844e+00 -2.406337857246398926e-01 2.000000000000000000e+00
1.970353484153748003e+00 1.127062439918518066e+00 -6.082247495651245117e-01 2.100000000000000000e+01
2.240067481994628906e+00 1.280304074287414995e+00 -5.956704020500183105e-01 1.200000000000000000e+01
2.604728221893310991e+00 1.488121867179871050e+00 -5.831122994422912598e-01 1.000000000000000000e+01
3.103398561477661133e+00 1.771583318710326926e+00 -5.659798979759216309e-01 1.000000000000000000e+01
3.244662857055664062e+01 1.851473617553710938e+01 4.586918354034423828e+00 1.900000000000000000e+01
3.862462759017943892e+00 2.203109979629517046e+00 -5.459746718406677246e-01 1.000000000000000000e+01
5.102470397949218750e+00 2.909217596054077148e+00 -5.138702392578125000e-01 9.000000000000000000e+00
7.273061752319335938e+00 4.143435478210449219e+00 -4.386799931526184082e-01 2.000000000000000000e+00
3.360065460205078125e+01 1.913439941406250000e+01 8.926958084106445312e+00 1.200000000000000000e+01
1.200167751312256037e+01 6.831761837005615234e+00 -2.410526424646378119e-01 5.000000000000000000e+00
3.708559036254882812e+01 2.110180664062500000e+01 1.143307209014892933e+01 1.100000000000000000e+01
1.982676863670348899e+00 1.124944448471068892e+00 -6.108129620552062988e-01 1.900000000000000000e+01
2.237741947174071822e+00 1.268632650375365989e+00 -5.938707590103149414e-01 1.100000000000000000e+01
2.611614942550659180e+00 1.479988455772399902e+00 -5.834938883781433105e-01 1.200000000000000000e+01
3.107844829559326172e+00 1.759766340255737083e+00 -5.656670331954956055e-01 9.000000000000000000e+00
3.861490726470946822e+00 2.184726476669311968e+00 -5.447559356689453125e-01 1.000000000000000000e+01
5.110860347747802734e+00 2.890408277511597124e+00 -5.136959552764892578e-01 8.000000000000000000e+00
7.284002780914306641e+00 4.116057395935058594e+00 -4.384706318378447931e-01 1.000000000000000000e+00
1.203938198089599965e+01 6.797692298889160156e+00 -2.413318753242492953e-01 2.000000000000000000e+00
3.266044998168945312e+01 1.844078636169433949e+01 1.004994392395020064e+01 8.000000000000000000e+00
1.984907984733581987e+00 1.117069363594054954e+00 -6.102952957153320312e-01 1.900000000000000000e+01
2.245553731918334961e+00 1.262724041938781960e+00 -5.947706103324890137e-01 1.100000000000000000e+01
2.615053892135620117e+00 1.469901323318481001e+00 -5.831122994422912598e-01 1.200000000000000000e+01
3.127747297286986861e+00 1.756645798683166948e+00 -5.681699514389038086e-01 9.000000000000000000e+00
3.863899946212768999e+00 2.168319463729857954e+00 -5.440247654914855957e-01 1.000000000000000000e+01
5.129606723785400391e+00 2.877424001693726030e+00 -5.145674943923950195e-01 9.000000000000000000e+00
7.287872791290283203e+00 4.084747314453125000e+00 -4.378426074981688898e-01 2.000000000000000000e+00
1.208397388458251953e+01 6.767350673675537109e+00 -2.417507320642471036e-01 2.000000000000000000e+00
3.257273483276367188e+01 1.823414039611816051e+01 1.000232124328612926e+01 8.000000000000000000e+00
1.988988876342772993e+00 1.109786748886107954e+00 -6.102952957153320312e-01 2.100000000000000000e+01
2.253571033477783203e+00 1.256383061408997026e+00 -5.956704020500183105e-01 1.200000000000000000e+01
2.610134124755858931e+00 1.454572558403014915e+00 -5.808225870132446289e-01 1.200000000000000000e+01
3.134164571762084961e+00 1.745170235633850098e+00 -5.681699514389038086e-01 9.000000000000000000e+00
3.253089523315429688e+01 1.810646438598633168e+01 4.571319103240966797e+00 1.900000000000000000e+01
3.870086669921875000e+00 2.153177976608275923e+00 -5.437809824943542480e-01 9.000000000000000000e+00
5.148824691772460938e+00 2.863445520401000977e+00 -5.154390335083007812e-01 8.000000000000000000e+00
7.309778690338134766e+00 4.061889171600341797e+00 -4.382613003253936768e-01 2.000000000000000000e+00
1.207023429870604936e+01 6.701659679412841797e+00 -2.409828305244446078e-01 2.000000000000000000e+00
3.279832839965820312e+01 1.821035385131835938e+01 1.005201435089110973e+01 8.000000000000000000e+00
1.986089587211609109e+00 1.099095582962035911e+00 -6.082247495651245117e-01 1.900000000000000000e+01
2.269880771636962891e+00 1.255109786987304910e+00 -5.988197326660156250e-01 1.300000000000000000e+01
2.625505208969116211e+00 1.451150894165039062e+00 -5.831122994422912598e-01 1.200000000000000000e+01
3.147154092788695845e+00 1.738039135932921919e+00 -5.694214701652526855e-01 9.000000000000000000e+00
3.280939865112304688e+01 1.811175918579101918e+01 4.601542472839354581e+00 1.900000000000000000e+01
3.884531259536743164e+00 2.143491983413695845e+00 -5.447559356689453125e-01 1.000000000000000000e+01
5.148321151733398438e+00 2.839681625366210938e+00 -5.143932104110717773e-01 8.000000000000000000e+00
7.334407806396484375e+00 4.042132377624511719e+00 -4.388893246650695801e-01 2.000000000000000000e+00
3.352642059326171875e+01 1.846942329406737926e+01 8.836977005004882812e+00 1.200000000000000000e+01
1.212158012390137074e+01 6.674919605255126953e+00 -2.415413111448287964e-01 2.000000000000000000e+00
3.292239379882813211e+01 1.812169265747069957e+01 1.006961345672607067e+01 1.600000000000000000e+01
1.994612336158751997e+00 1.095640897750854048e+00 -6.097776889801025391e-01 1.900000000000000000e+01
2.258437395095825195e+00 1.239534020423888938e+00 -5.947706103324890137e-01 1.200000000000000000e+01
2.633493661880493164e+00 1.444784045219420943e+00 -5.838755369186401367e-01 1.300000000000000000e+01
3.137009143829346147e+00 1.719597697257996050e+00 -5.666056275367736816e-01 1.000000000000000000e+01
3.898210287094116211e+00 2.135092258453369141e+00 -5.457309484481811523e-01 1.000000000000000000e+01
5.164207458496093750e+00 2.827321052551269975e+00 -5.150904655456542969e-01 9.000000000000000000e+00
3.272573089599608664e+01 1.790939140319823863e+01 7.251504898071289062e+00 6.100000000000000000e+01
7.336556911468505859e+00 4.013319492340087891e+00 -4.382613003253936768e-01 2.000000000000000000e+00
1.218109321594237926e+01 6.657905101776123047e+00 -2.423092126846312921e-01 2.000000000000000000e+00
3.289464950561522727e+01 1.797945785522460938e+01 1.004476737976074041e+01 8.000000000000000000e+00
2.001817464828491211e+00 1.090520024299622026e+00 -6.108129620552062988e-01 1.900000000000000000e+01
2.273020029067993164e+00 1.237232923507689986e+00 -5.974699854850769043e-01 1.100000000000000000e+01
2.647143363952637163e+00 1.440274119377136008e+00 -5.857836008071899414e-01 1.300000000000000000e+01
3.158612012863159180e+00 1.717128396034240945e+00 -5.694214701652526855e-01 1.100000000000000000e+01
3.909128189086914062e+00 2.123366832733153853e+00 -5.462183952331542969e-01 9.000000000000000000e+00
5.175796031951904297e+00 2.810227870941162109e+00 -5.152647495269775391e-01 9.000000000000000000e+00
7.354032516479492188e+00 3.989590644836425781e+00 -4.384706318378447931e-01 1.000000000000000000e+00
3.474454116821289062e+01 1.884119987487792969e+01 9.124914169311523438e+00 1.200000000000000000e+01
1.220425987243651988e+01 6.615344524383544922e+00 -2.423092126846312921e-01 2.000000000000000000e+00
3.284652328491210938e+01 1.779710960388183949e+01 1.001008510589599965e+01 1.600000000000000000e+01
2.010710954666138139e+00 1.086280465126038042e+00 -6.123658418655395508e-01 1.900000000000000000e+01
2.282469511032104048e+00 1.232068061828613059e+00 -5.988197326660156250e-01 1.200000000000000000e+01
2.640060186386107954e+00 1.424499154090880904e+00 -5.831122994422912598e-01 1.300000000000000000e+01
3.155892610549927202e+00 1.701405167579651101e+00 -5.678570866584777832e-01 1.000000000000000000e+01
3.596180725097656250e+01 1.937963294982910156e+01 5.015898227691650391e+00 2.400000000000000000e+01
3.900787353515625000e+00 2.101235866546630859e+00 -5.440247654914855957e-01 1.000000000000000000e+01
5.206624984741210938e+00 2.803478717803955078e+00 -5.173565149307250977e-01 1.100000000000000000e+01
7.374949455261229581e+00 3.967681169509888139e+00 -4.388893246650695801e-01 2.000000000000000000e+00
3.481010055541992188e+01 1.871980285644530895e+01 9.124914169311523438e+00 1.200000000000000000e+01
1.222727775573729936e+01 6.572703361511229581e+00 -2.423092126846312921e-01 2.000000000000000000e+00
3.280496597290039062e+01 1.763412284851073863e+01 9.979544639587402344e+00 8.000000000000000000e+00
2.005976200103760210e+00 1.074693679809570090e+00 -6.097776889801025391e-01 1.800000000000000000e+01
2.281602144241333008e+00 1.221334218978882058e+00 -5.974699854850769043e-01 1.100000000000000000e+01
2.643285512924193892e+00 1.414348721504210982e+00 -5.827306509017944336e-01 1.300000000000000000e+01
3.170522689819335938e+00 1.695035457611083984e+00 -5.694214701652526855e-01 9.000000000000000000e+00
3.922105789184569868e+00 2.095089197158813032e+00 -5.459746718406677246e-01 1.000000000000000000e+01
3.478792572021483664e+01 1.857502174377441051e+01 6.246115207672119141e+00 1.400000000000000000e+01
5.202319145202636719e+00 2.777779579162598100e+00 -5.159620046615600586e-01 1.100000000000000000e+01
7.385230064392089844e+00 3.940033197402954102e+00 -4.386799931526184082e-01 2.000000000000000000e+00
1.225720405578612926e+01 6.533744812011718750e+00 -2.424488365650177002e-01 2.000000000000000000e+00
3.361272811889647727e+01 1.790984725952148082e+01 1.020523452758789062e+01 8.000000000000000000e+00
2.006303310394287109e+00 1.065872192382812944e+00 -6.087424159049987793e-01 2.000000000000000000e+01
2.292736530303955078e+00 1.217017292976378950e+00 -5.992696285247802734e-01 1.100000000000000000e+01
2.644737958908081055e+00 1.403272986412047896e+00 -5.819674134254455566e-01 1.300000000000000000e+01
3.181656122207642046e+00 1.686733722686768022e+00 -5.703600645065307617e-01 1.000000000000000000e+01
3.929394960403441939e+00 2.081385612487792969e+00 -5.459746718406677246e-01 1.000000000000000000e+01
5.203179359436035156e+00 2.754941701889038086e+00 -5.150904655456542969e-01 1.400000000000000000e+01
7.384814739227294922e+00 3.906758308410644975e+00 -4.378426074981688898e-01 2.000000000000000000e+00
3.511220932006835938e+01 1.856742477416991832e+01 9.169904708862304688e+00 1.200000000000000000e+01
1.227993679046631037e+01 6.490919589996337891e+00 -2.424488365650177002e-01 2.000000000000000000e+00
3.338158416748046875e+01 1.764481163024901988e+01 1.011723613739014027e+01 8.000000000000000000e+00
2.010011672973632812e+00 1.058862447738647017e+00 -6.087424159049987793e-01 1.800000000000000000e+01
2.303868532180786133e+00 1.212637305259705034e+00 -6.010692119598388672e-01 1.400000000000000000e+01
2.660044908523560014e+00 1.399517297744750977e+00 -5.842571258544921875e-01 1.300000000000000000e+01
3.173536300659180132e+00 1.668264150619507058e+00 -5.678570866584777832e-01 1.100000000000000000e+01
3.941908836364746094e+00 2.070425987243651900e+00 -5.467059016227722168e-01 9.000000000000000000e+00
5.202179908752441406e+00 2.731205701828002930e+00 -5.140445828437805176e-01 1.600000000000000000e+01
7.440855503082275391e+00 3.903223752975463867e+00 -4.403547346591948908e-01 1.000000000000000000e+00
1.233794307708740057e+01 6.466580867767333984e+00 -2.431469261646271030e-01 2.000000000000000000e+00
3.296688842773438211e+01 1.727132034301758168e+01 9.972297668457031250e+00 8.000000000000000000e+00
2.025497198104857954e+00 1.058454275131226030e+00 -6.123658418655395508e-01 1.900000000000000000e+01
2.294057607650756836e+00 1.197775244712830034e+00 -5.974699854850769043e-01 1.100000000000000000e+01
2.661190271377563032e+00 1.388871908187865989e+00 -5.834938883781433105e-01 1.300000000000000000e+01
3.175548076629639116e+00 1.655904412269592063e+00 -5.672313570976257324e-01 1.000000000000000000e+01
3.955794811248778853e+00 2.061011791229248047e+00 -5.476808547973632812e-01 1.000000000000000000e+01
3.360071182250977273e+01 1.750633430480957031e+01 6.000825881958007812e+00 1.300000000000000000e+01
5.228879451751708984e+00 2.723142385482788086e+00 -5.157876610755920410e-01 1.600000000000000000e+01
7.421866416931152344e+00 3.861932992935181108e+00 -4.384706318378447931e-01 2.000000000000000000e+00
1.235931873321533025e+01 6.425631523132324219e+00 -2.431469261646271030e-01 2.000000000000000000e+00
3.362089920043945312e+01 1.747956275939941051e+01 1.015347099304199041e+01 8.000000000000000000e+00
2.029179573059082031e+00 1.051377415657043013e+00 -6.123658418655395508e-01 1.600000000000000000e+01
2.301685810089110884e+00 1.191552042961121050e+00 -5.983697772026062012e-01 1.100000000000000000e+01
2.667765855789185014e+00 1.380476474761962891e+00 -5.838755369186401367e-01 1.300000000000000000e+01
3.193591833114624023e+00 1.651160240173340066e+00 -5.694214701652526855e-01 1.100000000000000000e+01
3.959437608718872070e+00 2.045368671417235884e+00 -5.471933484077453613e-01 1.000000000000000000e+01
3.380904006958007812e+01 1.746509552001953125e+01 6.027107238769531250e+00 1.300000000000000000e+01
5.227731227874755859e+00 2.699388980865478960e+00 -5.147418379783630371e-01 1.100000000000000000e+01
7.424652099609375000e+00 3.830507755279541016e+00 -4.378426074981688898e-01 2.000000000000000000e+00
3.409260940551757812e+01 1.758143997192383168e+01 8.855873107910156250e+00 1.200000000000000000e+01
1.234612464904784979e+01 6.364125728607177734e+00 -2.424488365650177002e-01 2.000000000000000000e+00
3.899797439575195312e+01 2.010250282287598012e+01 1.175607872009276988e+01 1.200000000000000000e+01
2.027863740921020952e+00 1.041285753250122070e+00 -6.108129620552062988e-01 1.700000000000000000e+01
2.323376178741455078e+00 1.192003488540648970e+00 -6.028688549995422363e-01 1.100000000000000000e+01
2.657085180282593218e+00 1.362626433372498003e+00 -5.804409384727478027e-01 1.100000000000000000e+01
3.211928606033325195e+00 1.645749568939208984e+00 -5.716115236282348633e-01 1.000000000000000000e+01
3.961606740951538086e+00 2.028129100799560991e+00 -5.464621186256408691e-01 1.000000000000000000e+01
3.387585067749022727e+01 1.733514976501464844e+01 6.027107238769531250e+00 1.300000000000000000e+01
5.226948261260986328e+00 2.674764633178710938e+00 -5.136959552764892578e-01 1.600000000000000000e+01
7.481320858001708984e+00 3.825090646743773970e+00 -4.403547346591948908e-01 1.000000000000000000e+00
3.399717330932617188e+01 1.737477684020996094e+01 8.814481735229492188e+00 1.200000000000000000e+01
1.239073657989501953e+01 6.329748630523681641e+00 -2.428676933050155917e-01 2.000000000000000000e+00
3.391715621948242188e+01 1.732641601562500000e+01 1.020523452758789062e+01 8.000000000000000000e+00
2.017713308334351030e+00 1.027189373970031960e+00 -6.066718697547912598e-01 1.700000000000000000e+01
2.327522993087768999e+00 1.183886051177978960e+00 -6.028688549995422363e-01 1.400000000000000000e+01
2.677575826644897017e+00 1.361351132392883079e+00 -5.838755369186401367e-01 1.200000000000000000e+01
3.210608959197998047e+00 1.630949258804321067e+00 -5.703600645065307617e-01 1.000000000000000000e+01
3.984593391418457031e+00 2.022374153137207031e+00 -5.486558079719543457e-01 1.100000000000000000e+01
5.225592136383056641e+00 2.651094198226929155e+00 -5.126500725746154785e-01 1.700000000000000000e+01
7.512442111968994141e+00 3.807982683181763139e+00 -4.414014518260955811e-01 1.000000000000000000e+00
3.418277740478516336e+01 1.731941413879394887e+01 8.846875190734863281e+00 1.200000000000000000e+01
1.243416309356688920e+01 6.297300338745117188e+00 -2.432865500450134000e-01 2.000000000000000000e+00
3.867202377319335938e+01 1.957702255249023082e+01 1.161424541473389027e+01 1.100000000000000000e+01
2.033179998397827148e+00 1.026587843894958052e+00 -6.102952957153320312e-01 1.600000000000000000e+01
2.324476480484008789e+00 1.172650337219238059e+00 -6.010692119598388672e-01 1.400000000000000000e+01
2.678569555282593218e+00 1.350696563720702903e+00 -5.831122994422912598e-01 1.200000000000000000e+01
3.210707426071166992e+00 1.617627024650573953e+00 -5.694214701652526855e-01 1.100000000000000000e+01
3.998370409011840820e+00 2.012719869613647017e+00 -5.496307611465454102e-01 1.100000000000000000e+01
5.227235794067382812e+00 2.630168914794921875e+00 -5.119528174400329590e-01 1.600000000000000000e+01
7.542872905731201172e+00 3.792020559310913086e+00 -4.424481689929962158e-01 1.000000000000000000e+00
1.247284698486327947e+01 6.265007972717285156e+00 -2.436355948448180875e-01 2.000000000000000000e+00
3.857106018066406250e+01 1.937392616271973012e+01 1.156558799743651988e+01 1.100000000000000000e+01
2.048843860626221147e+00 1.025537371635437012e+00 -6.139187812805175781e-01 1.700000000000000000e+01
2.323326826095581055e+00 1.161914229393004927e+00 -5.997195243835449219e-01 1.500000000000000000e+01
2.690292358398437944e+00 1.344849705696105957e+00 -5.846387743949890137e-01 1.100000000000000000e+01
3.221636056900023970e+00 1.609057664871216042e+00 -5.703600645065307617e-01 1.000000000000000000e+01
3.996490478515625000e+00 1.994318842887877974e+00 -5.484120249748229980e-01 1.100000000000000000e+01
