3.866549015045166016e+00 -9.787271171808242798e-02 -6.125973463058471680e-01 9.000000000000000000e+00
4.953159809112548828e+00 -1.271078437566756925e-01 -6.083717346191406250e-01 9.000000000000000000e+00
6.427295684814453125e+00 -1.660595983266829889e-01 -5.625031590461730957e-01 9.000000000000000000e+00
9.757260322570800781e+00 -2.555028498172760010e-01 -5.115316510200500488e-01 2.000000000000000000e+00
1.852665519714355113e+01 -4.916090667247772217e-01 -3.234978020191193182e-01 3.000000000000000000e+00
2.355940103530883789e+00 -6.580736488103866577e-02 -6.315184831619262695e-01 2.000000000000000000e+01
2.719353914260863814e+00 -7.690841704607009888e-02 -6.280633211135864258e-01 8.000000000000000000e+00
3.979345703125000000e+01 -1.125433444976807085e+00 2.086320638656616211e+00 2.300000000000000000e+01
3.206659555435181108e+00 -9.125044941902160645e-02 -6.235638260841369629e-01 1.200000000000000000e+01
3.854336500167847124e+00 -1.110276132822037021e-01 -6.107201576232910156e-01 1.000000000000000000e+01
4.956654548645020419e+00 -1.445125192403793057e-01 -6.088592410087585449e-01 9.000000000000000000e+00
6.448583602905273438e+00 -1.891365647315979004e-01 -5.644205808639526367e-01 9.000000000000000000e+00
9.788250923156738281e+00 -2.905085086822509766e-01 -5.132063627243041992e-01 2.000000000000000000e+00
1.859678268432616832e+01 -5.584369301795959473e-01 -3.247543871402739923e-01 3.000000000000000000e+00
2.361501693725585938e+00 -7.380061596632003784e-02 -6.330713629722595215e-01 2.100000000000000000e+01
2.703501701354980025e+00 -8.543328195810317993e-02 -6.244641542434692383e-01 8.000000000000000000e+00
3.984540176391602273e+01 -1.259153366088866965e+00 2.089251279830933061e+00 2.300000000000000000e+01
3.206339359283446822e+00 -1.018836125731468062e-01 -6.235638260841369629e-01 1.200000000000000000e+01
3.861844539642333984e+00 -1.240621507167816023e-01 -6.119716167449951172e-01 9.000000000000000000e+00
4.948211669921875000e+00 -1.606908589601517001e-01 -6.078842878341674805e-01 9.000000000000000000e+00
3.756766510009766336e+01 -1.219992280006408913e+00 5.953269958496093750e+00 1.300000000000000000e+01
6.459868907928466797e+00 -2.109098881483078003e-01 -5.654664635658264160e-01 9.000000000000000000e+00
9.775257110595703125e+00 -3.225707113742827814e-01 -5.125783681869506836e-01 2.000000000000000000e+00
1.862280845642089844e+01 -6.210361123085021973e-01 -3.252430558204650879e-01 3.000000000000000000e+00
2.363160371780395952e+00 -8.211042732000350952e-02 -6.335890293121337891e-01 2.000000000000000000e+01
2.730452537536621094e+00 -9.582664817571640015e-02 -6.307627558708190918e-01 1.100000000000000000e+01
3.944155502319335938e+01 -1.384221792221068892e+00 2.068316936492919922e+00 2.200000000000000000e+01
3.204002141952515093e+00 -1.130060032010078014e-01 -6.231821775436401367e-01 1.200000000000000000e+01
3.863362073898314986e+00 -1.376120746135711947e-01 -6.122844815254211426e-01 1.000000000000000000e+01
4.947620868682861328e+00 -1.779623627662658969e-01 -6.078842878341674805e-01 9.000000000000000000e+00
3.753553771972656250e+01 -1.350126385688781960e+00 5.948889732360839844e+00 1.300000000000000000e+01
6.475022315979003906e+00 -2.340334802865982056e-01 -5.668609738349914551e-01 9.000000000000000000e+00
9.833949089050292969e+00 -3.588759005069733221e-01 -5.157185196876525879e-01 2.000000000000000000e+00
1.872044563293457031e+01 -6.897193193435668945e-01 -3.269882798194885254e-01 3.000000000000000000e+00
2.362874984741210938e+00 -8.994650095701217651e-02 -6.335890293121337891e-01 1.700000000000000000e+01
2.743751049041748047e+00 -1.054042801260948042e-01 -6.339120864868164062e-01 1.300000000000000000e+01
3.947666549682617188e+01 -1.516540527343750000e+00 2.070410490036011186e+00 2.200000000000000000e+01
3.189877271652222124e+00 -1.231002882122993053e-01 -6.205108761787414551e-01 1.100000000000000000e+01
3.870779991149901900e+00 -1.507301330566405972e-01 -6.135360002517700195e-01 1.000000000000000000e+01
4.950970649719238281e+00 -1.945241540670394897e-01 -6.083717346191406250e-01 9.000000000000000000e+00
3.736110305786132812e+01 -1.467921733856200950e+00 5.921983242034912109e+00 1.300000000000000000e+01
6.490137100219726562e+00 -2.561326920986176092e-01 -5.682554244995117188e-01 9.000000000000000000e+00
9.832705497741699219e+00 -3.914844691753386896e-01 -5.157185196876525879e-01 2.000000000000000000e+00
1.871805572509765980e+01 -7.517947554588317871e-01 -3.269882798194885254e-01 3.000000000000000000e+00
2.376058101654053178e+00 -9.875549376010894775e-02 -6.372125148773193359e-01 1.900000000000000000e+01
2.745313405990601030e+00 -1.150627210736274997e-01 -6.343619823455810547e-01 1.200000000000000000e+01
3.888445281982421875e+01 -1.629741430282592995e+00 2.039636850357056108e+00 2.200000000000000000e+01
3.203158617019652876e+00 -1.348121762275696078e-01 -6.231821775436401367e-01 1.300000000000000000e+01
3.874177455902100053e+00 -1.644082665443420133e-01 -6.141617298126220703e-01 1.100000000000000000e+01
4.970094203948974609e+00 -2.126536667346954068e-01 -6.108091473579406738e-01 1.000000000000000000e+01
6.471288681030273438e+00 -2.780162692070006769e-01 -5.666866302490234375e-01 7.000000000000000000e+00
9.831278800964355469e+00 -4.258046448230742853e-01 -5.157185196876525879e-01 2.000000000000000000e+00
1.876725959777832031e+01 -8.193962574005126953e-01 -3.278958201408386230e-01 3.000000000000000000e+00
2.366030693054199219e+00 -1.070270240306853970e-01 -6.346243023872375488e-01 1.600000000000000000e+01
2.742926359176636186e+00 -1.250352859497070035e-01 -6.339120864868164062e-01 1.300000000000000000e+01
3.212449073791503906e+00 -1.470001488924025934e-01 -6.250902414321899414e-01 1.300000000000000000e+01
3.853816032409667969e+00 -1.776968687772751132e-01 -6.110330224037170410e-01 1.100000000000000000e+01
4.965315341949462891e+00 -2.306842803955078125e-01 -6.103217005729675293e-01 1.000000000000000000e+01
3.722335433959960938e+01 -1.729365110397339089e+00 5.901959419250488281e+00 1.300000000000000000e+01
6.484158039093017578e+00 -3.023825585842133123e-01 -5.679067969322204590e-01 6.000000000000000000e+00
9.869553565979003906e+00 -4.637099206447600763e-01 -5.178119540214538574e-01 2.000000000000000000e+00
2.383008718490601030e+00 -1.161316633224487027e-01 -6.392830610275268555e-01 1.600000000000000000e+01
2.736634016036986861e+00 -1.343225240707396906e-01 -6.325623393058776855e-01 1.100000000000000000e+01
3.213877201080321822e+00 -1.583093851804732999e-01 -6.254718899726867676e-01 1.300000000000000000e+01
3.865010023117064986e+00 -1.917353570461272916e-01 -6.129102110862731934e-01 1.000000000000000000e+01
4.940688610076904297e+00 -2.468264997005462924e-01 -6.073967814445495605e-01 9.000000000000000000e+00
6.475103378295898438e+00 -3.246156275272368830e-01 -5.672096014022827148e-01 7.000000000000000000e+00
9.887821197509765625e+00 -4.991652667522429865e-01 -5.188586711883544922e-01 2.000000000000000000e+00
1.896062660217285156e+01 -9.638217091560363770e-01 -3.313862979412078857e-01 3.000000000000000000e+00
2.388419866561890093e+00 -1.239178106188773970e-01 -6.408359408378601074e-01 1.500000000000000000e+01
2.730360269546508789e+00 -1.426142752170563022e-01 -6.312126517295837402e-01 1.200000000000000000e+01
3.901284790039063211e+01 -2.044576644897460938e+00 2.047382593154906782e+00 2.200000000000000000e+01
3.209442853927611861e+00 -1.681997776031493863e-01 -6.247086524963378906e-01 1.300000000000000000e+01
3.876224517822266069e+00 -2.045011073350906095e-01 -6.147874593734741211e-01 1.000000000000000000e+01
4.949800014495849609e+00 -2.628732621669768732e-01 -6.086155176162719727e-01 1.100000000000000000e+01
4.213861465454102273e+01 -2.237891435623168945e+00 6.683506011962890625e+00 1.400000000000000000e+01
6.511853218078613281e+00 -3.469702899456024170e-01 -5.705214738845825195e-01 9.000000000000000000e+00
9.866260528564453125e+00 -5.291566252708435059e-01 -5.178119540214538574e-01 2.000000000000000000e+00
1.898146629333496094e+01 -1.024676918983459029e+00 -3.318051397800446112e-01 3.000000000000000000e+00
2.374470472335814986e+00 -1.315063983201980868e-01 -6.372125148773193359e-01 1.500000000000000000e+01
2.739574432373046875e+00 -1.526863574981688898e-01 -6.334621906280517578e-01 1.200000000000000000e+01
3.880606079101563211e+01 -2.169595479965209961e+00 2.036915302276610884e+00 2.200000000000000000e+01
3.204915761947631836e+00 -1.791826188564301092e-01 -6.239454150199890137e-01 1.300000000000000000e+01
3.879431486129761186e+00 -2.182523310184479037e-01 -6.154131889343261719e-01 1.100000000000000000e+01
4.944888591766357422e+00 -2.799252867698668878e-01 -6.081280112266540527e-01 1.100000000000000000e+01
6.512591838836669922e+00 -3.698117434978485107e-01 -5.706958174705505371e-01 9.000000000000000000e+00
9.900245666503906250e+00 -5.656437277793884277e-01 -5.196960568428039551e-01 2.000000000000000000e+00
1.902169609069823863e+01 -1.093453168869018999e+00 -3.325730562210083008e-01 3.000000000000000000e+00
2.379782438278197798e+00 -1.401347219943999967e-01 -6.387653946876525879e-01 1.600000000000000000e+01
2.752642154693603960e+00 -1.630549579858779907e-01 -6.366114616394042969e-01 1.200000000000000000e+01
3.204270839691162109e+00 -1.903687715530396063e-01 -6.239454150199890137e-01 1.300000000000000000e+01
3.874702215194702148e+00 -2.315570563077926913e-01 -6.147874593734741211e-01 1.000000000000000000e+01
4.951807498931884766e+00 -2.976609170436859131e-01 -6.091029644012451172e-01 1.100000000000000000e+01
6.507283687591552734e+00 -3.923029005527495783e-01 -5.703471899032592773e-01 9.000000000000000000e+00
9.938082695007324219e+00 -6.026163101196289062e-01 -5.217894911766052246e-01 2.000000000000000000e+00
1.909760284423828125e+01 -1.164713740348815918e+00 -3.339692354202271063e-01 3.000000000000000000e+00
2.371566534042357954e+00 -1.479596942663193027e-01 -6.366948485374450684e-01 1.600000000000000000e+01
2.748166322708129883e+00 -1.724184304475784024e-01 -6.357116699218750000e-01 1.200000000000000000e+01
3.209465026855469194e+00 -2.019224166870116910e-01 -6.250902414321899414e-01 1.400000000000000000e+01
3.869927406311035156e+00 -2.448314428329468051e-01 -6.141617298126220703e-01 1.000000000000000000e+01
4.960643768310546875e+00 -3.155742883682250977e-01 -6.103217005729675293e-01 1.200000000000000000e+01
6.535699844360351562e+00 -4.169177412986754816e-01 -5.729618668556213379e-01 8.000000000000000000e+00
9.995713233947753906e+00 -6.411383748054504395e-01 -5.249296426773071289e-01 2.000000000000000000e+00
1.916925048828125000e+01 -1.236260175704956055e+00 -3.352956175804138184e-01 3.000000000000000000e+00
2.382546663284302202e+00 -1.578309088945389072e-01 -6.398006677627563477e-01 1.700000000000000000e+01
2.737761974334716797e+00 -1.823218911886214932e-01 -6.334621906280517578e-01 1.100000000000000000e+01
3.218460559844971147e+00 -2.148983478546143133e-01 -6.269983649253845215e-01 1.300000000000000000e+01
3.872900724411011186e+00 -2.599536478519440252e-01 -6.147874593734741211e-01 1.100000000000000000e+01
4.951472759246826172e+00 -3.340848684310913086e-01 -6.093466877937316895e-01 9.000000000000000000e+00
6.530075073242188388e+00 -4.417409300804138184e-01 -5.726132392883300781e-01 9.000000000000000000e+00
9.917457580566406250e+00 -6.743654608726501465e-01 -5.209521055221557617e-01 2.000000000000000000e+00
3.589627075195313211e+01 -2.447162151336669922e+00 8.306542396545410156e+00 1.000000000000000000e+01
1.918830299377441051e+01 -1.311491847038269043e+00 -3.357144892215728760e-01 3.000000000000000000e+00
3.940477371215820312e+01 -2.693257570266724077e+00 1.058311080932617010e+01 9.000000000000000000e+00
2.395471334457397017e+00 -1.670875549316405972e-01 -6.434241533279418945e-01 2.100000000000000000e+01
2.740996837615966797e+00 -1.921499073505401889e-01 -6.343619823455810547e-01 1.100000000000000000e+01
3.207898616790771040e+00 -2.254433929920197088e-01 -6.250902414321899414e-01 1.300000000000000000e+01
3.883792638778686968e+00 -2.743060290813446045e-01 -6.166646480560302734e-01 1.000000000000000000e+01
4.942356109619140625e+00 -3.508045077323914129e-01 -6.083717346191406250e-01 9.000000000000000000e+00
6.554328918457031250e+00 -4.663707911968231201e-01 -5.748792886734008789e-01 8.000000000000000000e+00
9.986761093139648438e+00 -7.141079902648925781e-01 -5.247203111648559570e-01 2.000000000000000000e+00
1.932322692871094105e+01 -1.388496041297913042e+00 -3.381578326225280762e-01 3.000000000000000000e+00
3.899385070800781250e+01 -2.808795690536499023e+00 1.047544193267822088e+01 9.000000000000000000e+00
2.383374214172362837e+00 -1.737694442272186002e-01 -6.403183341026306152e-01 1.900000000000000000e+01
2.744266748428345171e+00 -2.010447978973388949e-01 -6.352617740631103516e-01 1.000000000000000000e+01
3.209132432937622070e+00 -2.356639653444289884e-01 -6.254718899726867676e-01 1.300000000000000000e+01
3.888821840286254883e+00 -2.869420349597930908e-01 -6.176032423973083496e-01 9.000000000000000000e+00
4.963006019592285156e+00 -3.679440617561339777e-01 -6.110528707504272461e-01 9.000000000000000000e+00
6.538923263549804688e+00 -4.859259128570557196e-01 -5.736591219902038574e-01 6.000000000000000000e+00
9.988451957702636719e+00 -7.457761764526367188e-01 -5.249296426773071289e-01 2.000000000000000000e+00
1.927888870239258168e+01 -1.446203112602234109e+00 -3.374597430229187012e-01 3.000000000000000000e+00
3.796433258056641336e+01 -2.847889184951781782e+00 1.020109367370604936e+01 8.000000000000000000e+00
2.371195793151855025e+00 -1.812047064304352084e-01 -6.372125148773193359e-01 1.800000000000000000e+01
2.751320362091064009e+00 -2.112195193767547885e-01 -6.370613574981689453e-01 1.100000000000000000e+01
3.206332921981811968e+00 -2.467138618230819980e-01 -6.250902414321899414e-01 1.300000000000000000e+01
3.891735315322875977e+00 -3.008192777633666992e-01 -6.182290315628051758e-01 9.000000000000000000e+00
4.963670253753662109e+00 -3.854196369647979736e-01 -6.112966537475585938e-01 1.000000000000000000e+01
6.533214092254638672e+00 -5.084388852119445801e-01 -5.733104944229125977e-01 6.000000000000000000e+00
1.002959346771240057e+01 -7.840623259544372559e-01 -5.272324085235595703e-01 2.000000000000000000e+00
1.938934898376464844e+01 -1.522569775581360085e+00 -3.394842147827147882e-01 3.000000000000000000e+00
3.798305130004882812e+01 -2.982660531997681108e+00 1.020885848999023082e+01 1.600000000000000000e+01
2.376292705535889116e+00 -1.903571337461472113e-01 -6.387653946876525879e-01 1.600000000000000000e+01
2.758297443389893022e+00 -2.219273447990416925e-01 -6.388610005378723145e-01 1.000000000000000000e+01
3.215191602706909180e+00 -2.592529654502869207e-01 -6.269983649253845215e-01 1.300000000000000000e+01
3.868948459625244141e+00 -3.133271932601929266e-01 -6.147874593734741211e-01 1.300000000000000000e+01
4.966181755065917969e+00 -4.039316475391387939e-01 -6.117841005325317383e-01 1.000000000000000000e+01
6.541235923767089844e+00 -5.331902503967285156e-01 -5.741820335388183594e-01 8.000000000000000000e+00
3.578871536254882812e+01 -2.923503160476685014e+00 6.979793071746826172e+00 6.000000000000000000e+01
1.002267169952392933e+01 -8.204914331436157227e-01 -5.270230770111083984e-01 2.000000000000000000e+00
4.070300292968750000e+01 -3.339243888854980025e+00 9.428598403930664062e+00 1.200000000000000000e+01
1.929594612121582031e+01 -1.586415648460387962e+00 -3.379484117031096857e-01 3.000000000000000000e+00
3.805465316772460938e+01 -3.128662109375000000e+00 1.023111724853515980e+01 8.000000000000000000e+00
2.391014814376831055e+00 -1.999386399984360019e-01 -6.429064869880676270e-01 1.600000000000000000e+01
4.081471252441406250e+01 -3.420133590698242188e+00 7.149204015731811523e-01 3.700000000000000000e+01
2.741970777511597124e+00 -2.302497178316116055e-01 -6.352617740631103516e-01 1.100000000000000000e+01
3.233830451965332031e+00 -2.721207141876221258e-01 -6.308145523071289062e-01 1.300000000000000000e+01
3.885546445846558061e+00 -3.283273577690125067e-01 -6.176032423973083496e-01 9.000000000000000000e+00
4.968697071075438565e+00 -4.216000735759735107e-01 -6.122716069221496582e-01 1.000000000000000000e+01
6.563157558441162109e+00 -5.580457448959350586e-01 -5.762737989425659180e-01 6.000000000000000000e+00
1.003168678283691051e+01 -8.564915657043457031e-01 -5.276511311531066895e-01 2.000000000000000000e+00
1.933412361145019887e+01 -1.657519102096558061e+00 -3.387162983417510986e-01 3.000000000000000000e+00
2.386453151702880859e+00 -2.079482227563858032e-01 -6.418712139129638672e-01 1.400000000000000000e+01
2.746974229812622070e+00 -2.403291165828705112e-01 -6.366114616394042969e-01 1.200000000000000000e+01
3.211347579956055132e+00 -2.815212905406951904e-01 -6.266167163848876953e-01 1.300000000000000000e+01
3.880441188812255859e+00 -3.415420651435852051e-01 -6.169775128364562988e-01 9.000000000000000000e+00
4.949398994445800781e+00 -4.373688399791718084e-01 -6.100779175758361816e-01 1.000000000000000000e+01
6.581016063690186435e+00 -5.827093124389648438e-01 -5.780168771743774414e-01 6.000000000000000000e+00
1.004455089569091975e+01 -8.929182291030883789e-01 -5.284884572029113770e-01 2.000000000000000000e+00
1.935610580444335938e+01 -1.727486371994018999e+00 -3.392049670219420832e-01 3.000000000000000000e+00
4.004845046997070312e+01 -3.574228763580321822e+00 1.077360153198242010e+01 9.000000000000000000e+00
2.385712862014770952e+00 -2.162772268056870062e-01 -6.418712139129638672e-01 1.900000000000000000e+01
2.748059272766112837e+00 -2.500929832458496094e-01 -6.370613574981689453e-01 1.400000000000000000e+01
3.218165874481201172e+00 -2.934423685073853094e-01 -6.281431913375854492e-01 1.300000000000000000e+01
3.892995357513428178e+00 -3.563456833362578791e-01 -6.191676259040832520e-01 1.000000000000000000e+01
4.949818611145020419e+00 -4.548244476318358820e-01 -6.103217005729675293e-01 1.000000000000000000e+01
6.563069820404052734e+00 -6.042165756225585938e-01 -5.766223669052124023e-01 4.000000000000000000e+00
1.009705829620360973e+01 -9.331210851669311523e-01 -5.314192771911621094e-01 2.000000000000000000e+00
3.612517166137695312e+01 -3.344871759414672852e+00 8.375827789306640625e+00 1.000000000000000000e+01
1.957694816589355113e+01 -1.816098570823668990e+00 -3.431841135025023859e-01 3.000000000000000000e+00
2.373442173004149947e+00 -2.231025695800780972e-01 -6.387653946876525879e-01 1.600000000000000000e+01
2.754975318908690962e+00 -2.599367201328278143e-01 -6.388610005378723145e-01 1.300000000000000000e+01
3.213266134262084961e+00 -3.037430644035338800e-01 -6.273799538612365723e-01 1.300000000000000000e+01
3.887859106063843218e+00 -3.688801825046538752e-01 -6.185418963432312012e-01 1.000000000000000000e+01
4.954211711883544922e+00 -4.718007147312163752e-01 -6.110528707504272461e-01 9.000000000000000000e+00
6.557063102722167969e+00 -6.255986690521240234e-01 -5.762737989425659180e-01 8.000000000000000000e+00
1.008197975158691051e+01 -9.654566645622253418e-01 -5.307912826538085938e-01 2.000000000000000000e+00
3.649021148681641336e+01 -3.500752449035644975e+00 8.463109016418457031e+00 1.100000000000000000e+01
1.964247703552246094e+01 -1.887895464897155984e+00 -3.444406986236572266e-01 3.000000000000000000e+00
2.382262706756591797e+00 -2.323236167430877963e-01 -6.413536071777343750e-01 2.000000000000000000e+01
2.755990743637084961e+00 -2.697416245937346857e-01 -6.393108963966369629e-01 1.500000000000000000e+01
3.927748489379882812e+01 -3.851191043853760210e+00 2.068316936492919922e+00 2.200000000000000000e+01
3.223909378051757812e+00 -3.161070942878723145e-01 -6.296696662902832031e-01 1.200000000000000000e+01
3.888513803482056108e+00 -3.826425671577454168e-01 -6.188547611236572266e-01 9.000000000000000000e+00
3.895521163940429688e+01 -3.840185880661011186e+00 4.806282997131347656e+00 2.000000000000000000e+01
4.952534675598145419e+00 -4.890912771224976141e-01 -6.110528707504272461e-01 9.000000000000000000e+00
6.558804988861083984e+00 -6.488755941390991211e-01 -5.766223669052124023e-01 6.000000000000000000e+00
1.009047317504882990e+01 -1.001827359199523926e+00 -5.314192771911621094e-01 2.000000000000000000e+00
3.660187530517578125e+01 -3.640449523925780806e+00 8.491902351379394531e+00 1.100000000000000000e+01
1.967556381225585938e+01 -1.960414171218872070e+00 -3.451387882232666016e-01 3.000000000000000000e+00
2.389125347137451172e+00 -2.414147257804870883e-01 -6.434241533279418945e-01 1.700000000000000000e+01
2.735644340515137163e+00 -2.773942351341248114e-01 -6.348118782043457031e-01 1.300000000000000000e+01
3.946320343017578125e+01 -4.001567363739013672e+00 2.078784227371215820e+00 2.200000000000000000e+01
3.226692914962768999e+00 -3.277555108070374090e-01 -6.304329037666320801e-01 1.300000000000000000e+01
3.883224010467528853e+00 -3.958130478858947754e-01 -6.182290315628051758e-01 9.000000000000000000e+00
3.662707519531250000e+01 -3.739819288253784180e+00 4.520621299743652344e+00 1.900000000000000000e+01
4.966595649719238281e+00 -5.079917311668395996e-01 -6.130027770996093750e-01 9.000000000000000000e+00
6.576320171356201172e+00 -6.737968921661376953e-01 -5.783655047416687012e-01 6.000000000000000000e+00
1.013857078552245916e+01 -1.042354464530945046e+00 -5.341407656669616699e-01 2.000000000000000000e+00
3.661996078491210938e+01 -3.771385908126831055e+00 8.499100685119628906e+00 1.100000000000000000e+01
1.966860198974609020e+01 -2.029082775115966797e+00 -3.451387882232666016e-01 3.000000000000000000e+00
3.734732437133789062e+01 -3.852882623672484907e+00 1.006029605865479049e+01 8.000000000000000000e+00
2.384425401687622070e+00 -2.493510097265244085e-01 -6.423888802528381348e-01 1.800000000000000000e+01
2.752102375030518022e+00 -2.887719869613646906e-01 -6.388610005378723145e-01 1.300000000000000000e+01
3.225529193878173828e+00 -3.390167653560637873e-01 -6.304329037666320801e-01 1.300000000000000000e+01
3.881818771362305132e+00 -4.093656241893767755e-01 -6.182290315628051758e-01 9.000000000000000000e+00
3.675593185424804688e+01 -3.882663249969481978e+00 4.538170814514160156e+00 1.900000000000000000e+01
4.952947616577148438e+00 -5.240720510482788086e-01 -6.115403771400451660e-01 1.000000000000000000e+01
6.601666450500488281e+00 -6.996883153915405273e-01 -5.808058977127075195e-01 8.000000000000000000e+00
1.013487052917479936e+01 -1.077738285064697044e+00 -5.341407656669616699e-01 2.000000000000000000e+00
3.647867965698242188e+01 -3.885567665100098100e+00 8.469407081604003906e+00 1.100000000000000000e+01
1.969321250915526988e+01 -2.101120948791503906e+00 -3.456972539424896240e-01 3.000000000000000000e+00
3.731059646606445312e+01 -3.980766296386719194e+00 1.005408477783202947e+01 8.000000000000000000e+00
2.385506153106689009e+00 -2.574639618396759033e-01 -6.429064869880676270e-01 1.900000000000000000e+01
5.979047775268554688e+01 -6.463650703430175781e+00 1.049727320671081987e+00 6.300000000000000000e+01
2.758879184722899947e+00 -2.987358272075653076e-01 -6.406605839729309082e-01 1.400000000000000000e+01
3.216579914093018022e+00 -3.488643765449523926e-01 -6.289064288139343262e-01 1.300000000000000000e+01
3.890258789062500000e+00 -4.233043491840363104e-01 -6.197933554649353027e-01 1.000000000000000000e+01
3.686915206909179688e+01 -4.018293857574462891e+00 4.553770065307617188e+00 1.900000000000000000e+01
4.955129146575927734e+00 -5.409245491027832031e-01 -6.120278239250183105e-01 1.000000000000000000e+01
6.575542449951171875e+00 -7.189776301383972168e-01 -5.787141323089599609e-01 5.000000000000000000e+00
3.442987060546875000e+01 -3.770684003829956055e+00 6.732504367828369141e+00 5.900000000000000000e+01
1.007962226867675959e+01 -1.105678558349608931e+00 -5.314192771911621094e-01 2.000000000000000000e+00
3.541956710815429688e+01 -3.891586065292357954e+00 8.226460456848144531e+00 1.000000000000000000e+01
1.981335067749023082e+01 -2.180413961410522017e+00 -3.479311764240264893e-01 3.000000000000000000e+00
2.382673025131226030e+00 -2.655753791332244873e-01 -6.423888802528381348e-01 1.900000000000000000e+01
2.757819652557373047e+00 -3.083643019199370783e-01 -6.406605839729309082e-01 1.400000000000000000e+01
5.964593124389647727e+01 -6.669281959533691406e+00 3.145390987396239790e+00 6.300000000000000000e+01
3.215342521667480025e+00 -3.600902259349822998e-01 -6.289064288139343262e-01 1.300000000000000000e+01
3.894646644592285156e+00 -4.375429153442382812e-01 -6.207319498062133789e-01 1.100000000000000000e+01
3.692591857910156250e+01 -4.154957294464111328e+00 4.562544345855712891e+00 1.900000000000000000e+01
4.968991756439208984e+00 -5.599963665008544922e-01 -6.139777302742004395e-01 9.000000000000000000e+00
6.576952457427979404e+00 -7.423731684684753418e-01 -5.790627598762512207e-01 6.000000000000000000e+00
1.019477558135985973e+01 -1.154338836669922097e+00 -5.376996397972106934e-01 2.000000000000000000e+00
3.442598724365233664e+01 -3.904087305068970171e+00 7.998809814453125000e+00 2.000000000000000000e+01
1.980561828613280895e+01 -2.249562263488769975e+00 -3.479311764240264893e-01 3.000000000000000000e+00
2.387489080429077148e+00 -2.745529413223267157e-01 -6.439417600631713867e-01 1.900000000000000000e+01
5.984322357177733664e+01 -6.892345905303955078e+00 1.051472544670104980e+00 6.300000000000000000e+01
2.756726503372191939e+00 -3.179890215396881104e-01 -6.406605839729309082e-01 1.400000000000000000e+01
3.227717876434326172e+00 -3.728888332843781073e-01 -6.315777897834777832e-01 1.300000000000000000e+01
3.875435352325439009e+00 -4.490886330604553223e-01 -6.179161071777343750e-01 1.000000000000000000e+01
4.970950603485107422e+00 -5.777963995933532715e-01 -6.144652366638183594e-01 9.000000000000000000e+00
6.578279018402099609e+00 -7.657872438430786133e-01 -5.794113874435424805e-01 5.000000000000000000e+00
1.021845722198485973e+01 -1.193161129951477051e+00 -5.391650199890136719e-01 2.000000000000000000e+00
3.453215408325195312e+01 -4.038266181945800781e+00 8.026703834533691406e+00 1.000000000000000000e+01
1.999228477478026988e+01 -2.341479063034058061e+00 -3.513518571853638250e-01 3.000000000000000000e+00
2.388434410095214844e+00 -2.831125557422637939e-01 -6.444594264030456543e-01 2.000000000000000000e+01
5.986248779296875000e+01 -7.106381893157958984e+00 1.052240490913390891e+00 6.200000000000000000e+01
2.747859239578247070e+00 -3.266896009445189875e-01 -6.388610005378723145e-01 1.400000000000000000e+01
3.228346109390258789e+00 -3.843855261802672785e-01 -6.319593787193298340e-01 1.300000000000000000e+01
3.877767086029053178e+00 -4.630821645259857178e-01 -6.185418963432312012e-01 1.100000000000000000e+01
4.972845077514648438e+00 -5.956168770790100098e-01 -6.149526834487915039e-01 1.000000000000000000e+01
6.587435245513916016e+00 -7.901687622070312500e-01 -5.804572701454162598e-01 6.000000000000000000e+00
3.341387557983397727e+01 -4.013940334320068359e+00 6.541695594787597656e+00 5.800000000000000000e+01
1.020629882812500000e+01 -1.227868795394897017e+00 -5.387463569641113281e-01 2.000000000000000000e+00
3.469584274291992188e+01 -4.180226802825927734e+00 8.068094253540039062e+00 2.000000000000000000e+01
1.998398971557616832e+01 -2.411250829696654829e+00 -3.513518571853638250e-01 3.000000000000000000e+00
2.383596420288085938e+00 -2.909798324108123779e-01 -6.434241533279418945e-01 1.900000000000000000e+01
5.989289474487304688e+01 -7.322092056274414062e+00 1.053217768669127974e+00 6.200000000000000000e+01
2.742833614349364790e+00 -3.358058035373687744e-01 -6.379612088203430176e-01 1.400000000000000000e+01
5.957282257080078125e+01 -7.293515205383300781e+00 3.145390987396239790e+00 6.300000000000000000e+01
3.223087549209595171e+00 -3.951743841171265204e-01 -6.311961412429809570e-01 1.200000000000000000e+01
3.889851093292235884e+00 -4.783028364181519110e-01 -6.207319498062133789e-01 1.100000000000000000e+01
4.962855339050292969e+00 -6.119998693466186523e-01 -6.139777302742004395e-01 9.000000000000000000e+00
6.604410648345947266e+00 -8.156003355979919434e-01 -5.822003483772277832e-01 6.000000000000000000e+00
3.363347244262695312e+01 -4.159467220306395596e+00 6.587489604949951172e+00 5.800000000000000000e+01
1.022177124023438033e+01 -1.265942692756653054e+00 -5.397930741310119629e-01 2.000000000000000000e+00
3.329248428344727273e+01 -4.129096984863281250e+00 7.745064735412597656e+00 9.000000000000000000e+00
2.017389678955078125e+01 -2.505640506744385210e+00 -3.548423349857329767e-01 3.000000000000000000e+00
3.511207580566406250e+01 -4.360994338989257812e+00 9.480541229248046875e+00 7.000000000000000000e+00
2.388316631317139116e+00 -3.000207245349884033e-01 -6.449770331382751465e-01 2.100000000000000000e+01
5.986697006225585938e+01 -7.531112670898438388e+00 1.053217768669127974e+00 6.200000000000000000e+01
2.745511531829833984e+00 -3.458651602268218994e-01 -6.388610005378723145e-01 1.300000000000000000e+01
5.974515914916992188e+01 -7.526381969451904297e+00 3.155858278274536133e+00 6.200000000000000000e+01
3.210001468658446822e+00 -4.049483239650725763e-01 -6.289064288139343262e-01 1.300000000000000000e+01
3.888157844543457031e+00 -4.918780326843262274e-01 -6.207319498062133789e-01 9.000000000000000000e+00
4.952811241149902344e+00 -6.283204555511474609e-01 -6.130027770996093750e-01 9.000000000000000000e+00
6.599546909332275391e+00 -8.383979201316833496e-01 -5.820260643959045410e-01 8.000000000000000000e+00
1.023313999176025035e+01 -1.303634762763977051e+00 -5.406304001808166504e-01 2.000000000000000000e+00
2.016502761840819957e+01 -2.576045274734497070e+00 -3.548423349857329767e-01 3.000000000000000000e+00
3.484099960327147727e+01 -4.457054138183593750e+00 9.411695480346679688e+00 1.400000000000000000e+01
2.377675056457519975e+00 -3.071182966232299805e-01 -6.423888802528381348e-01 1.900000000000000000e+01
5.989188003540039062e+01 -7.746710777282714844e+00 1.054125308990478960e+00 6.200000000000000000e+01
2.761680841445922852e+00 -3.576995134353638250e-01 -6.429101228713989258e-01 1.500000000000000000e+01
3.226090908050537109e+00 -4.184235036373137873e-01 -6.323410272598266602e-01 1.300000000000000000e+01
3.888375997543334961e+00 -5.057020187377929688e-01 -6.210448145866394043e-01 1.100000000000000000e+01
3.625723648071289062e+01 -4.721863269805908203e+00 4.489422798156738281e+00 1.900000000000000000e+01
4.978146076202392578e+00 -6.491989493370056152e-01 -6.164151430130004883e-01 1.200000000000000000e+01
6.578799724578857422e+00 -8.591076731681823730e-01 -5.804572701454162598e-01 6.000000000000000000e+00
1.022060585021973012e+01 -1.338309884071350098e+00 -5.402117371559143066e-01 2.000000000000000000e+00
3.497864151000977273e+01 -4.586394309997558594e+00 8.144577980041503906e+00 1.000000000000000000e+01
2.015591239929198863e+01 -2.646418809890747070e+00 -3.548423349857329767e-01 3.000000000000000000e+00
3.512674713134766336e+01 -4.612050533294677734e+00 9.492964744567871094e+00 1.400000000000000000e+01
2.378503561019897017e+00 -3.156702220439910889e-01 -6.429064869880676270e-01 1.900000000000000000e+01
2.754620313644409180e+00 -3.665662109851837158e-01 -6.415604352951049805e-01 1.300000000000000000e+01
5.968977355957031250e+01 -7.953712940216063565e+00 3.155858278274536133e+00 6.200000000000000000e+01
3.222664594650268999e+00 -4.294227957725524902e-01 -6.319593787193298340e-01 1.200000000000000000e+01
3.878755331039429155e+00 -5.182254910469055176e-01 -6.197933554649353027e-01 1.100000000000000000e+01
3.624053573608397727e+01 -4.848395824432373047e+00 4.489422798156738281e+00 1.900000000000000000e+01
4.979784488677979404e+00 -6.670991182327270508e-01 -6.169025897979736328e-01 1.200000000000000000e+01
6.597482204437255859e+00 -8.849804401397705078e-01 -5.823746919631958008e-01 8.000000000000000000e+00
1.021983051300049006e+01 -1.374510765075684038e+00 -5.404210686683654785e-01 2.000000000000000000e+00
2.024563980102539062e+01 -2.730121850967406782e+00 -3.565875589847565252e-01 3.000000000000000000e+00
3.515938186645507812e+01 -4.747486591339111328e+00 9.506423950195312500e+00 7.000000000000000000e+00
2.383186340332030806e+00 -3.243374228477478027e-01 -6.444594264030456543e-01 1.800000000000000000e+01
2.743735313415526900e+00 -3.743815422058104914e-01 -6.393108963966369629e-01 1.200000000000000000e+01
3.232893943786621094e+00 -4.417017698287963867e-01 -6.342490911483764648e-01 1.300000000000000000e+01
3.880929708480834961e+00 -5.316212177276611328e-01 -6.204190850257873535e-01 1.000000000000000000e+01
3.598432159423828125e+01 -4.935637474060058594e+00 4.459686756134033203e+00 1.900000000000000000e+01
4.967711925506591797e+00 -6.822585463523864746e-01 -6.156839132308959961e-01 1.000000000000000000e+01
3.515958023071289062e+01 -4.828766822814941406e+00 5.621003150939941406e+00 1.300000000000000000e+01
6.596485137939453125e+00 -9.071250557899475098e-01 -5.825489759445190430e-01 6.000000000000000000e+00
1.024291610717773082e+01 -1.412212371826172097e+00 -5.418865084648132324e-01 2.000000000000000000e+00
2.033551788330078125e+01 -2.810934305191040039e+00 -3.583328127861022949e-01 3.000000000000000000e+00
3.497014999389647727e+01 -4.833847999572753906e+00 9.459318161010742188e+00 2.100000000000000000e+01
2.395432710647583008e+00 -3.345246613025664728e-01 -6.480829119682312012e-01 1.900000000000000000e+01
5.975942230224608664e+01 -8.356099128723144531e+00 1.053252696990967019e+00 6.200000000000000000e+01
2.742411851882935014e+00 -3.839566707611083984e-01 -6.393108963966369629e-01 1.200000000000000000e+01
3.227443933486938032e+00 -4.524388909339904785e-01 -6.334858536720275879e-01 1.200000000000000000e+01
3.879050254821776900e+00 -5.451649427413940430e-01 -6.204190850257873535e-01 1.000000000000000000e+01
3.910810470581054688e+01 -5.503246307373046875e+00 4.849181175231933594e+00 2.000000000000000000e+01
4.961368560791015625e+00 -6.990410089492797852e-01 -6.151964664459228516e-01 1.000000000000000000e+01
3.606488037109375000e+01 -5.087846279144287109e+00 5.768677234649658203e+00 1.300000000000000000e+01
6.603142738342285156e+00 -9.315371513366699219e-01 -5.834205150604248047e-01 6.000000000000000000e+00
1.028143119812012074e+01 -1.454111456871032937e+00 -5.441892743110656738e-01 2.000000000000000000e+00
3.332808303833007812e+01 -4.719552040100097656e+00 7.771159172058104581e+00 9.000000000000000000e+00
3.495411300659179688e+01 -4.962259292602539062e+00 9.459836006164550781e+00 7.000000000000000000e+00
2.388513326644897017e+00 -3.420626521110535223e-01 -6.465299725532531738e-01 1.900000000000000000e+01
5.972989273071289062e+01 -8.564647674560546875e+00 1.053252696990967019e+00 6.200000000000000000e+01
2.756486654281616211e+00 -3.957426249980927069e-01 -6.429101228713989258e-01 1.300000000000000000e+01
3.221958398818970171e+00 -4.631433486938477118e-01 -6.327226161956787109e-01 1.300000000000000000e+01
3.892765045166016069e+00 -5.609560012817382812e-01 -6.229220628738403320e-01 1.000000000000000000e+01
4.050720214843750000e+01 -5.844394207000732422e+00 5.025160312652587891e+00 2.500000000000000000e+01
4.974616050720214844e+00 -7.186257243156433105e-01 -6.171463727951049805e-01 1.000000000000000000e+01
6.597878932952880859e+00 -9.542955160140991211e-01 -5.832462310791015625e-01 5.000000000000000000e+00
1.028419876098632990e+01 -1.491137862205504927e+00 -5.446079373359680176e-01 2.000000000000000000e+00
3.564877700805664062e+01 -5.175179481506347656e+00 8.316440582275390625e+00 1.000000000000000000e+01
2.051328849792480113e+01 -2.981596708297729048e+00 -3.618232905864716131e-01 3.000000000000000000e+00
3.455319976806641336e+01 -5.022291183471679688e+00 9.355791091918945312e+00 1.400000000000000000e+01
2.375836610794066939e+00 -3.487147688865662176e-01 -6.434241533279418945e-01 2.000000000000000000e+01
5.989747619628906250e+01 -8.802165985107421875e+00 1.056743264198303001e+00 6.200000000000000000e+01
2.757016420364379883e+00 -4.056458175182343084e-01 -6.433600187301635742e-01 1.400000000000000000e+01
3.222264528274536133e+00 -4.746733605861663818e-01 -6.331042647361755371e-01 1.300000000000000000e+01
3.881012439727783203e+00 -5.730980634689331055e-01 -6.213576793670654297e-01 1.100000000000000000e+01
4.977968215942382812e+00 -7.368580102920532227e-01 -6.178775429725646973e-01 1.000000000000000000e+01
3.530158233642578125e+01 -5.231772422790527344e+00 5.652289867401123047e+00 1.300000000000000000e+01
6.602391242980957031e+00 -9.784889817237854004e-01 -5.839434862136840820e-01 6.000000000000000000e+00
3.426063156127929688e+01 -5.083612442016601562e+00 6.732504367828369141e+00 5.900000000000000000e+01
1.031054019927979049e+01 -1.531723141670227051e+00 -5.462827086448669434e-01 2.000000000000000000e+00
2.050275611877441051e+01 -3.053183078765869141e+00 -3.618232905864716131e-01 3.000000000000000000e+00
3.468550872802733664e+01 -5.171406745910645419e+00 9.396684646606445312e+00 7.000000000000000000e+00
2.378425598144530806e+00 -3.575803041458129883e-01 -6.444594264030456543e-01 1.900000000000000000e+01
2.744021654129027876e+00 -4.135247468948364258e-01 -6.406605839729309082e-01 1.400000000000000000e+01
3.226411819458007812e+00 -4.867969751358032227e-01 -6.342490911483764648e-01 1.300000000000000000e+01
3.878988265991210938e+00 -5.866418480873107910e-01 -6.213576793670654297e-01 1.000000000000000000e+01
4.985178947448729581e+00 -7.557175159454345703e-01 -6.190962791442871094e-01 1.000000000000000000e+01
6.606814861297607422e+00 -1.002725481986999956e+00 -5.846407413482666016e-01 5.000000000000000000e+00
3.414562988281250000e+01 -5.188426971435546875e+00 6.713423728942871094e+00 5.900000000000000000e+01
1.032092761993408025e+01 -1.570107460021973100e+00 -5.471200942993164062e-01 2.000000000000000000e+00
2.059081459045410156e+01 -3.139804601669311968e+00 -3.635685443878173828e-01 3.000000000000000000e+00
4.195587539672852273e+01 -6.397670269012451172e+00 1.137199115753174006e+01 1.100000000000000000e+01
2.390528440475463867e+00 -3.679375350475310724e-01 -6.480829119682312012e-01 2.100000000000000000e+01
3.762018203735352273e+01 -5.797021389007568359e+00 6.644130945205688477e-01 3.100000000000000000e+01
2.744487524032593218e+00 -4.233977794647216797e-01 -6.411104798316955566e-01 1.500000000000000000e+01
3.218872070312500000e+00 -4.971572756767272949e-01 -6.331042647361755371e-01 1.200000000000000000e+01
3.874964714050292969e+00 -5.998762249946594238e-01 -6.210448145866394043e-01 1.100000000000000000e+01
3.656359481811522727e+01 -5.666878223419188565e+00 4.543045520782470703e+00 1.900000000000000000e+01
4.972702503204345703e+00 -7.715925574302673340e-01 -6.178775429725646973e-01 9.000000000000000000e+00
3.520954132080078125e+01 -5.469604015350341797e+00 5.643529891967773438e+00 1.300000000000000000e+01
6.617055892944335938e+00 -1.027922391891479048e+00 -5.858609080314636230e-01 6.000000000000000000e+00
1.031538391113281072e+01 -1.606124639511107954e+00 -5.471200942993164062e-01 2.000000000000000000e+00
2.048093986511230113e+01 -3.196243762969971147e+00 -3.618232905864716131e-01 3.000000000000000000e+00
4.225662231445313211e+01 -6.602099418640136719e+00 1.145998954772949041e+01 1.100000000000000000e+01
2.391137838363647017e+00 -3.765803277492523193e-01 -6.486005187034606934e-01 1.900000000000000000e+01
3.764712142944335938e+01 -5.935779571533203125e+00 6.652508378028869629e-01 3.100000000000000000e+01
2.744917869567871094e+00 -4.332790970802307129e-01 -6.415604352951049805e-01 1.400000000000000000e+01
3.217117071151732954e+00 -5.083901882171630859e-01 -6.331042647361755371e-01 1.200000000000000000e+01
3.882602453231811968e+00 -6.149438023567199707e-01 -6.226091980934143066e-01 1.000000000000000000e+01
4.981742382049561435e+00 -7.908131480216979980e-01 -6.193400025367736816e-01 1.000000000000000000e+01
3.558139801025391336e+01 -5.648272514343261719e+00 5.706103324890136719e+00 1.300000000000000000e+01
6.619330406188964844e+00 -1.051952004432678001e+00 -5.863838195800781250e-01 6.000000000000000000e+00
1.032549381256104049e+01 -1.644635558128356934e+00 -5.479574799537658691e-01 2.000000000000000000e+00
3.499571609497070312e+01 -5.580349922180175781e+00 8.181469917297363281e+00 1.000000000000000000e+01
2.391716241836547852e+00 -3.852318823337554932e-01 -6.491181850433349609e-01 1.900000000000000000e+01
2.739540815353393999e+00 -4.422369003295897882e-01 -6.406605839729309082e-01 1.100000000000000000e+01
3.777735519409179688e+01 -6.105064392089843750e+00 2.005513906478881836e+00 2.100000000000000000e+01
3.197879791259766069e+00 -5.167980194091796875e-01 -6.296696662902832031e-01 1.100000000000000000e+01
3.896032094955443892e+00 -6.310194730758666992e-01 -6.251121163368225098e-01 1.100000000000000000e+01
3.844345474243164062e+01 -6.233366489410400391e+00 4.781909465789794922e+00 2.000000000000000000e+01
4.971113681793212891e+00 -8.069255948066711426e-01 -6.183650493621826172e-01 9.000000000000000000e+00
6.617584705352783203e+00 -1.075371026992798074e+00 -5.865581631660461426e-01 8.000000000000000000e+00
3.696509170532227273e+01 -6.013524532318115234e+00 7.279744625091552734e+00 6.200000000000000000e+01
1.035911560058593928e+01 -1.687089085578918013e+00 -5.500509142875671387e-01 2.000000000000000000e+00
3.492601776123046875e+01 -5.694320678710938388e+00 8.169772148132324219e+00 1.000000000000000000e+01
2.072653388977051137e+01 -3.382957696914672852e+00 -3.665703535079956055e-01 3.000000000000000000e+00
3.540787887573242188e+01 -5.779227256774902344e+00 9.613057136535644531e+00 7.000000000000000000e+00
2.384775161743164062e+00 -3.918041884899138849e-01 -6.475652456283569336e-01 1.700000000000000000e+01
5.993548583984375000e+01 -9.857782363891601562e+00 1.060233712196350098e+00 6.100000000000000000e+01
2.753520965576171875e+00 -4.533740282058715820e-01 -6.442598104476928711e-01 1.400000000000000000e+01
3.219485998153686968e+00 -5.306735038757324219e-01 -6.342490911483764648e-01 1.100000000000000000e+01
3.890132427215576172e+00 -6.426122188568115234e-01 -6.244863867759704590e-01 1.100000000000000000e+01
3.749927139282227273e+01 -6.201240062713623047e+00 4.666864871978759766e+00 2.000000000000000000e+01
4.984221458435058594e+00 -8.251325488090515137e-01 -6.203149557113647461e-01 9.000000000000000000e+00
6.612207889556884766e+00 -1.095829606056212935e+00 -5.863838195800781250e-01 6.000000000000000000e+00
3.687629318237304688e+01 -6.118056297302246094e+00 7.266006469726563388e+00 6.200000000000000000e+01
1.036558628082275035e+01 -1.721588253974914995e+00 -5.506789088249206543e-01 2.000000000000000000e+00
3.841816711425781250e+01 -6.387645244598388672e+00 8.991293907165527344e+00 1.200000000000000000e+01
2.084204864501953125e+01 -3.469068050384521040e+00 -3.688042461872100830e-01 3.000000000000000000e+00
3.481595230102539062e+01 -5.794963359832763672e+00 9.457247734069824219e+00 1.400000000000000000e+01
2.375772237777709961e+00 -3.988468348979949951e-01 -6.454946994781494141e-01 1.500000000000000000e+01
5.970350646972656250e+01 -1.003379344940186080e+01 1.056743264198303001e+00 6.200000000000000000e+01
2.749999761581420898e+00 -4.626595377922058105e-01 -6.438099145889282227e-01 1.300000000000000000e+01
3.789359664916992188e+01 -6.382013797760009766e+00 2.013887643814086914e+00 2.200000000000000000e+01
3.217613935470581055e+00 -5.419083237648010254e-01 -6.342490911483764648e-01 1.100000000000000000e+01
3.880074262619018999e+00 -6.548723578453063965e-01 -6.232349276542663574e-01 1.100000000000000000e+01
3.739910507202147727e+01 -6.318871021270751953e+00 4.657114982604979581e+00 4.000000000000000000e+01
4.989140033721923828e+00 -8.438498973846435547e-01 -6.212899088859558105e-01 9.000000000000000000e+00
3.537917327880858664e+01 -5.990290641784667969e+00 5.683264255523681641e+00 1.300000000000000000e+01
6.620129108428955078e+00 -1.120899558067321999e+00 -5.874297022819519043e-01 8.000000000000000000e+00
1.037526607513427912e+01 -1.760433316230773926e+00 -5.515162944793701172e-01 2.000000000000000000e+00
3.405367279052733664e+01 -5.784204483032226562e+00 7.974514961242675781e+00 2.000000000000000000e+01
2.092838287353515980e+01 -3.558559656143188032e+00 -3.705494999885559082e-01 3.000000000000000000e+00
3.480400085449218750e+01 -5.924151897430419922e+00 9.459836006164550781e+00 7.000000000000000000e+00
2.381981849670410156e+00 -4.084433615207672119e-01 -6.475652456283569336e-01 1.600000000000000000e+01
2.736844539642333984e+00 -4.702759087085723877e-01 -6.411104798316955566e-01 1.200000000000000000e+01
3.223442077636719194e+00 -5.544678568840026855e-01 -6.357755661010742188e-01 1.100000000000000000e+01
3.879711389541625977e+00 -6.687479019165039062e-01 -6.235477924346923828e-01 1.000000000000000000e+01
4.964646816253662109e+00 -8.575434088706970215e-01 -6.186087727546691895e-01 1.000000000000000000e+01
6.631882190704345703e+00 -1.146717071533202903e+00 -5.888242125511169434e-01 8.000000000000000000e+00
3.779992675781250000e+01 -6.542770385742188388e+00 7.456815719604492188e+00 6.200000000000000000e+01
1.044383907318115057e+01 -1.809596419334412065e+00 -5.554938316345214844e-01 2.000000000000000000e+00
3.410239791870117188e+01 -5.915028095245361328e+00 7.990711212158203125e+00 1.000000000000000000e+01
2.091583251953125000e+01 -3.631591558456420898e+00 -3.705494999885559082e-01 3.000000000000000000e+00
3.486029815673828125e+01 -6.052752971649169922e+00 9.480541229248046875e+00 1.400000000000000000e+01
2.388153076171875000e+00 -4.180881083011627197e-01 -6.496357917785644531e-01 1.800000000000000000e+01
5.973048782348632812e+01 -1.046761417388916016e+01 1.058488488197327104e+00 6.100000000000000000e+01
2.748622179031372070e+00 -4.821834564208983820e-01 -6.442598104476928711e-01 1.300000000000000000e+01
3.213752269744873047e+00 -5.643581748008728027e-01 -6.342490911483764648e-01 1.100000000000000000e+01
3.877353429794311968e+00 -6.822865605354309082e-01 -6.235477924346923828e-01 1.000000000000000000e+01
3.845278549194335938e+01 -6.773344039916992188e+00 4.794095993041992188e+00 2.000000000000000000e+01
4.951848506927490234e+00 -8.731445074081420898e-01 -6.173900961875915527e-01 9.000000000000000000e+00
6.657269954681395596e+00 -1.175054430961609109e+00 -5.914388895034790039e-01 8.000000000000000000e+00
1.041385841369629084e+01 -1.841866970062256081e+00 -5.542377829551696777e-01 2.000000000000000000e+00
2.093059539794921875e+01 -3.709464788436890093e+00 -3.710381686687468927e-01 7.000000000000000000e+00
3.478950119018554688e+01 -6.165636062622070312e+00 9.467082977294921875e+00 7.000000000000000000e+00
2.384851932525635210e+00 -4.256657361984252930e-01 -6.491181850433349609e-01 1.900000000000000000e+01
2.737416744232178178e+00 -4.895801246166229248e-01 -6.420103311538696289e-01 1.300000000000000000e+01
3.204133033752440962e+00 -5.736283063888549805e-01 -6.327226161956787109e-01 1.200000000000000000e+01
3.890624284744263139e+00 -6.979309320449829102e-01 -6.260507106781005859e-01 1.000000000000000000e+01
3.837149810791016336e+01 -6.890295028686523438e+00 4.786784172058104581e+00 2.000000000000000000e+01
4.984094142913818359e+00 -8.958820104598999023e-01 -6.217774152755737305e-01 9.000000000000000000e+00
6.631766796112061435e+00 -1.193243145942687988e+00 -5.895214676856994629e-01 6.000000000000000000e+00
1.043128013610840021e+01 -1.880642890930176003e+00 -5.554938316345214844e-01 2.000000000000000000e+00
3.428380584716796875e+01 -6.187163829803466797e+00 8.042900085449218750e+00 1.000000000000000000e+01
2.074304008483887074e+01 -3.747214078903197798e+00 -3.679316341876984198e-01 1.000000000000000000e+01
3.533158493041992188e+01 -6.382623195648193359e+00 9.620304107666015625e+00 7.000000000000000000e+00
2.373848438262939009e+00 -4.322574436664580744e-01 -6.465299725532531738e-01 1.900000000000000000e+01
5.975621795654296875e+01 -1.089186954498291016e+01 1.060233712196350098e+00 6.100000000000000000e+01
2.747193574905395952e+00 -5.012311935424804688e-01 -6.447097063064575195e-01 1.200000000000000000e+01
3.209836483001708984e+00 -5.862202048301696777e-01 -6.342490911483764648e-01 1.100000000000000000e+01
3.886221170425415039e+00 -7.111518979072570801e-01 -6.257378458976745605e-01 1.100000000000000000e+01
4.973126411437988281e+00 -9.118422865867614746e-01 -6.208024621009826660e-01 9.000000000000000000e+00
