2.982647657394409180e+00 -1.701272249221801980e+00 -6.674498915672302246e-01 1.100000000000000000e+01
3.640360355377196822e+00 -2.078109502792357954e+00 -6.639078855514526367e-01 1.000000000000000000e+01
4.658962726593017578e+00 -2.661737918853760210e+00 -6.588256955146789551e-01 9.000000000000000000e+00
6.611258029937744141e+00 -3.778645038604735884e+00 -6.662185192108154297e-01 3.000000000000000000e+00
9.439843177795410156e+00 -5.399687290191650391e+00 -5.699385404586791992e-01 3.000000000000000000e+00
2.167734622955321822e+00 -1.244992852210998979e+00 -6.698237061500549316e-01 1.600000000000000000e+01
2.514014720916748047e+00 -1.445038795471190962e+00 -6.694543361663818359e-01 1.200000000000000000e+01
2.966479301452637163e+00 -1.705801248550415039e+00 -6.651601791381835938e-01 1.100000000000000000e+01
3.648493289947510210e+00 -2.099671602249145952e+00 -6.667236685752868652e-01 1.100000000000000000e+01
4.739092826843261719e+00 -2.729503393173218218e+00 -6.715000867843627930e-01 7.000000000000000000e+00
6.622196197509765625e+00 -3.815625429153441939e+00 -6.686588525772094727e-01 3.000000000000000000e+00
9.476304054260253906e+00 -5.464532852172851562e+00 -5.732880830764770508e-01 3.000000000000000000e+00
2.161703586578369141e+00 -1.251584053039551003e+00 -6.693060398101806641e-01 1.600000000000000000e+01
2.519072055816649947e+00 -1.459667682647705078e+00 -6.721537709236145020e-01 1.200000000000000000e+01
2.963903903961182085e+00 -1.718115091323852983e+00 -6.659234166145324707e-01 1.000000000000000000e+01
3.622346639633179155e+00 -2.101490497589110884e+00 -6.632821559906005859e-01 1.000000000000000000e+01
4.641983985900878906e+00 -2.695195436477661133e+00 -6.590694189071655273e-01 8.000000000000000000e+00
6.598499774932861328e+00 -3.832713603973389116e+00 -6.676129698753356934e-01 2.000000000000000000e+00
9.415730476379394531e+00 -5.473487854003906250e+00 -5.707759261131286621e-01 3.000000000000000000e+00
2.155653238296508789e+00 -1.258148431777954102e+00 -6.687884330749511719e-01 1.800000000000000000e+01
2.508913278579711914e+00 -1.465503215789794922e+00 -6.708040237426757812e-01 1.200000000000000000e+01
2.976534366607666016e+00 -1.739346146583556907e+00 -6.701211929321289062e-01 1.100000000000000000e+01
3.618399381637572798e+00 -2.116116523742675781e+00 -6.639078855514526367e-01 1.100000000000000000e+01
4.567445278167724609e+00 -2.673278808593750000e+00 -6.498073339462280273e-01 1.100000000000000000e+01
6.598835468292236328e+00 -3.863777160644530806e+00 -6.690074801445007324e-01 2.000000000000000000e+00
9.396567344665527344e+00 -5.506321430206298828e+00 -5.707759261131286621e-01 3.000000000000000000e+00
2.164790868759154829e+00 -1.273124456405640093e+00 -6.729295253753662109e-01 1.600000000000000000e+01
2.499001502990723100e+00 -1.470849633216857910e+00 -6.694543361663818359e-01 1.100000000000000000e+01
2.965674638748168945e+00 -1.746218800544738992e+00 -6.689763665199279785e-01 1.100000000000000000e+01
3.607958316802978960e+00 -2.126098155975341797e+00 -6.632821559906005859e-01 1.000000000000000000e+01
4.560265064239501953e+00 -2.689418554306029829e+00 -6.500510573387145996e-01 1.400000000000000000e+01
6.603146553039550781e+00 -3.895762443542480025e+00 -6.707506179809570312e-01 3.000000000000000000e+00
2.157010078430175781e+00 -1.278702974319458008e+00 -6.718942523002624512e-01 1.600000000000000000e+01
2.487148046493529829e+00 -1.475586414337157981e+00 -6.676547527313232422e-01 1.200000000000000000e+01
2.957872867584228960e+00 -1.755558252334594949e+00 -6.685947179794311523e-01 1.100000000000000000e+01
3.620895147323607954e+00 -2.150784969329833984e+00 -6.670365333557128906e-01 1.000000000000000000e+01
4.544023990631104404e+00 -2.701262950897216797e+00 -6.490761041641235352e-01 1.700000000000000000e+01
6.599782466888427734e+00 -3.924898386001586914e+00 -6.717964410781860352e-01 2.000000000000000000e+00
2.155850172042847124e+00 -1.288206458091736062e+00 -6.729295253753662109e-01 1.500000000000000000e+01
2.493689775466918945e+00 -1.491260528564452903e+00 -6.708040237426757812e-01 1.300000000000000000e+01
2.953411579132080078e+00 -1.766880393028259055e+00 -6.689763665199279785e-01 1.000000000000000000e+01
3.616755008697510210e+00 -2.165440797805786133e+00 -6.676623225212097168e-01 1.000000000000000000e+01
4.534567356109619141e+00 -2.717108249664307085e+00 -6.490761041641235352e-01 1.400000000000000000e+01
6.575788497924804688e+00 -3.941765785217285156e+00 -6.707506179809570312e-01 3.000000000000000000e+00
2.139756202697753906e+00 -1.288746953010559082e+00 -6.693060398101806641e-01 1.600000000000000000e+01
2.505158901214600053e+00 -1.510016083717345969e+00 -6.753030419349670410e-01 1.200000000000000000e+01
2.947226047515869141e+00 -1.777179002761841042e+00 -6.689763665199279785e-01 1.000000000000000000e+01
3.609174251556396040e+00 -2.178052425384521040e+00 -6.676623225212097168e-01 1.000000000000000000e+01
4.567535877227783203e+00 -2.758576631546020952e+00 -6.551696062088012695e-01 1.100000000000000000e+01
6.551757335662841797e+00 -3.958513736724853960e+00 -6.697047352790832520e-01 2.000000000000000000e+00
2.145153045654296875e+00 -1.302223086357116921e+00 -6.724118590354919434e-01 1.600000000000000000e+01
2.493210792541503906e+00 -1.514704227447509988e+00 -6.735034584999084473e-01 1.200000000000000000e+01
2.946037769317626953e+00 -1.790514826774596946e+00 -6.701211929321289062e-01 1.100000000000000000e+01
3.591423273086547852e+00 -2.184478282928466797e+00 -6.657850742340087891e-01 1.000000000000000000e+01
4.642660617828369141e+00 -2.826112508773804155e+00 -6.673565506935119629e-01 9.000000000000000000e+00
6.585546970367431641e+00 -4.010375022888183594e+00 -6.745854616165161133e-01 1.000000000000000000e+00
2.142242193222045898e+00 -1.310711383819580078e+00 -6.729295253753662109e-01 1.700000000000000000e+01
2.484584569931029829e+00 -1.521362662315369096e+00 -6.726036667823791504e-01 1.200000000000000000e+01
2.943117856979370117e+00 -1.802838563919066939e+00 -6.708844304084777832e-01 1.200000000000000000e+01
3.592196702957152876e+00 -2.202163457870482954e+00 -6.673493981361389160e-01 1.000000000000000000e+01
4.583698749542236328e+00 -2.812196493148804155e+00 -6.602880954742431641e-01 1.100000000000000000e+01
6.588488578796386719e+00 -4.043760776519775391e+00 -6.763285398483276367e-01 2.000000000000000000e+00
8.895567893981933594e+00 -5.464032649993895596e+00 -5.471200942993164062e-01 2.000000000000000000e+00
2.145875692367554155e+00 -1.323251128196716087e+00 -6.755176782608032227e-01 1.600000000000000000e+01
2.472625255584716797e+00 -1.525932431221008079e+00 -6.708040237426757812e-01 1.500000000000000000e+01
2.938477516174315962e+00 -1.814132332801819070e+00 -6.712660193443298340e-01 1.200000000000000000e+01
3.591209650039672852e+00 -2.218842267990111861e+00 -6.686009168624877930e-01 1.000000000000000000e+01
4.617752552032470703e+00 -2.855323314666748047e+00 -6.666253209114074707e-01 9.000000000000000000e+00
6.570944309234619141e+00 -4.064637660980224609e+00 -6.759799122810363770e-01 3.000000000000000000e+00
8.706621170043945312e+00 -5.389922618865966797e+00 -5.366529226303100586e-01 2.000000000000000000e+00
4.547217178344727273e+01 -2.817197036743164062e+01 -9.337037205696105957e-01 1.400000000000000000e+01
2.136321067810059038e+00 -1.327674388885498047e+00 -6.739647984504699707e-01 1.500000000000000000e+01
2.482176780700684038e+00 -1.543817162513732910e+00 -6.748531460762023926e-01 1.200000000000000000e+01
2.928793191909790039e+00 -1.822304129600524902e+00 -6.705027818679809570e-01 1.200000000000000000e+01
3.585119485855102983e+00 -2.232408523559569868e+00 -6.689137816429138184e-01 1.000000000000000000e+01
4.592595100402832031e+00 -2.861975908279418945e+00 -6.644316315650939941e-01 1.100000000000000000e+01
6.561788082122802734e+00 -4.090712070465087891e+00 -6.765028834342956543e-01 2.000000000000000000e+00
2.122082233428955078e+00 -1.328600525856018066e+00 -6.708589792251586914e-01 1.500000000000000000e+01
2.480346441268920898e+00 -1.554109215736388938e+00 -6.757529377937316895e-01 1.100000000000000000e+01
2.922734260559082031e+00 -1.832006335258484109e+00 -6.705027818679809570e-01 1.200000000000000000e+01
3.584390401840209961e+00 -2.248483896255493164e+00 -6.701652407646179199e-01 1.000000000000000000e+01
4.551135540008544922e+00 -2.857136011123656782e+00 -6.598006486892700195e-01 1.400000000000000000e+01
6.548186779022216797e+00 -4.112449169158936435e+00 -6.765028834342956543e-01 2.000000000000000000e+00
2.120699167251586914e+00 -1.338061571121216042e+00 -6.718942523002624512e-01 1.500000000000000000e+01
2.474906444549560991e+00 -1.562757730484009011e+00 -6.757529377937316895e-01 1.200000000000000000e+01
2.914661645889281782e+00 -1.841148853302001953e+00 -6.701211929321289062e-01 1.100000000000000000e+01
3.569841146469116211e+00 -2.256759881973267046e+00 -6.689137816429138184e-01 1.000000000000000000e+01
4.532746791839599609e+00 -2.867698431015015093e+00 -6.585819125175476074e-01 1.600000000000000000e+01
6.555677890777587891e+00 -4.149133205413818359e+00 -6.787689328193664551e-01 2.000000000000000000e+00
4.517966461181641336e+01 -2.863871574401855113e+01 -9.337037205696105957e-01 1.400000000000000000e+01
2.119040727615356001e+00 -1.347899079322814941e+00 -6.729295253753662109e-01 1.500000000000000000e+01
2.462586402893065962e+00 -1.567632317543030007e+00 -6.739533543586730957e-01 1.100000000000000000e+01
2.922797679901123047e+00 -1.861310362815856934e+00 -6.735557317733764648e-01 1.200000000000000000e+01
3.564877271652222124e+00 -2.271952152252196822e+00 -6.695395112037658691e-01 1.000000000000000000e+01
4.535594463348388672e+00 -2.892832279205321822e+00 -6.605318188667297363e-01 1.600000000000000000e+01
6.543785572052001953e+00 -4.175276756286621094e+00 -6.791175603866577148e-01 2.000000000000000000e+00
2.120828390121459961e+00 -1.359457731246948020e+00 -6.750000715255737305e-01 1.500000000000000000e+01
2.455459117889403853e+00 -1.575166583061218040e+00 -6.735034584999084473e-01 1.200000000000000000e+01
2.908021211624145952e+00 -1.866199851036071999e+00 -6.716476678848266602e-01 1.100000000000000000e+01
3.563573360443114790e+00 -2.288651943206787109e+00 -6.707909703254699707e-01 1.000000000000000000e+01
4.518789291381835938e+00 -2.904353618621826172e+00 -6.595568656921386719e-01 1.900000000000000000e+01
6.515764236450195312e+00 -4.189472675323486328e+00 -6.777230501174926758e-01 0.000000000000000000e+00
2.116308689117432085e+00 -1.366483211517333984e+00 -6.750000715255737305e-01 1.600000000000000000e+01
2.451858997344971147e+00 -1.584358215332031028e+00 -6.739533543586730957e-01 1.100000000000000000e+01
2.891924142837523970e+00 -1.869438052177428977e+00 -6.693579554557800293e-01 1.100000000000000000e+01
3.569232940673828125e+00 -2.309040307998656782e+00 -6.732939481735229492e-01 1.000000000000000000e+01
4.534128665924072266e+00 -2.935504913330078125e+00 -6.632129549980163574e-01 4.500000000000000000e+01
6.518558502197265625e+00 -4.221887588500976562e+00 -6.794661879539489746e-01 3.000000000000000000e+00
2.106667995452880859e+00 -1.370701432228087935e+00 -6.734471321105957031e-01 1.600000000000000000e+01
2.456111907958983931e+00 -1.599287271499634011e+00 -6.766527891159057617e-01 1.200000000000000000e+01
2.891961097717285156e+00 -1.883807539939879927e+00 -6.708844304084777832e-01 1.100000000000000000e+01
3.551222324371337891e+00 -2.315012693405150923e+00 -6.714166998863220215e-01 1.000000000000000000e+01
4.518866539001464844e+00 -2.948060274124145952e+00 -6.624817252159118652e-01 1.900000000000000000e+01
6.507118701934813565e+00 -4.246793746948242188e+00 -6.798148155212402344e-01 3.000000000000000000e+00
2.106717348098754883e+00 -1.381224393844604048e+00 -6.750000715255737305e-01 1.600000000000000000e+01
2.450514316558837891e+00 -1.607850909233093040e+00 -6.766527891159057617e-01 1.200000000000000000e+01
2.888650417327880859e+00 -1.896045565605164018e+00 -6.716476678848266602e-01 1.100000000000000000e+01
3.543119668960570845e+00 -2.327394723892211914e+00 -6.714166998863220215e-01 1.000000000000000000e+01
4.520159721374511719e+00 -2.971449136734008789e+00 -6.641879081726074219e-01 1.700000000000000000e+01
6.512230873107910156e+00 -4.282618999481201172e+00 -6.819065213203430176e-01 3.000000000000000000e+00
1.338530254364014027e+01 -8.809230804443359375e+00 -8.397827744483947754e-01 4.000000000000000000e+00
2.106718778610229048e+00 -1.391764402389525923e+00 -6.765530109405517578e-01 1.500000000000000000e+01
2.441635847091674805e+00 -1.614245533943176047e+00 -6.757529377937316895e-01 1.100000000000000000e+01
2.896751880645751953e+00 -1.915864467620850053e+00 -6.750822067260742188e-01 1.200000000000000000e+01
3.530032396316527876e+00 -2.336477518081665039e+00 -6.704781055450439453e-01 9.000000000000000000e+00
4.518034934997558594e+00 -2.992690563201903853e+00 -6.654066443443298340e-01 1.600000000000000000e+01
6.497242450714111328e+00 -4.305325031280517578e+00 -6.819065213203430176e-01 3.000000000000000000e+00
2.109643459320067915e+00 -1.404830336570739968e+00 -6.791411638259887695e-01 1.900000000000000000e+01
2.432459592819213867e+00 -1.621022462844849077e+00 -6.748531460762023926e-01 1.200000000000000000e+01
2.878275632858275923e+00 -1.918845534324645996e+00 -6.724109053611755371e-01 1.200000000000000000e+01
3.531304359436035156e+00 -2.355977773666381836e+00 -6.723553538322448730e-01 9.000000000000000000e+00
4.510337352752686435e+00 -3.011434316635131836e+00 -6.658940911293029785e-01 2.200000000000000000e+01
6.476448535919188565e+00 -4.325789451599121094e+00 -6.813836097717285156e-01 3.000000000000000000e+00
2.096705675125122070e+00 -1.406803965568542036e+00 -6.765530109405517578e-01 2.500000000000000000e+01
2.433257818222045898e+00 -1.633848786354064941e+00 -6.766527891159057617e-01 1.100000000000000000e+01
2.871560096740723100e+00 -1.928880929946898970e+00 -6.724109053611755371e-01 1.100000000000000000e+01
3.531255960464477983e+00 -2.373800277709960938e+00 -6.739196777343750000e-01 1.000000000000000000e+01
4.511327743530273438e+00 -3.034916400909423828e+00 -6.676002740859985352e-01 2.900000000000000000e+01
6.434862136840820312e+00 -4.330572128295898438e+00 -6.785945892333984375e-01 4.000000000000000000e+00
2.086980819702147993e+00 -1.410868406295775923e+00 -6.750000715255737305e-01 2.300000000000000000e+01
2.440452098846435991e+00 -1.651068210601807085e+00 -6.802520155906677246e-01 1.100000000000000000e+01
2.861557960510253906e+00 -1.936691999435425027e+00 -6.716476678848266602e-01 1.100000000000000000e+01
3.522948265075684038e+00 -2.386112213134766069e+00 -6.739196777343750000e-01 1.000000000000000000e+01
4.505635738372802734e+00 -3.053986549377440962e+00 -6.683315038681030273e-01 2.200000000000000000e+01
6.404865264892578125e+00 -4.342944145202636719e+00 -6.770257949829101562e-01 5.000000000000000000e+00
2.086833238601685014e+00 -1.421407341957092063e+00 -6.765530109405517578e-01 2.400000000000000000e+01
2.434674024581909180e+00 -1.659577012062072976e+00 -6.802520155906677246e-01 1.100000000000000000e+01
2.867756366729735884e+00 -1.955517411231995073e+00 -6.747006177902221680e-01 1.100000000000000000e+01
3.508071184158325195e+00 -2.393941164016724077e+00 -6.726682186126708984e-01 1.000000000000000000e+01
4.519537448883056641e+00 -3.086488246917725053e+00 -6.719875335693359375e-01 2.200000000000000000e+01
6.366634845733642578e+00 -4.349539756774902344e+00 -6.745854616165161133e-01 5.000000000000000000e+00
2.085294246673583984e+00 -1.430505394935607910e+00 -6.775882840156555176e-01 2.500000000000000000e+01
2.416304588317871094e+00 -1.658818006515502930e+00 -6.766527891159057617e-01 1.100000000000000000e+01
2.864492654800415039e+00 -1.967239379882812944e+00 -6.754638552665710449e-01 1.200000000000000000e+01
3.513136863708496094e+00 -2.414512157440185991e+00 -6.751711368560791016e-01 1.000000000000000000e+01
4.520726680755615234e+00 -3.109333276748656782e+00 -6.736937165260314941e-01 2.800000000000000000e+01
6.312782764434813565e+00 -4.343523979187011719e+00 -6.704019904136657715e-01 6.000000000000000000e+00
2.086645126342772993e+00 -1.442169189453125000e+00 -6.796588301658630371e-01 2.500000000000000000e+01
2.418513059616088867e+00 -1.672785043716431108e+00 -6.789022684097290039e-01 1.200000000000000000e+01
2.854379177093505859e+00 -1.974992156028748003e+00 -6.747006177902221680e-01 1.100000000000000000e+01
3.501439332962036133e+00 -2.424511432647705078e+00 -6.745454072952270508e-01 1.000000000000000000e+01
4.518003463745117188e+00 -3.130747795104980025e+00 -6.749124526977539062e-01 2.900000000000000000e+01
6.287757873535156250e+00 -4.358722686767578125e+00 -6.693561077117919922e-01 6.000000000000000000e+00
2.078427553176879883e+00 -1.447236299514770952e+00 -6.786235570907592773e-01 2.400000000000000000e+01
2.412659406661986861e+00 -1.681217074394226074e+00 -6.789022684097290039e-01 1.200000000000000000e+01
2.847467899322510210e+00 -1.984943747520446999e+00 -6.747006177902221680e-01 1.100000000000000000e+01
3.502675533294678178e+00 -2.443500280380249023e+00 -6.764226555824279785e-01 1.000000000000000000e+01
4.511930465698242188e+00 -3.149908542633057085e+00 -6.756436228752136230e-01 2.400000000000000000e+01
6.262703895568847656e+00 -4.373799800872802734e+00 -6.683102250099182129e-01 7.000000000000000000e+00
2.063874006271361861e+00 -1.447825908660888894e+00 -6.755176782608032227e-01 2.200000000000000000e+01
2.408370971679687944e+00 -1.690748333930969016e+00 -6.793521642684936523e-01 1.100000000000000000e+01
2.840521812438964844e+00 -1.994871258735656960e+00 -6.747006177902221680e-01 1.100000000000000000e+01
3.497356891632080078e+00 -2.457983732223511186e+00 -6.770483851432800293e-01 1.000000000000000000e+01
4.517145156860351562e+00 -3.177058935165404829e+00 -6.780810356140136719e-01 1.900000000000000000e+01
6.245769023895263672e+00 -4.394487380981445312e+00 -6.681359410285949707e-01 7.000000000000000000e+00
2.068783521652222124e+00 -1.460988998413085938e+00 -6.786235570907592773e-01 2.500000000000000000e+01
2.409413099288939986e+00 -1.702804923057555930e+00 -6.811518073081970215e-01 1.100000000000000000e+01
2.840652942657471147e+00 -2.008318662643433061e+00 -6.762270927429199219e-01 1.200000000000000000e+01
3.486392498016356978e+00 -2.466676950454711914e+00 -6.764226555824279785e-01 1.000000000000000000e+01
4.512001991271972656e+00 -3.194675445556641069e+00 -6.788122653961181641e-01 1.700000000000000000e+01
6.171775817871093750e+00 -4.371478080749511719e+00 -6.616864204406738281e-01 7.000000000000000000e+00
2.069967508316040039e+00 -1.472681164741515891e+00 -6.806941032409667969e-01 2.400000000000000000e+01
2.393929719924927202e+00 -1.704423427581787109e+00 -6.784523725509643555e-01 1.100000000000000000e+01
2.840021848678588867e+00 -2.022777795791625977e+00 -6.777535676956176758e-01 1.100000000000000000e+01
3.471326589584351030e+00 -2.474245548248291016e+00 -6.751711368560791016e-01 1.000000000000000000e+01
4.479813575744628906e+00 -3.195420026779174805e+00 -6.756436228752136230e-01 1.500000000000000000e+01
6.174318790435791016e+00 -4.405725002288818359e+00 -6.636038422584533691e-01 8.000000000000000000e+00
2.069525003433227983e+00 -1.483273983001708984e+00 -6.822469830513000488e-01 2.300000000000000000e+01
2.384798526763916016e+00 -1.710497856140136941e+00 -6.775525808334350586e-01 1.100000000000000000e+01
2.829753398895264116e+00 -2.030390024185181108e+00 -6.769903302192687988e-01 1.200000000000000000e+01
3.469087123870850053e+00 -2.490956306457519975e+00 -6.764226555824279785e-01 1.000000000000000000e+01
4.478304862976074219e+00 -3.217988491058350053e+00 -6.771060824394226074e-01 1.500000000000000000e+01
6.133018016815186435e+00 -4.408643722534179688e+00 -6.608148217201232910e-01 1.200000000000000000e+01
2.064334630966186968e+00 -1.490488886833190918e+00 -6.822469830513000488e-01 2.300000000000000000e+01
2.385131359100341797e+00 -1.723377108573914018e+00 -6.793521642684936523e-01 1.100000000000000000e+01
2.813102006912231001e+00 -2.033354759216309038e+00 -6.747006177902221680e-01 1.100000000000000000e+01
3.469974279403686968e+00 -2.509996891021728960e+00 -6.782998442649841309e-01 1.000000000000000000e+01
4.478300571441650391e+00 -3.241749048233031782e+00 -6.788122653961181641e-01 1.400000000000000000e+01
6.107909202575683594e+00 -4.423013687133789062e+00 -6.597689986228942871e-01 1.000000000000000000e+01
2.040371656417847124e+00 -1.484049677848815918e+00 -6.760353446006774902e-01 2.000000000000000000e+01
2.382252216339110884e+00 -1.733985900878906028e+00 -6.802520155906677246e-01 1.200000000000000000e+01
2.809161424636840820e+00 -2.045473337173461914e+00 -6.754638552665710449e-01 1.200000000000000000e+01
3.461191415786743164e+00 -2.522094011306763139e+00 -6.782998442649841309e-01 1.000000000000000000e+01
4.481392860412597656e+00 -3.267888069152832031e+00 -6.810058951377868652e-01 1.500000000000000000e+01
6.044144153594970703e+00 -4.409081459045410156e+00 -6.545396447181701660e-01 1.100000000000000000e+01
2.046087265014647993e+00 -1.499155402183532937e+00 -6.796588301658630371e-01 2.200000000000000000e+01
2.385614395141602007e+00 -1.749204874038696067e+00 -6.829513907432556152e-01 1.200000000000000000e+01
2.802004337310791016e+00 -2.055266618728638139e+00 -6.754638552665710449e-01 1.100000000000000000e+01
3.449181795120238814e+00 -2.531822681427001953e+00 -6.776741147041320801e-01 1.000000000000000000e+01
4.477957725524902344e+00 -3.289386987686156782e+00 -6.822245717048645020e-01 1.400000000000000000e+01
6.009450435638427734e+00 -4.415995121002197266e+00 -6.524478793144226074e-01 1.100000000000000000e+01
2.050167798995972124e+00 -1.513171672821044922e+00 -6.827646493911743164e-01 2.100000000000000000e+01
2.360683679580688032e+00 -1.743628025054932085e+00 -6.775525808334350586e-01 1.100000000000000000e+01
2.801128864288330078e+00 -2.069701671600341797e+00 -6.769903302192687988e-01 1.100000000000000000e+01
3.443499803543090820e+00 -2.546196222305297852e+00 -6.782998442649841309e-01 1.000000000000000000e+01
4.476022720336914062e+00 -3.312082767486571822e+00 -6.836870312690734863e-01 1.400000000000000000e+01
6.026026725769042969e+00 -4.460653305053710938e+00 -6.559340953826904297e-01 1.000000000000000000e+01
2.046423673629761186e+00 -1.521471500396728960e+00 -6.832822561264038086e-01 2.000000000000000000e+01
2.367090702056885210e+00 -1.761163830757140891e+00 -6.811518073081970215e-01 1.100000000000000000e+01
2.793887138366699219e+00 -2.079466819763184038e+00 -6.769903302192687988e-01 1.100000000000000000e+01
3.437759399414062944e+00 -2.560560703277587891e+00 -6.789255738258361816e-01 1.000000000000000000e+01
4.459659576416015625e+00 -3.324127674102783203e+00 -6.829558014869689941e-01 1.400000000000000000e+01
6.085489749908447266e+00 -4.537636756896972656e+00 -6.641267538070678711e-01 7.000000000000000000e+00
2.041100263595581055e+00 -1.528605580329895020e+00 -6.832822561264038086e-01 1.900000000000000000e+01
2.364047527313231978e+00 -1.771753191947937012e+00 -6.820515990257263184e-01 1.100000000000000000e+01
2.786611557006835938e+00 -2.089206695556641069e+00 -6.769903302192687988e-01 1.100000000000000000e+01
3.438280820846558061e+00 -2.579658031463623047e+00 -6.808027625083923340e-01 1.100000000000000000e+01
4.463903427124023438e+00 -3.351593494415283203e+00 -6.853932142257690430e-01 1.400000000000000000e+01
5.994739055633544922e+00 -4.502613544464111328e+00 -6.559340953826904297e-01 7.000000000000000000e+00
2.021871805191040039e+00 -1.525250196456908958e+00 -6.786235570907592773e-01 1.600000000000000000e+01
2.367180347442626953e+00 -1.787039279937743919e+00 -6.847510337829589844e-01 1.200000000000000000e+01
2.779301881790161133e+00 -2.098921060562133789e+00 -6.769903302192687988e-01 1.100000000000000000e+01
3.419799566268920898e+00 -2.584498167037963867e+00 -6.789255738258361816e-01 1.000000000000000000e+01
4.450593471527099609e+00 -3.365957498550415039e+00 -6.851494312286376953e-01 1.200000000000000000e+01
5.958330154418945312e+00 -4.507884502410888672e+00 -6.536680459976196289e-01 7.000000000000000000e+00
2.026033163070679155e+00 -1.538957834243773970e+00 -6.817293763160705566e-01 1.600000000000000000e+01
2.351932764053345171e+00 -1.787803530693053977e+00 -6.820515990257263184e-01 1.200000000000000000e+01
2.787953853607178178e+00 -2.120009422302246094e+00 -6.808065176010131836e-01 1.100000000000000000e+01
3.414354324340819868e+00 -2.598216772079468218e+00 -6.795513033866882324e-01 1.000000000000000000e+01
4.445724487304688388e+00 -3.385508298873900923e+00 -6.861243844032287598e-01 1.200000000000000000e+01
5.943348407745361328e+00 -4.527618408203125000e+00 -6.536680459976196289e-01 7.000000000000000000e+00
2.025251626968383789e+00 -1.549542307853698953e+00 -6.832822561264038086e-01 1.500000000000000000e+01
2.336394309997559038e+00 -1.788894176483154075e+00 -6.793521642684936523e-01 1.100000000000000000e+01
2.777419567108153853e+00 -2.127340555191040039e+00 -6.800432801246643066e-01 1.100000000000000000e+01
3.414670944213867188e+00 -2.617329597473144975e+00 -6.814285516738891602e-01 1.000000000000000000e+01
4.433879852294921875e+00 -3.401006221771239790e+00 -6.861243844032287598e-01 1.200000000000000000e+01
5.906959056854248047e+00 -4.532569408416748047e+00 -6.514019966125488281e-01 7.000000000000000000e+00
2.024420976638793945e+00 -1.560140013694762962e+00 -6.848351955413818359e-01 1.400000000000000000e+01
2.336308240890502930e+00 -1.801799297332763894e+00 -6.811518073081970215e-01 1.100000000000000000e+01
2.765313386917113814e+00 -2.133424997329711914e+00 -6.788983941078186035e-01 1.200000000000000000e+01
3.399259567260742188e+00 -2.624404430389403853e+00 -6.801770329475402832e-01 1.000000000000000000e+01
4.434547901153563565e+00 -3.426172018051147017e+00 -6.880742907524108887e-01 1.200000000000000000e+01
5.876914024353027344e+00 -4.542195320129395419e+00 -6.498332023620605469e-01 6.000000000000000000e+00
2.018962621688843218e+00 -1.567197084426880105e+00 -6.848351955413818359e-01 1.500000000000000000e+01
2.336160421371459961e+00 -1.814725399017333984e+00 -6.829513907432556152e-01 1.200000000000000000e+01
2.760950088500977007e+00 -2.145473957061768022e+00 -6.796616315841674805e-01 1.200000000000000000e+01
3.399434089660644975e+00 -2.643529891967772993e+00 -6.820542812347412109e-01 1.000000000000000000e+01
4.416295051574707031e+00 -3.436753988265991211e+00 -6.870993375778198242e-01 1.200000000000000000e+01
5.911332130432128906e+00 -4.601846218109130859e+00 -6.554111838340759277e-01 7.000000000000000000e+00
2.004348278045653853e+00 -1.567095637321471946e+00 -6.817293763160705566e-01 1.500000000000000000e+01
2.335950613021851030e+00 -1.827672362327575906e+00 -6.847510337829589844e-01 1.100000000000000000e+01
2.754990100860596147e+00 -2.156308650970458984e+00 -6.800432801246643066e-01 1.100000000000000000e+01
3.393296003341674805e+00 -2.657815933227539062e+00 -6.826800107955932617e-01 1.000000000000000000e+01
4.419895172119140625e+00 -3.464394807815552202e+00 -6.895367503166198730e-01 1.200000000000000000e+01
5.779209136962890625e+00 -4.531478881835938388e+00 -6.425121426582336426e-01 7.000000000000000000e+00
1.997348189353943093e+00 -1.572887301445007102e+00 -6.812117099761962891e-01 1.300000000000000000e+01
2.326495409011840820e+00 -1.833402872085571067e+00 -6.838511824607849121e-01 1.100000000000000000e+01
2.750530004501343218e+00 -2.168343067169189009e+00 -6.808065176010131836e-01 1.200000000000000000e+01
3.383997917175292969e+00 -2.669644594192504883e+00 -6.826800107955932617e-01 1.000000000000000000e+01
4.404658794403076172e+00 -3.477341890335083008e+00 -6.890492439270019531e-01 1.200000000000000000e+01
5.727394104003906250e+00 -4.523223400115966797e+00 -6.385029554367065430e-01 1.300000000000000000e+01
2.005467653274536133e+00 -1.590654253959655984e+00 -6.858704686164855957e-01 1.500000000000000000e+01
2.313976049423218218e+00 -1.836666584014893022e+00 -6.820515990257263184e-01 1.400000000000000000e+01
2.739869356155395952e+00 -2.175489187240601030e+00 -6.800432801246643066e-01 1.100000000000000000e+01
3.371565341949462891e+00 -2.678982973098754883e+00 -6.820542812347412109e-01 1.000000000000000000e+01
4.400262832641601562e+00 -3.498873233795166016e+00 -6.902679800987243652e-01 1.400000000000000000e+01
5.840988636016845703e+00 -4.646131992340087891e+00 -6.529708504676818848e-01 7.000000000000000000e+00
1.996884346008301003e+00 -1.595233440399169922e+00 -6.848351955413818359e-01 1.400000000000000000e+01
2.310595035552978960e+00 -1.847166419029236062e+00 -6.829513907432556152e-01 1.100000000000000000e+01
2.735325098037720171e+00 -2.187492370605469194e+00 -6.808065176010131836e-01 1.100000000000000000e+01
3.369904756546020952e+00 -2.696907043457030806e+00 -6.836186051368713379e-01 1.100000000000000000e+01
4.377176284790039062e+00 -3.505525588989257812e+00 -6.885617971420288086e-01 1.200000000000000000e+01
5.810740947723388672e+00 -4.655281066894531250e+00 -6.514019966125488281e-01 5.000000000000000000e+00
1.991583347320557085e+00 -1.601846575736999956e+00 -6.848351955413818359e-01 1.500000000000000000e+01
2.305974960327147993e+00 -1.856040358543395996e+00 -6.834012866020202637e-01 1.300000000000000000e+01
2.721939325332642046e+00 -2.191626071929932085e+00 -6.792800426483154297e-01 1.100000000000000000e+01
3.365557432174683061e+00 -2.711785316467285156e+00 -6.845571994781494141e-01 1.000000000000000000e+01
4.380980968475341797e+00 -3.532481670379639116e+00 -6.909991502761840820e-01 1.200000000000000000e+01
5.826286792755126953e+00 -4.699542045593261719e+00 -6.548882722854614258e-01 9.000000000000000000e+00
1.973970770835876021e+00 -1.599060535430907981e+00 -6.806941032409667969e-01 1.400000000000000000e+01
2.311592817306518999e+00 -1.873895764350890891e+00 -6.870005130767822266e-01 1.300000000000000000e+01
2.724946737289429155e+00 -2.209769964218140093e+00 -6.819513440132141113e-01 1.000000000000000000e+01
3.356071233749390093e+00 -2.723516941070557085e+00 -6.845571994781494141e-01 1.000000000000000000e+01
4.380951404571533203e+00 -3.557764053344727007e+00 -6.929491162300109863e-01 1.200000000000000000e+01
5.797475814819335938e+00 -4.709800720214843750e+00 -6.534937620162963867e-01 6.000000000000000000e+00
1.974364519119262917e+00 -1.610826253890990989e+00 -6.827646493911743164e-01 1.400000000000000000e+01
2.303528070449829102e+00 -1.880720853805541992e+00 -6.865506172180175781e-01 1.400000000000000000e+01
2.718737125396728960e+00 -2.220510244369506836e+00 -6.823329925537109375e-01 1.100000000000000000e+01
3.337366819381713867e+00 -2.727714538574219194e+00 -6.826800107955932617e-01 1.100000000000000000e+01
4.365432262420654297e+00 -3.570521116256713867e+00 -6.924616098403930664e-01 1.200000000000000000e+01
5.825718402862548828e+00 -4.766597747802734375e+00 -6.585487723350524902e-01 7.000000000000000000e+00
1.976192593574523926e+00 -1.623840570449829102e+00 -6.853528022766113281e-01 1.400000000000000000e+01
2.284907341003417969e+00 -1.878848552703856978e+00 -6.829513907432556152e-01 1.200000000000000000e+01
2.714001893997191939e+00 -2.232481241226195845e+00 -6.830962300300598145e-01 1.200000000000000000e+01
3.335450649261475053e+00 -2.745624542236328125e+00 -6.842443346977233887e-01 1.100000000000000000e+01
4.356006622314453125e+00 -3.588261842727661133e+00 -6.929491162300109863e-01 1.200000000000000000e+01
5.818270206451416016e+00 -4.794506549835205078e+00 -6.595946550369262695e-01 7.000000000000000000e+00
1.977668046951293945e+00 -1.637232422828674094e+00 -6.879410147666931152e-01 1.500000000000000000e+01
2.278005599975585938e+00 -1.887210488319396973e+00 -6.829513907432556152e-01 1.400000000000000000e+01
2.702778100967406782e+00 -2.239908218383789062e+00 -6.823329925537109375e-01 1.100000000000000000e+01
3.326885461807250977e+00 -2.759092330932617188e+00 -6.845571994781494141e-01 1.100000000000000000e+01
4.336715698242188388e+00 -3.599132299423218218e+00 -6.919741034507751465e-01 1.200000000000000000e+01
5.829784393310546875e+00 -4.839980125427246094e+00 -6.629065871238708496e-01 7.000000000000000000e+00
1.966005921363831010e+00 -1.639177322387695090e+00 -6.858704686164855957e-01 1.300000000000000000e+01
2.275893211364746094e+00 -1.898896098136902078e+00 -6.843010783195495605e-01 1.200000000000000000e+01
2.684392213821411133e+00 -2.240522861480712891e+00 -6.796616315841674805e-01 1.000000000000000000e+01
3.330879211425780806e+00 -2.782085180282593218e+00 -6.873730421066284180e-01 1.100000000000000000e+01
4.337833881378173828e+00 -3.625705957412720171e+00 -6.941677927970886230e-01 1.200000000000000000e+01
5.540782451629638672e+00 -4.632813453674316406e+00 -6.318791508674621582e-01 6.000000000000000000e+00
1.953161120414734109e+00 -1.639477729797363059e+00 -6.832822561264038086e-01 1.500000000000000000e+01
2.277044534683227983e+00 -1.912699818611145020e+00 -6.865506172180175781e-01 1.400000000000000000e+01
2.691978216171265093e+00 -2.262042284011840820e+00 -6.834778189659118652e-01 1.000000000000000000e+01
3.314075708389281782e+00 -2.786758899688721147e+00 -6.858087182044982910e-01 1.100000000000000000e+01
4.319711208343505859e+00 -3.634958267211914062e+00 -6.931928396224975586e-01 1.200000000000000000e+01
5.725065231323242188e+00 -4.819244861602783203e+00 -6.547139286994934082e-01 7.000000000000000000e+00
1.951852321624756081e+00 -1.650027036666869895e+00 -6.848351955413818359e-01 1.300000000000000000e+01
2.267378568649291992e+00 -1.918119311332703081e+00 -6.856508255004882812e-01 1.200000000000000000e+01
2.688561677932738814e+00 -2.275230169296265093e+00 -6.846227049827575684e-01 9.000000000000000000e+00
3.301312923431396040e+00 -2.795757055282593218e+00 -6.851829290390014648e-01 1.000000000000000000e+01
2.845855331420898082e+01 -2.410900306701660156e+01 4.579606056213378906e+00 1.900000000000000000e+01
4.325169563293457031e+00 -3.665415763854980025e+00 -6.961176991462707520e-01 1.200000000000000000e+01
5.662615299224854404e+00 -4.800548076629638672e+00 -6.494845747947692871e-01 7.000000000000000000e+00
1.955196976661681907e+00 -1.664003014564513938e+00 -6.879410147666931152e-01 1.500000000000000000e+01
2.256554603576660156e+00 -1.921837091445923074e+00 -6.843010783195495605e-01 1.200000000000000000e+01
2.673529863357543945e+00 -2.277767181396483931e+00 -6.827145814895629883e-01 1.000000000000000000e+01
3.293526887893677202e+00 -2.807970762252808061e+00 -6.854958534240722656e-01 1.100000000000000000e+01
4.316010951995849609e+00 -3.682315111160277876e+00 -6.966051459312438965e-01 1.200000000000000000e+01
5.355693340301513672e+00 -4.570961952209472656e+00 -6.160168051719665527e-01 8.000000000000000000e+00
1.953776955604553001e+00 -1.674589395523071067e+00 -6.894939541816711426e-01 1.600000000000000000e+01
2.254269838333129883e+00 -1.933508276939392090e+00 -6.856508255004882812e-01 1.300000000000000000e+01
2.671522617340087891e+00 -2.292199373245238814e+00 -6.842410564422607422e-01 1.000000000000000000e+01
3.291198968887329102e+00 -2.825884342193603960e+00 -6.870601773262023926e-01 1.000000000000000000e+01
4.297108650207520419e+00 -3.692183732986450195e+00 -6.956301927566528320e-01 1.400000000000000000e+01
5.492311477661132812e+00 -4.720798492431640625e+00 -6.336222290992736816e-01 5.000000000000000000e+00
1.940607666969299094e+00 -1.675087571144104004e+00 -6.869057416915893555e-01 1.600000000000000000e+01
2.247506856918334961e+00 -1.941365361213684082e+00 -6.856508255004882812e-01 1.100000000000000000e+01
2.660533905029296875e+00 -2.298943519592285156e+00 -6.834778189659118652e-01 1.100000000000000000e+01
3.281314611434936968e+00 -2.837355613708496094e+00 -6.870601773262023926e-01 1.100000000000000000e+01
4.299205303192138672e+00 -3.720150232315063032e+00 -6.980676054954528809e-01 1.200000000000000000e+01
5.415543079376220703e+00 -4.687782764434813565e+00 -6.266497969627380371e-01 6.000000000000000000e+00
1.934748649597167969e+00 -1.681851387023926003e+00 -6.869057416915893555e-01 1.600000000000000000e+01
2.258360147476195845e+00 -1.964546918869018999e+00 -6.910496354103088379e-01 1.400000000000000000e+01
2.658416986465454102e+00 -2.313371658325194868e+00 -6.850042939186096191e-01 1.000000000000000000e+01
3.274369716644287109e+00 -2.851386785507202148e+00 -6.876859068870544434e-01 1.000000000000000000e+01
4.289186477661132812e+00 -3.737742900848389116e+00 -6.985550522804260254e-01 1.200000000000000000e+01
5.627427577972412109e+00 -4.905659675598145419e+00 -6.531451344490051270e-01 8.000000000000000000e+00
1.918691277503967063e+00 -1.679687261581420898e+00 -6.832822561264038086e-01 1.500000000000000000e+01
2.232433080673218218e+00 -1.955724358558655007e+00 -6.852009296417236328e-01 1.300000000000000000e+01
2.651802062988280806e+00 -2.323930978775023970e+00 -6.853858828544616699e-01 1.100000000000000000e+01
3.252515316009521040e+00 -2.852379322052001953e+00 -6.851829290390014648e-01 1.100000000000000000e+01
4.294017791748046875e+00 -3.768404722213745117e+00 -7.014799118041992188e-01 1.300000000000000000e+01
5.631230831146240234e+00 -4.943675518035888672e+00 -6.555854678153991699e-01 1.000000000000000000e+01
1.931654691696166992e+00 -1.702982664108275923e+00 -6.900115609169006348e-01 1.600000000000000000e+01
2.232899427413939986e+00 -1.969951272010803001e+00 -6.874504089355468750e-01 1.300000000000000000e+01
2.645145893096923828e+00 -2.334472417831420898e+00 -6.857675313949584961e-01 1.100000000000000000e+01
3.254383802413939986e+00 -2.874176502227783203e+00 -6.876859068870544434e-01 1.000000000000000000e+01
4.280837059020996094e+00 -3.783370733261107954e+00 -7.014799118041992188e-01 1.300000000000000000e+01
5.581101417541503906e+00 -4.934269428253173828e+00 -6.517506241798400879e-01 8.000000000000000000e+00
1.925698399543761985e+00 -1.709715008735656960e+00 -6.900115609169006348e-01 1.400000000000000000e+01
2.231836557388306108e+00 -1.982910871505737083e+00 -6.892500519752502441e-01 1.400000000000000000e+01
2.641383409500122070e+00 -2.347604274749755859e+00 -6.869123578071594238e-01 1.100000000000000000e+01
3.250235319137572798e+00 -2.890769958496094194e+00 -6.889373660087585449e-01 1.000000000000000000e+01
2.835476303100585938e+01 -2.522768402099609020e+01 4.660039901733398438e+00 2.000000000000000000e+01
4.258707523345947266e+00 -3.790372133255004883e+00 -7.000175118446350098e-01 1.200000000000000000e+01
5.560867309570313388e+00 -4.951071262359619141e+00 -6.514019966125488281e-01 9.000000000000000000e+00
1.911077737808227983e+00 -1.708700776100158913e+00 -6.869057416915893555e-01 1.400000000000000000e+01
2.216187715530395952e+00 -1.982892990112304910e+00 -6.865506172180175781e-01 1.300000000000000000e+01
2.621469497680664062e+00 -2.346335411071776900e+00 -6.838594675064086914e-01 1.100000000000000000e+01
3.248953580856322798e+00 -2.910005569458007812e+00 -6.908146142959594727e-01 1.000000000000000000e+01
4.255798339843750000e+00 -3.814489126205443892e+00 -7.017236948013305664e-01 1.100000000000000000e+01
5.525750160217285156e+00 -4.954491138458251953e+00 -6.493102908134460449e-01 1.000000000000000000e+01
1.900794744491576926e+00 -1.711483240127563032e+00 -6.853528022766113281e-01 1.600000000000000000e+01
2.216491222381591797e+00 -1.997139096260071023e+00 -6.888001561164855957e-01 1.200000000000000000e+01
2.626388072967528853e+00 -2.367301702499390093e+00 -6.872940063476562500e-01 1.200000000000000000e+01
3.235842227935791016e+00 -2.918682575225830078e+00 -6.901888847351074219e-01 1.000000000000000000e+01
4.239510059356688565e+00 -3.826661348342895952e+00 -7.012361884117126465e-01 1.300000000000000000e+01
5.489197731018066406e+00 -4.956391334533691406e+00 -6.470442414283752441e-01 1.500000000000000000e+01
1.904826879501342995e+00 -1.727191448211669922e+00 -6.889762878417968750e-01 1.600000000000000000e+01
2.210949659347534180e+00 -2.006173372268677202e+00 -6.892500519752502441e-01 1.300000000000000000e+01
2.616654872894287109e+00 -2.375135421752930132e+00 -6.869123578071594238e-01 1.100000000000000000e+01
3.219785690307617188e+00 -2.924647331237792969e+00 -6.889373660087585449e-01 1.000000000000000000e+01
4.234940528869628906e+00 -3.849447965621947798e+00 -7.026986479759216309e-01 1.100000000000000000e+01
5.476285457611083984e+00 -4.979543209075927734e+00 -6.475671529769897461e-01 1.900000000000000000e+01
3.735155868530272727e+01 -3.401114654541016336e+01 -8.817653656005859375e-01 1.300000000000000000e+01
1.897964239120482954e+00 -1.731865048408508079e+00 -6.884586811065673828e-01 1.600000000000000000e+01
2.198879957199097124e+00 -2.007853269577025923e+00 -6.874504089355468750e-01 1.300000000000000000e+01
2.616427898406981978e+00 -2.389964580535889116e+00 -6.888204813003540039e-01 1.000000000000000000e+01
3.217871904373168945e+00 -2.941411972045897993e+00 -6.905017495155334473e-01 9.000000000000000000e+00
4.231614589691162109e+00 -3.870772361755371094e+00 -7.041610479354858398e-01 1.100000000000000000e+01
5.456205368041992188e+00 -4.992688179016113281e+00 -6.470442414283752441e-01 1.400000000000000000e+01
1.897597312927246094e+00 -1.743708133697509988e+00 -6.905292272567749023e-01 1.600000000000000000e+01
2.186120033264160156e+00 -2.010240316390991211e+00 -6.856508255004882812e-01 1.400000000000000000e+01
2.605179786682128906e+00 -2.396424770355225053e+00 -6.880572438240051270e-01 1.000000000000000000e+01
3.204678058624268022e+00 -2.949950695037841797e+00 -6.898760199546813965e-01 9.000000000000000000e+00
4.218077182769775391e+00 -3.885519981384276900e+00 -7.041610479354858398e-01 1.100000000000000000e+01
5.457791805267333984e+00 -5.029254913330078125e+00 -6.493102908134460449e-01 1.100000000000000000e+01
1.890081167221068892e+00 -1.749009251594543013e+00 -6.900115609169006348e-01 1.600000000000000000e+01
2.186238765716553178e+00 -2.024479389190673828e+00 -6.879003047943115234e-01 1.300000000000000000e+01
2.583836317062377930e+00 -2.393496513366699219e+00 -6.846227049827575684e-01 9.000000000000000000e+00
3.194361209869385210e+00 -2.961119174957274947e+00 -6.898760199546813965e-01 9.000000000000000000e+00
4.207399368286132812e+00 -3.902920007705688032e+00 -7.046485543251037598e-01 1.100000000000000000e+01
5.501542091369628906e+00 -5.105195999145507812e+00 -6.566313505172729492e-01 7.000000000000000000e+00
1.882551074028014915e+00 -1.754279136657715066e+00 -6.894939541816711426e-01 1.700000000000000000e+01
2.187710046768188032e+00 -2.040072679519652876e+00 -6.905997395515441895e-01 1.300000000000000000e+01
2.586950540542602983e+00 -2.413214683532714844e+00 -6.876755952835083008e-01 1.000000000000000000e+01
3.194113492965697798e+00 -2.981687307357788086e+00 -6.920660734176635742e-01 1.000000000000000000e+01
4.206805706024169922e+00 -3.929778814315795898e+00 -7.068421840667724609e-01 1.100000000000000000e+01
5.463308334350585938e+00 -5.105323791503906250e+00 -6.541910171508789062e-01 1.000000000000000000e+01
1.875007390975951926e+00 -1.759517908096313032e+00 -6.889762878417968750e-01 1.500000000000000000e+01
2.179155111312866211e+00 -2.046362876892089844e+00 -6.901498436927795410e-01 1.300000000000000000e+01
2.578510999679564986e+00 -2.422230005264281782e+00 -6.876755952835083008e-01 1.100000000000000000e+01
3.177928924560546875e+00 -2.987406730651855025e+00 -6.908146142959594727e-01 1.000000000000000000e+01
2.621961975097655895e+01 -2.465633010864258168e+01 4.419226169586181641e+00 1.800000000000000000e+01
4.197400093078613281e+00 -3.948519706726074219e+00 -7.075734138488769531e-01 1.100000000000000000e+01
2.778911972045898082e+01 -2.614139366149901988e+01 6.042750358581542969e+00 1.300000000000000000e+01
5.428042411804199219e+00 -5.107978343963623047e+00 -6.520992517471313477e-01 1.000000000000000000e+01
1.874470472335814986e+00 -1.771359562873840110e+00 -6.910468339920043945e-01 1.500000000000000000e+01
2.170582771301269975e+00 -2.052618026733397993e+00 -6.896999478340148926e-01 1.500000000000000000e+01
2.578597545623778853e+00 -2.439311027526855025e+00 -6.899653077125549316e-01 1.100000000000000000e+01
3.167481660842895952e+00 -2.998481512069702148e+00 -6.908146142959594727e-01 1.000000000000000000e+01
4.172062397003173828e+00 -3.952225923538208008e+00 -7.056235074996948242e-01 1.100000000000000000e+01
2.767878150939941051e+01 -2.622948265075683949e+01 6.039621829986572266e+00 1.300000000000000000e+01
5.436210632324218750e+00 -5.151563167572020596e+00 -6.552368998527526855e-01 8.000000000000000000e+00
1.869675278663635032e+00 -1.779223680496216042e+00 -6.915645003318786621e-01 1.600000000000000000e+01
2.163404464721680132e+00 -2.060182332992554155e+00 -6.896999478340148926e-01 1.800000000000000000e+01
2.571488618850708008e+00 -2.449651479721068892e+00 -6.903469562530517578e-01 1.100000000000000000e+01
3.162714719772338867e+00 -3.014971971511840820e+00 -6.920660734176635742e-01 1.000000000000000000e+01
2.700649070739746094e+01 -2.575391006469726918e+01 4.582043647766113281e+00 1.900000000000000000e+01
4.165422916412354404e+00 -3.973616123199462891e+00 -7.068421840667724609e-01 9.000000000000000000e+00
2.710567855834960938e+01 -2.585753250122069957e+01 5.933246612548828125e+00 1.300000000000000000e+01
5.438374519348145419e+00 -5.189764499664306641e+00 -6.576772332191467285e-01 6.000000000000000000e+00
1.869032502174376997e+00 -1.791085720062256081e+00 -6.936350464820861816e-01 1.800000000000000000e+01
2.156199932098389116e+00 -2.067721366882324219e+00 -6.896999478340148926e-01 1.600000000000000000e+01
2.558671712875366211e+00 -2.454535245895386186e+00 -6.892020702362060547e-01 1.100000000000000000e+01
3.155021429061890093e+00 -3.028729438781737837e+00 -6.926918029785156250e-01 1.000000000000000000e+01
4.155821800231933594e+00 -3.992257595062255859e+00 -7.075734138488769531e-01 1.100000000000000000e+01
5.450394153594970703e+00 -5.237707614898681641e+00 -6.613377928733825684e-01 7.000000000000000000e+00
1.854428291320801003e+00 -1.789549946784972922e+00 -6.905292272567749023e-01 1.500000000000000000e+01
2.158781766891479048e+00 -2.084711313247681108e+00 -6.928492188453674316e-01 1.900000000000000000e+01
2.554324150085449219e+00 -2.467543840408325195e+00 -6.903469562530517578e-01 1.200000000000000000e+01
3.150110960006713867e+00 -3.045215845108031782e+00 -6.939432621002197266e-01 1.000000000000000000e+01
4.144714355468750000e+00 -4.009500026702880859e+00 -7.080608606338500977e-01 1.100000000000000000e+01
5.359058380126953125e+00 -5.186038970947265625e+00 -6.524478793144226074e-01 7.000000000000000000e+00
1.850941181182861106e+00 -1.798704981803894043e+00 -6.915645003318786621e-01 1.800000000000000000e+01
2.147300481796265093e+00 -2.088158369064331055e+00 -6.914995312690734863e-01 1.800000000000000000e+01
2.549916982650756836e+00 -2.480551958084106001e+00 -6.914917826652526855e-01 1.100000000000000000e+01
3.130969285964965820e+00 -3.047925949096680132e+00 -6.920660734176635742e-01 1.000000000000000000e+01
2.775928115844726918e+01 -2.703245353698730113e+01 4.757535457611083984e+00 2.000000000000000000e+01
4.134959220886229581e+00 -4.028099060058593750e+00 -7.087920904159545898e-01 9.000000000000000000e+00
5.300969600677490234e+00 -5.165779590606688565e+00 -6.475671529769897461e-01 1.100000000000000000e+01
1.843270540237426980e+00 -1.803803801536560059e+00 -6.910468339920043945e-01 1.600000000000000000e+01
2.131644248962401900e+00 -2.087460279464722124e+00 -6.888001561164855957e-01 1.900000000000000000e+01
2.544047594070435014e+00 -2.492185592651367188e+00 -6.922550201416015625e-01 1.100000000000000000e+01
3.125953435897827148e+00 -3.064367771148682085e+00 -6.933175325393676758e-01 1.000000000000000000e+01
2.674349021911621094e+01 -2.622576141357421875e+01 4.599105358123779297e+00 1.900000000000000000e+01
4.120873451232910156e+00 -4.042508125305175781e+00 -7.087920904159545898e-01 1.100000000000000000e+01
5.290015697479248047e+00 -5.191229343414306641e+00 -6.484387516975402832e-01 7.000000000000000000e+00
2.717103195190430043e+01 -2.669157791137694957e+01 8.793336868286132812e+00 1.100000000000000000e+01
2.772410202026366832e+01 -2.724439811706542969e+01 -6.784797310829162598e-01 9.000000000000000000e+00
1.854850888252258079e+00 -1.827854752540587935e+00 -6.977761387825012207e-01 1.800000000000000000e+01
