-1.765208840370178001e+00 5.650062084197998047e+00 -5.178794264793395996e-01 8.000000000000000000e+00
-2.567136049270629883e+00 8.226950645446777344e+00 -4.516592919826508123e-01 1.000000000000000000e+00
-4.742089271545410156e+00 1.521574211120604936e+01 -2.781913578510283869e-01 2.000000000000000000e+00
-6.712261438369750977e-01 2.164368867874145952e+00 -6.071894764900207520e-01 1.800000000000000000e+01
-7.697383761405944824e-01 2.485087394714355025e+00 -6.006193161010742188e-01 1.300000000000000000e+01
-8.940472006797790527e-01 2.888199806213378906e+00 -5.876917243003845215e-01 1.100000000000000000e+01
-1.073012471199036089e+00 3.470631361007689986e+00 -5.753659605979919434e-01 1.000000000000000000e+01
-1.338287353515625000e+00 4.334016799926757812e+00 -5.569428801536560059e-01 1.000000000000000000e+01
-1.746063113212585005e+00 5.658093452453613281e+00 -5.180537104606628418e-01 9.000000000000000000e+00
-2.533696889877318892e+00 8.220592498779296875e+00 -4.508219361305236816e-01 1.000000000000000000e+00
-4.688947677612304688e+00 1.523220252990723012e+01 -2.781913578510283869e-01 2.000000000000000000e+00
-6.625354290008544922e-01 2.163004398345946822e+00 -6.061542034149169922e-01 1.800000000000000000e+01
-7.616291642189025879e-01 2.489622592926024947e+00 -6.010692119598388672e-01 1.100000000000000000e+01
-8.822380304336547852e-01 2.885670661926269975e+00 -5.865468382835388184e-01 1.000000000000000000e+01
-1.060314297676085982e+00 3.472466468811035156e+00 -5.750530958175659180e-01 9.000000000000000000e+00
-1.324308753013611062e+00 4.342459201812744141e+00 -5.574303865432739258e-01 1.000000000000000000e+01
-1.715265870094299094e+00 5.627942562103270596e+00 -5.147418379783630371e-01 9.000000000000000000e+00
-2.507312536239624023e+00 8.237029075622558594e+00 -4.512406289577484131e-01 1.000000000000000000e+00
-4.635748863220214844e+00 1.524847698211669922e+01 -2.781913578510283869e-01 2.000000000000000000e+00
-6.568391919136047363e-01 2.172815084457397017e+00 -6.082247495651245117e-01 2.000000000000000000e+01
-7.524991631507873535e-01 2.492397308349608931e+00 -6.010692119598388672e-01 1.100000000000000000e+01
-8.722227215766906738e-01 2.890764236450194868e+00 -5.869284868240356445e-01 1.100000000000000000e+01
-1.043020248413085938e+00 3.461198568344116211e+00 -5.725501179695129395e-01 1.000000000000000000e+01
-1.306095600128174050e+00 4.339680671691895419e+00 -5.564554333686828613e-01 1.000000000000000000e+01
-1.699791669845581055e+00 5.651363372802734375e+00 -5.163106322288513184e-01 9.000000000000000000e+00
-2.465613603591918945e+00 8.207907676696777344e+00 -4.491471648216248114e-01 1.000000000000000000e+00
-4.579829216003417969e+00 1.526536560058593928e+01 -2.781913578510283869e-01 2.000000000000000000e+00
-6.503557562828063965e-01 2.178796768188477007e+00 -6.092600226402282715e-01 1.800000000000000000e+01
-7.382271289825439453e-01 2.476333618164062944e+00 -5.965701937675476074e-01 1.100000000000000000e+01
-8.654900789260864258e-01 2.905080556869506836e+00 -5.892181992530822754e-01 1.100000000000000000e+01
-1.032622098922729048e+00 3.470498323440552202e+00 -5.734887719154357910e-01 1.000000000000000000e+01
-1.286415696144104004e+00 4.328990459442138672e+00 -5.545055270195007324e-01 1.000000000000000000e+01
-1.683457612991333008e+00 5.668722152709960938e+00 -5.173565149307250977e-01 8.000000000000000000e+00
-2.446034193038939986e+00 8.247100830078125000e+00 -4.508219361305236816e-01 1.000000000000000000e+00
-4.510612487792968750e+00 1.522757339477539062e+01 -2.772140204906464178e-01 2.000000000000000000e+00
-6.446011662483215332e-01 2.184535026550292969e+00 -6.102952957153320312e-01 1.800000000000000000e+01
-7.293421626091003418e-01 2.474902153015137163e+00 -5.956704020500183105e-01 1.100000000000000000e+01
-8.541406989097595215e-01 2.900252103805541992e+00 -5.876917243003845215e-01 1.200000000000000000e+01
-1.024501204490662065e+00 3.483200788497924805e+00 -5.750530958175659180e-01 9.000000000000000000e+00
-1.271131038665771040e+00 4.327296733856201172e+00 -5.537742972373962402e-01 1.100000000000000000e+01
-1.663395643234252930e+00 5.666336059570313388e+00 -5.166592597961425781e-01 8.000000000000000000e+00
-2.417865514755249023e+00 8.247077941894531250e+00 -4.504032433032990057e-01 1.000000000000000000e+00
-4.450389385223388672e+00 1.519944763183593928e+01 -2.764461040496826172e-01 2.000000000000000000e+00
-6.348106861114501953e-01 2.179352760314940962e+00 -6.082247495651245117e-01 1.700000000000000000e+01
-7.206987142562866211e-01 2.477432966232299805e+00 -5.956704020500183105e-01 1.100000000000000000e+01
-8.440117239952087402e-01 2.903215885162353960e+00 -5.876917243003845215e-01 1.100000000000000000e+01
-1.014539361000061035e+00 3.494343757629394975e+00 -5.763045549392700195e-01 9.000000000000000000e+00
-1.254912495613097922e+00 4.327894210815429688e+00 -5.532867908477783203e-01 1.100000000000000000e+01
-1.645269989967345969e+00 5.677848815917968750e+00 -5.171821713447570801e-01 8.000000000000000000e+00
-2.384621620178223100e+00 8.240119934082031250e+00 -4.495658576488494873e-01 1.000000000000000000e+00
-4.390643596649169922e+00 1.519183731079101918e+01 -2.760272622108458918e-01 2.000000000000000000e+00
-6.239967346191406250e-01 2.170415401458739790e+00 -6.051189303398132324e-01 1.500000000000000000e+01
-7.158110141754150391e-01 2.493045091629027876e+00 -5.988197326660156250e-01 1.300000000000000000e+01
-8.327894806861877441e-01 2.902370214462279829e+00 -5.869284868240356445e-01 1.100000000000000000e+01
-9.985265731811523438e-01 3.484571218490601030e+00 -5.741145014762878418e-01 1.000000000000000000e+01
-1.240890026092529075e+00 4.336065292358398438e+00 -5.537742972373962402e-01 1.100000000000000000e+01
-1.615031599998473899e+00 5.647161006927490234e+00 -5.138702392578125000e-01 8.000000000000000000e+00
-2.364619731903076172e+00 8.279120445251464844e+00 -4.512406289577484131e-01 1.000000000000000000e+00
-4.333199501037597656e+00 1.519168663024901988e+01 -2.757480144500731867e-01 2.000000000000000000e+00
-6.185259819030761719e-01 2.180014371871947798e+00 -6.071894764900207520e-01 1.800000000000000000e+01
-7.055105566978454590e-01 2.489903688430786133e+00 -5.974699854850769043e-01 1.200000000000000000e+01
-8.231881260871887207e-01 2.907148361206055132e+00 -5.873100757598876953e-01 1.100000000000000000e+01
-9.858195781707763672e-01 3.486134767532349077e+00 -5.738016366958618164e-01 9.000000000000000000e+00
-1.227365255355834961e+00 4.346101284027099609e+00 -5.545055270195007324e-01 1.000000000000000000e+01
-1.602344393730164018e+00 5.677691459655761719e+00 -5.161362886428833008e-01 9.000000000000000000e+00
-2.331371307373046875e+00 8.271944999694824219e+00 -4.504032433032990057e-01 1.000000000000000000e+00
-4.263890743255615234e+00 1.514897251129150035e+01 -2.747008800506591797e-01 2.000000000000000000e+00
-6.114333868026733398e-01 2.184020519256591797e+00 -6.077071428298950195e-01 1.600000000000000000e+01
-6.947160363197326660e-01 2.484844207763671875e+00 -5.956704020500183105e-01 1.300000000000000000e+01
-8.135635852813720703e-01 2.911895036697388139e+00 -5.876917243003845215e-01 1.200000000000000000e+01
-9.699285030364990234e-01 3.476235866546630859e+00 -5.716115236282348633e-01 1.100000000000000000e+01
-1.213252782821655051e+00 4.354183673858642578e+00 -5.549929738044738770e-01 1.000000000000000000e+01
-1.577171325683593972e+00 5.664056301116943359e+00 -5.143932104110717773e-01 8.000000000000000000e+00
-2.292851209640502930e+00 8.245396614074707031e+00 -4.485191404819489081e-01 1.000000000000000000e+00
-4.227036952972412109e+00 1.522156810760498047e+01 -2.757480144500731867e-01 2.000000000000000000e+00
-6.053489446640014648e-01 2.191727876663208008e+00 -6.092600226402282715e-01 1.600000000000000000e+01
-6.891469955444335938e-01 2.498525619506835938e+00 -5.983697772026062012e-01 1.100000000000000000e+01
-8.013074398040771484e-01 2.907146453857421875e+00 -5.861652493476867676e-01 1.100000000000000000e+01
-9.598851799964904785e-01 3.487218379974364790e+00 -5.728629827499389648e-01 1.000000000000000000e+01
-1.191732645034790039e+00 4.335422992706298828e+00 -5.520681142807006836e-01 1.000000000000000000e+01
-1.561612367630005105e+00 5.684896945953369141e+00 -5.157876610755920410e-01 9.000000000000000000e+00
-2.259828329086304155e+00 8.237940788269042969e+00 -4.476817548274993896e-01 1.000000000000000000e+00
-4.158027648925781250e+00 1.517837142944335938e+01 -2.747008800506591797e-01 2.000000000000000000e+00
-5.971868634223937988e-01 2.191963672637939009e+00 -6.087424159049987793e-01 1.600000000000000000e+01
-6.793981194496154785e-01 2.497155189514160156e+00 -5.974699854850769043e-01 1.100000000000000000e+01
-7.926999926567077637e-01 2.915609359741210938e+00 -5.873100757598876953e-01 1.000000000000000000e+01
-9.482243061065673828e-01 3.492454051971435991e+00 -5.731759071350097656e-01 1.000000000000000000e+01
-1.176591873168945090e+00 4.339556694030761719e+00 -5.520681142807006836e-01 1.000000000000000000e+01
-1.539674758911133035e+00 5.682621002197265625e+00 -5.150904655456542969e-01 8.000000000000000000e+00
-2.231058835983275923e+00 8.245779037475585938e+00 -4.476817548274993896e-01 2.000000000000000000e+00
-4.090415000915527344e+00 1.513873958587645951e+01 -2.737235426902770996e-01 2.000000000000000000e+00
-5.840175151824951172e-01 2.173512458801269975e+00 -6.030483841896057129e-01 1.600000000000000000e+01
-6.716873645782470703e-01 2.503275871276855025e+00 -5.983697772026062012e-01 1.100000000000000000e+01
-7.815008759498596191e-01 2.914566040039062944e+00 -5.865468382835388184e-01 1.200000000000000000e+01
-9.355166554450988770e-01 3.493834733963013139e+00 -5.728629827499389648e-01 1.000000000000000000e+01
-1.163487911224365012e+00 4.351308345794677734e+00 -5.530430674552917480e-01 1.100000000000000000e+01
-1.511085748672484907e+00 5.655238628387451172e+00 -5.121271610260009766e-01 8.000000000000000000e+00
-2.198142766952515093e+00 8.238079071044921875e+00 -4.468443989753723145e-01 2.000000000000000000e+00
-4.016951560974121094e+00 1.507563400268555043e+01 -2.723273634910582941e-01 2.000000000000000000e+00
-5.797773599624633789e-01 2.186640977859497070e+00 -6.061542034149169922e-01 1.700000000000000000e+01
-6.603897809982299805e-01 2.494186401367187944e+00 -5.956704020500183105e-01 1.100000000000000000e+01
-7.723336815834045410e-01 2.919039487838745117e+00 -5.869284868240356445e-01 1.100000000000000000e+01
-9.214025139808654785e-01 3.487368583679199219e+00 -5.712986588478088379e-01 1.000000000000000000e+01
-1.149558544158935991e+00 4.357061862945556641e+00 -5.532867908477783203e-01 1.100000000000000000e+01
-1.493847846984863059e+00 5.665997982025145596e+00 -5.126500725746154785e-01 8.000000000000000000e+00
-2.167761325836182085e+00 8.233734130859375000e+00 -4.462163746356964111e-01 2.000000000000000000e+00
-3.976089000701903853e+00 1.512368392944335938e+01 -2.729556262493134100e-01 2.000000000000000000e+00
-5.745840072631835938e-01 2.197996854782104048e+00 -6.087424159049987793e-01 1.900000000000000000e+01
-6.506950259208679199e-01 2.492705345153809038e+00 -5.947706103324890137e-01 1.100000000000000000e+01
-7.651128768920898438e-01 2.933115720748900923e+00 -5.892181992530822754e-01 1.100000000000000000e+01
-9.077299237251281738e-01 3.484828710556029829e+00 -5.703600645065307617e-01 1.000000000000000000e+01
-1.136841058731079102e+00 4.370654106140136719e+00 -5.545055270195007324e-01 1.100000000000000000e+01
-1.482080101966857910e+00 5.702031135559082031e+00 -5.154390335083007812e-01 9.000000000000000000e+00
-2.135996341705321822e+00 8.229651451110839844e+00 -4.455883204936981201e-01 2.000000000000000000e+00
-3.917253017425537109e+00 1.511424160003661932e+01 -2.725367844104766846e-01 2.000000000000000000e+00
-5.683542490005493164e-01 2.205601215362548828e+00 -6.102952957153320312e-01 1.900000000000000000e+01
-6.410186886787414551e-01 2.491187095642089844e+00 -5.938707590103149414e-01 1.200000000000000000e+01
-7.514473795890808105e-01 2.922458887100220171e+00 -5.865468382835388184e-01 1.100000000000000000e+01
-8.965425491333007812e-01 3.491802692413330078e+00 -5.709857940673828125e-01 1.100000000000000000e+01
-1.115168690681457964e+00 4.349597930908203125e+00 -5.513368844985961914e-01 1.100000000000000000e+01
-1.456727981567383035e+00 5.685938835144042969e+00 -5.135216116905212402e-01 6.000000000000000000e+00
-2.106266498565673828e+00 8.233187675476074219e+00 -4.453789889812468927e-01 2.000000000000000000e+00
-3.860511064529418945e+00 1.511232376098632990e+01 -2.722575366497039795e-01 2.000000000000000000e+00
-5.592252016067504883e-01 2.201954603195189986e+00 -6.087424159049987793e-01 1.600000000000000000e+01
-6.351930499076843262e-01 2.504743099212646040e+00 -5.965701937675476074e-01 1.100000000000000000e+01
-7.397947311401367188e-01 2.919354677200316939e+00 -5.854020118713378906e-01 1.100000000000000000e+01
-8.858021497726440430e-01 3.500656127929687944e+00 -5.719243884086608887e-01 1.100000000000000000e+01
-1.101437807083130105e+00 4.359238147735595703e+00 -5.520681142807006836e-01 1.000000000000000000e+01
-1.440773367881774902e+00 5.706443309783936435e+00 -5.149161219596862793e-01 6.000000000000000000e+00
-2.086302995681763139e+00 8.275349617004394531e+00 -4.472630918025969904e-01 2.000000000000000000e+00
-3.811640977859497070e+00 1.514122104644775035e+01 -2.725367844104766846e-01 2.000000000000000000e+00
-5.482525825500488281e-01 2.190774679183959961e+00 -6.051189303398132324e-01 1.800000000000000000e+01
-6.273908615112304688e-01 2.510726213455200195e+00 -5.974699854850769043e-01 1.100000000000000000e+01
-7.315022349357604980e-01 2.929538488388061968e+00 -5.869284868240356445e-01 1.100000000000000000e+01
-8.726214170455932617e-01 3.499893426895142046e+00 -5.712986588478088379e-01 1.000000000000000000e+01
-1.085255384445189986e+00 4.359203338623046875e+00 -5.515806674957275391e-01 1.000000000000000000e+01
-1.416516542434691939e+00 5.694036960601806641e+00 -5.133473277091979980e-01 8.000000000000000000e+00
-2.052589178085327148e+00 8.263197898864746094e+00 -4.462163746356964111e-01 1.000000000000000000e+00
-3.747211456298828125e+00 1.510785293579101918e+01 -2.716990709304810125e-01 2.000000000000000000e+00
-5.406020283699035645e-01 2.192675113677978960e+00 -6.051189303398132324e-01 1.800000000000000000e+01
-6.176913380622863770e-01 2.509116411209106001e+00 -5.965701937675476074e-01 1.100000000000000000e+01
-7.222096920013427734e-01 2.935886859893798828e+00 -5.876917243003845215e-01 1.100000000000000000e+01
-8.575720191001892090e-01 3.491407871246337891e+00 -5.694214701652526855e-01 1.100000000000000000e+01
-1.068613767623900923e+00 4.357181549072265625e+00 -5.508494377136230469e-01 1.100000000000000000e+01
-1.393312335014343040e+00 5.685400962829589844e+00 -5.121271610260009766e-01 6.000000000000000000e+00
-2.022783279418944868e+00 8.266432762145996094e+00 -4.460070133209229071e-01 1.000000000000000000e+00
-3.687807798385620117e+00 1.509364509582520064e+01 -2.712104022502899170e-01 2.000000000000000000e+00
-5.365214943885803223e-01 2.207596302032471147e+00 -6.087424159049987793e-01 1.600000000000000000e+01
-6.079887151718139648e-01 2.505469560623168945e+00 -5.952205061912536621e-01 1.200000000000000000e+01
-7.143205404281616211e-01 2.945897579193114790e+00 -5.892181992530822754e-01 1.100000000000000000e+01
-8.469190597534179688e-01 3.498072385787963867e+00 -5.700471997261047363e-01 9.000000000000000000e+00
-1.053692579269408958e+00 4.358771324157714844e+00 -5.506057143211364746e-01 1.100000000000000000e+01
-1.377725958824157937e+00 5.703547000885009766e+00 -5.133473277091979980e-01 8.000000000000000000e+00
-1.998169302940369096e+00 8.284744262695312500e+00 -4.466350376605988104e-01 2.000000000000000000e+00
-3.641480445861815962e+00 1.512134456634520951e+01 -2.714896202087401789e-01 2.000000000000000000e+00
-1.316399097442626953e+01 5.466382217407227273e+01 1.506585693359375000e+01 1.900000000000000000e+01
-5.306109189987182617e-01 2.216970920562744141e+00 -6.108129620552062988e-01 1.700000000000000000e+01
-5.987863540649414062e-01 2.505681276321411133e+00 -5.947706103324890137e-01 1.100000000000000000e+01
-6.981053948402404785e-01 2.923548698425292969e+00 -5.842571258544921875e-01 1.000000000000000000e+01
-8.365358710289001465e-01 3.508693456649779829e+00 -5.712986588478088379e-01 9.000000000000000000e+00
-1.035253286361693892e+00 4.348905086517333984e+00 -5.488995313644409180e-01 1.100000000000000000e+01
-1.358269453048706055e+00 5.710259437561035156e+00 -5.135216116905212402e-01 8.000000000000000000e+00
-1.969238042831420898e+00 8.291668891906738281e+00 -4.466350376605988104e-01 2.000000000000000000e+00
-3.572065114974976030e+00 1.506391620635985973e+01 -2.702330648899077814e-01 2.000000000000000000e+00
-5.215396881103515625e-01 2.213168382644652876e+00 -6.092600226402282715e-01 1.900000000000000000e+01
-5.918215513229370117e-01 2.515343904495238814e+00 -5.965701937675476074e-01 1.000000000000000000e+01
-6.883453130722045898e-01 2.927878856658935991e+00 -5.846387743949890137e-01 1.100000000000000000e+01
-8.247345685958862305e-01 3.513515233993529829e+00 -5.716115236282348633e-01 1.000000000000000000e+01
-1.020519375801085982e+00 4.354424953460693359e+00 -5.491432547569274902e-01 1.100000000000000000e+01
-1.333331584930419922e+00 5.693626880645751953e+00 -5.116041898727416992e-01 8.000000000000000000e+00
-1.933007121086121050e+00 8.267375946044921875e+00 -4.449602961540222168e-01 2.000000000000000000e+00
-3.509459495544434038e+00 1.503345203399658025e+01 -2.694651484489440918e-01 2.000000000000000000e+00
-1.278204822540283025e+01 5.475439071655272727e+01 1.506585693359375000e+01 1.900000000000000000e+01
-5.111918449401855469e-01 2.203684091567993164e+00 -6.061542034149169922e-01 1.900000000000000000e+01
-5.834774374961853027e-01 2.519293069839477983e+00 -5.970200896263122559e-01 1.300000000000000000e+01
-6.772356629371643066e-01 2.926438331604003906e+00 -5.838755369186401367e-01 1.100000000000000000e+01
-8.124650716781616211e-01 3.516372680664062944e+00 -5.716115236282348633e-01 1.000000000000000000e+01
-1.004867196083069070e+00 4.356026649475097656e+00 -5.488995313644409180e-01 1.100000000000000000e+01
-1.314791440963744895e+00 5.704071044921875000e+00 -5.121271610260009766e-01 8.000000000000000000e+00
-1.906824469566344993e+00 8.285751342773437500e+00 -4.455883204936981201e-01 1.000000000000000000e+00
-3.459648132324219194e+00 1.505730438232422053e+01 -2.696745693683624268e-01 2.000000000000000000e+00
-1.249482345581055043e+01 5.442429733276367188e+01 1.496232891082764027e+01 1.900000000000000000e+01
-5.030664801597595215e-01 2.203571796417235884e+00 -6.056365370750427246e-01 1.700000000000000000e+01
-5.733807086944580078e-01 2.515614271163939986e+00 -5.956704020500183105e-01 1.000000000000000000e+01
-6.678882837295532227e-01 2.932612895965576172e+00 -5.846387743949890137e-01 1.100000000000000000e+01
-7.958058714866638184e-01 3.499925136566162109e+00 -5.684828162193298340e-01 1.000000000000000000e+01
-9.922924637794494629e-01 4.371122837066650391e+00 -5.503619313240051270e-01 1.100000000000000000e+01
-1.295313239097594993e+00 5.710568904876708984e+00 -5.123014450073242188e-01 8.000000000000000000e+00
-1.877890110015868919e+00 8.292356491088867188e+00 -4.455883204936981201e-01 1.000000000000000000e+00
-3.400893449783325195e+00 1.504198265075683949e+01 -2.691859304904937744e-01 2.000000000000000000e+00
-4.974884986877440851e-01 2.214738845825194868e+00 -6.082247495651245117e-01 1.900000000000000000e+01
-5.620375275611877441e-01 2.506191492080688032e+00 -5.929709672927856445e-01 1.100000000000000000e+01
-6.589353084564208984e-01 2.940673589706420898e+00 -5.857836008071899414e-01 1.100000000000000000e+01
-7.827215194702148438e-01 3.498826265335083008e+00 -5.678570866584777832e-01 1.000000000000000000e+01
-9.744321703910827637e-01 4.362935543060302734e+00 -5.488995313644409180e-01 1.100000000000000000e+01
-1.274937868118285911e+00 5.713110923767089844e+00 -5.121271610260009766e-01 6.000000000000000000e+00
-1.846327066421509011e+00 8.287164688110351562e+00 -4.449602961540222168e-01 1.000000000000000000e+00
-3.351839780807495117e+00 1.506937789916992010e+01 -2.694651484489440918e-01 2.000000000000000000e+00
-4.905282258987426758e-01 2.216290712356566939e+00 -6.082247495651245117e-01 1.600000000000000000e+01
-5.550022125244140625e-01 2.511750459671020952e+00 -5.938707590103149414e-01 1.200000000000000000e+01
-6.492704153060913086e-01 2.940812110900878906e+00 -5.854020118713378906e-01 1.200000000000000000e+01
-7.764029502868652344e-01 3.522487878799438032e+00 -5.712986588478088379e-01 1.100000000000000000e+01
-9.577345848083496094e-01 4.352404594421386719e+00 -5.471933484077453613e-01 1.000000000000000000e+01
-1.256127595901489036e+00 5.713196277618408203e+00 -5.117785334587097168e-01 9.000000000000000000e+00
-1.825421452522278054e+00 8.316333770751953125e+00 -4.462163746356964111e-01 3.000000000000000000e+00
-3.292496442794799805e+00 1.502513980865479049e+01 -2.684878110885620117e-01 2.000000000000000000e+00
-4.827889502048491877e-01 2.217989444732666016e+00 -6.082247495651245117e-01 1.600000000000000000e+01
-5.470588207244873047e-01 2.517481088638306108e+00 -5.947706103324890137e-01 1.100000000000000000e+01
-6.381679773330688477e-01 2.939223527908325195e+00 -5.846387743949890137e-01 1.100000000000000000e+01
-7.636839747428894043e-01 3.523246049880981001e+00 -5.709857940673828125e-01 1.100000000000000000e+01
-9.416963458061218262e-01 4.351840496063232422e+00 -5.467059016227722168e-01 9.000000000000000000e+00
-1.239966630935668945e+00 5.735072612762451172e+00 -5.133473277091979980e-01 8.000000000000000000e+00
-1.795538187026977983e+00 8.318750381469726562e+00 -4.460070133209229071e-01 2.000000000000000000e+00
-1.143188095092773082e+01 5.300890350341796875e+01 1.251942634582520064e+01 1.700000000000000000e+01
-3.230762004852294922e+00 1.499353504180908025e+01 -2.677199244499207098e-01 2.000000000000000000e+00
-1.179750537872313920e+01 5.479709243774414062e+01 1.501926898956299006e+01 1.900000000000000000e+01
-4.718286395072937012e-01 2.206520080566405806e+00 -6.046012639999389648e-01 1.800000000000000000e+01
-5.386417508125305176e-01 2.523280858993529829e+00 -5.956704020500183105e-01 1.100000000000000000e+01
-6.286194920539855957e-01 2.947303056716918945e+00 -5.857836008071899414e-01 1.200000000000000000e+01
-7.478858232498168945e-01 3.512496948242187944e+00 -5.687957406044006348e-01 1.100000000000000000e+01
-9.265651702880859375e-01 4.359146118164063388e+00 -5.471933484077453613e-01 1.000000000000000000e+01
-1.213971376419066939e+00 5.716191768646240234e+00 -5.112555623054504395e-01 9.000000000000000000e+00
-1.765864849090575950e+00 8.329182624816894531e+00 -4.462163746356964111e-01 2.000000000000000000e+00
-3.187379598617554155e+00 1.506005382537841975e+01 -2.686972618103026789e-01 2.000000000000000000e+00
-4.653156697750092108e-01 2.213825225830078125e+00 -6.061542034149169922e-01 1.900000000000000000e+01
-5.298305749893188477e-01 2.525145530700684038e+00 -5.956704020500183105e-01 1.200000000000000000e+01
-6.171191930770874023e-01 2.943714857101439986e+00 -5.846387743949890137e-01 1.200000000000000000e+01
-7.335972189903259277e-01 3.505418539047241211e+00 -5.672313570976257324e-01 1.100000000000000000e+01
-9.109373092651367188e-01 4.360410690307617188e+00 -5.469496250152587891e-01 1.000000000000000000e+01
-1.191568136215209961e+00 5.708692073822020596e+00 -5.102097392082214355e-01 9.000000000000000000e+00
-1.735965013504028098e+00 8.331385612487792969e+00 -4.460070133209229071e-01 1.000000000000000000e+00
-3.138048648834228960e+00 1.508675098419188920e+01 -2.689764797687531073e-01 2.000000000000000000e+00
-1.145007133483887074e+01 5.504833984375000000e+01 1.506585693359375000e+01 1.900000000000000000e+01
-4.579758942127227783e-01 2.217328071594237837e+00 -6.066718697547912598e-01 1.800000000000000000e+01
-5.186519026756286621e-01 2.515528202056885210e+00 -5.929709672927856445e-01 1.100000000000000000e+01
-6.076321601867675781e-01 2.949696779251099077e+00 -5.854020118713378906e-01 1.100000000000000000e+01
-7.213565707206726074e-01 3.507957935333251953e+00 -5.672313570976257324e-01 1.000000000000000000e+01
-8.965094089508056641e-01 4.367453098297119141e+00 -5.474370718002319336e-01 1.000000000000000000e+01
-1.175236344337462935e+00 5.730382919311523438e+00 -5.117785334587097168e-01 9.000000000000000000e+00
-1.701264262199402078e+00 8.310001373291015625e+00 -4.445416033267974854e-01 1.000000000000000000e+00
-3.078960895538330078e+00 1.506626510620117010e+01 -2.684180140495299738e-01 2.000000000000000000e+00
-1.124237537384033025e+01 5.501226425170897727e+01 1.504515075683593928e+01 1.900000000000000000e+01
-4.521539807319641113e-01 2.228379487991333008e+00 -6.092600226402282715e-01 1.600000000000000000e+01
-5.090941786766052246e-01 2.513503313064575195e+00 -5.920711755752563477e-01 1.100000000000000000e+01
-5.973321199417114258e-01 2.951799869537353960e+00 -5.854020118713378906e-01 1.200000000000000000e+01
-7.126272320747375488e-01 3.527881145477294922e+00 -5.700471997261047363e-01 9.000000000000000000e+00
-8.796892166137695312e-01 4.362772464752197266e+00 -5.464621186256408691e-01 1.000000000000000000e+01
-1.156013369560241921e+00 5.738356590270996094e+00 -5.121271610260009766e-01 8.000000000000000000e+00
-1.669096589088439941e+00 8.300224304199218750e+00 -4.437042474746704102e-01 1.000000000000000000e+00
-3.026350975036621094e+00 1.507692146301270064e+01 -2.684180140495299738e-01 2.000000000000000000e+00
-4.432400763034821112e-01 2.224260330200194868e+00 -6.077071428298950195e-01 1.700000000000000000e+01
-5.025984048843383789e-01 2.526732921600341797e+00 -5.947706103324890137e-01 1.100000000000000000e+01
-5.839633345603942871e-01 2.938462257385253906e+00 -5.823490619659423828e-01 1.200000000000000000e+01
-6.987708210945129395e-01 3.522596597671508789e+00 -5.687957406044006348e-01 9.000000000000000000e+00
-8.629126548767089844e-01 4.358027458190917969e+00 -5.454871654510498047e-01 1.000000000000000000e+01
-1.133269190788269043e+00 5.728675365447998047e+00 -5.109069347381591797e-01 9.000000000000000000e+00
-1.646303892135619895e+00 8.337350845336914062e+00 -4.453789889812468927e-01 1.000000000000000000e+00
-2.971384048461914062e+00 1.507562160491943004e+01 -2.682085931301116943e-01 2.000000000000000000e+00
-4.343604743480681818e-01 2.220106363296508789e+00 -6.061542034149169922e-01 1.900000000000000000e+01
-4.945224225521088202e-01 2.532297134399414062e+00 -5.956704020500183105e-01 1.100000000000000000e+01
-5.748304724693298340e-01 2.946263551712036133e+00 -5.834938883781433105e-01 1.000000000000000000e+01
-6.891135573387145996e-01 3.538586854934691939e+00 -5.709857940673828125e-01 9.000000000000000000e+00
-8.488313555717468262e-01 4.366858482360839844e+00 -5.462183952331542969e-01 1.200000000000000000e+01
-1.112885713577270952e+00 5.730640411376953125e+00 -5.107326507568359375e-01 9.000000000000000000e+00
-1.617951154708862083e+00 8.346968650817871094e+00 -4.455883204936981201e-01 1.000000000000000000e+00
-2.913424253463745117e+00 1.505841541290283025e+01 -2.677199244499207098e-01 2.000000000000000000e+00
-4.273605942726135254e-01 2.223431587219237837e+00 -6.066718697547912598e-01 1.800000000000000000e+01
-4.831849932670593262e-01 2.518612384796143022e+00 -5.920711755752563477e-01 1.100000000000000000e+01
-5.657963156700134277e-01 2.952009916305541992e+00 -5.842571258544921875e-01 1.000000000000000000e+01
-6.725502610206604004e-01 3.515630245208739790e+00 -5.669184923171997070e-01 9.000000000000000000e+00
-8.339733481407165527e-01 4.367699623107910156e+00 -5.459746718406677246e-01 1.000000000000000000e+01
-1.091262698173522949e+00 5.720599651336669922e+00 -5.095124840736389160e-01 9.000000000000000000e+00
-1.589515566825866921e+00 8.348363876342773438e+00 -4.453789889812468927e-01 1.000000000000000000e+00
-2.863472938537598100e+00 1.506799411773681996e+01 -2.677199244499207098e-01 2.000000000000000000e+00
-4.195967614650725763e-01 2.224909782409667969e+00 -6.066718697547912598e-01 1.700000000000000000e+01
-4.729485511779785156e-01 2.512623071670531782e+00 -5.902715921401977539e-01 1.200000000000000000e+01
-5.573025345802307129e-01 2.963613986968994141e+00 -5.861652493476867676e-01 1.100000000000000000e+01
-6.624606847763061523e-01 3.529605150222777876e+00 -5.687957406044006348e-01 9.000000000000000000e+00
-8.179911375045776367e-01 4.366682052612304688e+00 -5.454871654510498047e-01 1.000000000000000000e+01
-1.075318932533263938e+00 5.745916366577148438e+00 -5.114299058914184570e-01 9.000000000000000000e+00
-1.550096750259398970e+00 8.298889160156250000e+00 -4.424481689929962158e-01 2.000000000000000000e+00
-2.818187713623046875e+00 1.511721420288085938e+01 -2.684180140495299738e-01 2.000000000000000000e+00
-1.034281921386718928e+01 5.553435134887695312e+01 1.513625526428223012e+01 2.000000000000000000e+01
-4.132333695888518732e-01 2.233959436416625977e+00 -6.087424159049987793e-01 1.700000000000000000e+01
-4.670053124427794855e-01 2.529589653015137163e+00 -5.938707590103149414e-01 1.100000000000000000e+01
-5.448176860809326172e-01 2.953957080841064009e+00 -5.838755369186401367e-01 1.100000000000000000e+01
-6.508512496948242188e-01 3.535781621932982954e+00 -5.694214701652526855e-01 9.000000000000000000e+00
-8.013088703155517578e-01 4.361701011657714844e+00 -5.445122122764587402e-01 1.000000000000000000e+01
-1.054536104202270952e+00 5.745715618133544922e+00 -5.110812783241271973e-01 9.000000000000000000e+00
-1.522558212280272993e+00 8.312107086181640625e+00 -4.428668618202208918e-01 2.000000000000000000e+00
-2.751017332077025923e+00 1.504827594757080078e+01 -2.670218050479888916e-01 2.000000000000000000e+00
-4.043986201286315918e-01 2.229685783386230025e+00 -6.071894764900207520e-01 1.700000000000000000e+01
-4.585196375846862793e-01 2.533121824264525923e+00 -5.943207144737243652e-01 1.200000000000000000e+01
-5.334550738334655762e-01 2.950045108795166016e+00 -5.827306509017944336e-01 1.100000000000000000e+01
-6.388559341430664062e-01 3.539975881576538086e+00 -5.697343349456787109e-01 8.000000000000000000e+00
-7.843194007873535156e-01 4.354702949523925781e+00 -5.432935357093811035e-01 9.000000000000000000e+00
-1.032356500625609907e+00 5.737596035003662109e+00 -5.100353956222534180e-01 9.000000000000000000e+00
-1.495652198791503906e+00 8.329166412353515625e+00 -4.434948861598969061e-01 2.000000000000000000e+00
-2.690711975097655806e+00 1.501448345184325994e+01 -2.662539184093474787e-01 2.000000000000000000e+00
-3.946816027164459229e-01 2.215729951858520952e+00 -6.030483841896057129e-01 1.600000000000000000e+01
-4.512415230274199884e-01 2.538387298583983931e+00 -5.952205061912536621e-01 1.200000000000000000e+01
-5.231547951698303223e-01 2.945907592773437944e+00 -5.815858244895935059e-01 1.100000000000000000e+01
-6.266974806785583496e-01 3.536130428314208984e+00 -5.687957406044006348e-01 9.000000000000000000e+00
-7.734007239341735840e-01 4.372783660888671875e+00 -5.452434420585632324e-01 1.000000000000000000e+01
-1.008432984352112038e+00 5.707457065582275391e+00 -5.070720911026000977e-01 9.000000000000000000e+00
-1.468090772628783958e+00 8.325956344604492188e+00 -4.430761933326721191e-01 2.000000000000000000e+00
-2.651153564453125000e+00 1.506618976593017933e+01 -2.670218050479888916e-01 2.000000000000000000e+00
-3.886055648326873779e-01 2.226609468460083008e+00 -6.056365370750427246e-01 1.600000000000000000e+01
-4.413750171661376953e-01 2.534187316894530806e+00 -5.938707590103149414e-01 1.100000000000000000e+01
-5.142145752906799316e-01 2.955452442169189009e+00 -5.831122994422912598e-01 1.100000000000000000e+01
-6.109709739685058594e-01 3.518833875656127930e+00 -5.656670331954956055e-01 9.000000000000000000e+00
-7.574543356895446777e-01 4.371544837951660156e+00 -5.447559356689453125e-01 9.000000000000000000e+00
-9.925818443298339844e-01 5.734500408172607422e+00 -5.091638565063476562e-01 9.000000000000000000e+00
-1.443778157234191895e+00 8.358583450317382812e+00 -4.445416033267974854e-01 1.000000000000000000e+00
-2.605340242385863814e+00 1.511476516723632990e+01 -2.677199244499207098e-01 2.000000000000000000e+00
-9.606843948364257812e+00 5.579184722900391336e+01 1.516938400268555043e+01 2.000000000000000000e+01
-3.811563849449158270e-01 2.229856729507445845e+00 -6.061542034149169922e-01 1.700000000000000000e+01
-4.299049973487854004e-01 2.520344734191894975e+00 -5.902715921401977539e-01 1.100000000000000000e+01
-5.045545101165771484e-01 2.961100101470946822e+00 -5.838755369186401367e-01 1.100000000000000000e+01
-5.996776223182678223e-01 3.526787281036376953e+00 -5.666056275367736816e-01 8.000000000000000000e+00
-7.418581247329711914e-01 4.372205257415770596e+00 -5.445122122764587402e-01 1.000000000000000000e+01
-9.708938598632812500e-01 5.728108406066895419e+00 -5.082923173904418945e-01 9.000000000000000000e+00
-1.407930850982666016e+00 8.324187278747558594e+00 -4.424481689929962158e-01 1.000000000000000000e+00
-9.244186401367187500e+00 5.471298217773438211e+01 1.281051254272460938e+01 1.800000000000000000e+01
-2.552563905715941939e+00 1.512376785278319957e+01 -2.677199244499207098e-01 2.000000000000000000e+00
-3.736892640590667725e-01 2.233078956604003906e+00 -6.066718697547912598e-01 1.900000000000000000e+01
-4.230304956436157227e-01 2.533362627029418945e+00 -5.929709672927856445e-01 1.200000000000000000e+01
-4.935692548751831055e-01 2.958970308303833008e+00 -5.831122994422912598e-01 1.100000000000000000e+01
-5.876875519752502441e-01 3.530807733535767046e+00 -5.669184923171997070e-01 9.000000000000000000e+00
-7.256160378456115723e-01 4.368893146514892578e+00 -5.437809824943542480e-01 9.000000000000000000e+00
-9.515452980995178223e-01 5.735394001007080078e+00 -5.086408853530883789e-01 9.000000000000000000e+00
-1.382127404212952104e+00 8.348754882812500000e+00 -4.434948861598969061e-01 1.000000000000000000e+00
-2.499756574630736861e+00 1.513258552551270064e+01 -2.677199244499207098e-01 2.000000000000000000e+00
-3.652676939964293878e-01 2.230556964874268022e+00 -6.056365370750427246e-01 1.900000000000000000e+01
-4.141848385334014893e-01 2.534823894500731978e+00 -5.929709672927856445e-01 1.100000000000000000e+01
-4.819724857807158869e-01 2.952924728393555132e+00 -5.815858244895935059e-01 1.100000000000000000e+01
-5.759941935539245605e-01 3.536736965179442915e+00 -5.675442218780517578e-01 9.000000000000000000e+00
-7.109981179237365723e-01 4.375318050384520596e+00 -5.442684888839721680e-01 9.000000000000000000e+00
-9.315192699432373047e-01 5.738680362701416016e+00 -5.086408853530883789e-01 9.000000000000000000e+00
-1.349783182144165039e+00 8.333812713623046875e+00 -4.424481689929962158e-01 2.000000000000000000e+00
-2.440538167953491211e+00 1.510173702239990057e+01 -2.670218050479888916e-01 2.000000000000000000e+00
-3.562572300434113104e-01 2.224188089370727983e+00 -6.035659909248352051e-01 1.600000000000000000e+01
-4.071793556213378906e-01 2.547800064086914062e+00 -5.956704020500183105e-01 1.100000000000000000e+01
-4.710429608821868896e-01 2.950711727142333984e+00 -5.808225870132446289e-01 1.100000000000000000e+01
-5.642666220664978027e-01 3.542627573013306108e+00 -5.681699514389038086e-01 9.000000000000000000e+00
-6.963441967964172363e-01 4.381694316864013672e+00 -5.447559356689453125e-01 9.000000000000000000e+00
-9.089829325675964355e-01 5.726154804229736328e+00 -5.072464346885681152e-01 9.000000000000000000e+00
-1.326308488845824973e+00 8.373982429504394531e+00 -4.443322718143463135e-01 1.000000000000000000e+00
-8.670737266540527344e+00 5.480678558349608664e+01 1.281051254272460938e+01 1.800000000000000000e+01
-2.387808561325072798e+00 1.511016464233398082e+01 -2.670218050479888916e-01 2.000000000000000000e+00
-3.481923043727874756e-01 2.223509550094604048e+00 -6.030483841896057129e-01 1.800000000000000000e+01
-3.958768546581267755e-01 2.533802986145019975e+00 -5.920711755752563477e-01 1.100000000000000000e+01
-4.625564813613892157e-01 2.963976621627808061e+00 -5.831122994422912598e-01 1.100000000000000000e+01
-5.506814718246459961e-01 3.536768198013306108e+00 -5.669184923171997070e-01 9.000000000000000000e+00
-6.804355382919311523e-01 4.380175113677979404e+00 -5.442684888839721680e-01 9.000000000000000000e+00
-8.920443058013916016e-01 5.748981475830078125e+00 -5.089895129203796387e-01 9.000000000000000000e+00
-1.295847535133362038e+00 8.370665550231933594e+00 -4.439135789871215820e-01 1.000000000000000000e+00
-2.330776214599608931e+00 1.509074020385742010e+01 -2.665331363677979071e-01 2.000000000000000000e+00
-3.415975272655487061e-01 2.232349872589110884e+00 -6.051189303398132324e-01 1.700000000000000000e+01
-3.870297968387603760e-01 2.535169363021851030e+00 -5.920711755752563477e-01 1.000000000000000000e+01
-4.507277309894561768e-01 2.955869197845458984e+00 -5.812041759490966797e-01 1.100000000000000000e+01
-5.371441245079040527e-01 3.530857324600220171e+00 -5.656670331954956055e-01 9.000000000000000000e+00
-6.657375097274780273e-01 4.386448860168457031e+00 -5.447559356689453125e-01 9.000000000000000000e+00
-8.707767128944396973e-01 5.744180679321289062e+00 -5.082923173904418945e-01 9.000000000000000000e+00
-1.261244654655456987e+00 8.339591979980468750e+00 -4.420294761657714844e-01 1.000000000000000000e+00
-2.275698900222777876e+00 1.508296489715575994e+01 -2.662539184093474787e-01 2.000000000000000000e+00
-3.348689377307891846e-01 2.235322713851929155e+00 -6.056365370750427246e-01 1.600000000000000000e+01
-3.784873485565186102e-01 2.532518148422241211e+00 -5.911713838577270508e-01 1.100000000000000000e+01
-4.428886175155640204e-01 2.966979265213013139e+00 -5.831122994422912598e-01 1.100000000000000000e+01
-5.260489583015441895e-01 3.532527208328247070e+00 -5.656670331954956055e-01 9.000000000000000000e+00
-6.481616497039794922e-01 4.362992763519287109e+00 -5.415873527526855469e-01 7.000000000000000000e+00
-8.503870964050292969e-01 5.731121540069580078e+00 -5.068978071212768555e-01 9.000000000000000000e+00
-1.236208677291869895e+00 8.351415634155273438e+00 -4.424481689929962158e-01 1.000000000000000000e+00
-2.228303194046020952e+00 1.509004020690917969e+01 -2.662539184093474787e-01 2.000000000000000000e+00
-3.270641863346099854e-01 2.236477851867675781e+00 -6.056365370750427246e-01 1.600000000000000000e+01
-3.713327944278717041e-01 2.545393705368041992e+00 -5.938707590103149414e-01 1.000000000000000000e+01
-4.299816191196442206e-01 2.951022386550902876e+00 -5.796777009963989258e-01 1.000000000000000000e+01
-5.148514509201049805e-01 3.542161464691162109e+00 -5.669184923171997070e-01 9.000000000000000000e+00
-8.016946792602539062e+00 5.522404861450195312e+01 6.851738452911376953e+00 5.900000000000000000e+01
-6.357765197753906250e-01 4.384874343872070312e+00 -5.440247654914855957e-01 9.000000000000000000e+00
-8.298054933547973633e-01 5.730111122131347656e+00 -5.065491795539855957e-01 9.000000000000000000e+00
-1.205907106399535911e+00 8.347772598266601562e+00 -4.420294761657714844e-01 2.000000000000000000e+00
-2.176186084747314009e+00 1.510168457031250000e+01 -2.663237154483795166e-01 2.000000000000000000e+00
-3.166846036911010742e-01 2.222361326217650923e+00 -6.014954447746276855e-01 1.600000000000000000e+01
-3.630979359149932861e-01 2.554455041885375977e+00 -5.956704020500183105e-01 1.100000000000000000e+01
-4.202664792537689209e-01 2.960353612899779829e+00 -5.812041759490966797e-01 1.000000000000000000e+01
-5.024192929267883301e-01 3.547936439514160156e+00 -5.675442218780517578e-01 9.000000000000000000e+00
-6.199784874916076660e-01 4.389140605926513672e+00 -5.442684888839721680e-01 9.000000000000000000e+00
-8.076847195625305176e-01 5.725222587585449219e+00 -5.058519244194030762e-01 9.000000000000000000e+00
-1.180312395095824973e+00 8.387736320495605469e+00 -4.439135789871215820e-01 2.000000000000000000e+00
-2.124712467193603960e+00 1.513728332519531072e+01 -2.668123841285706122e-01 2.000000000000000000e+00
-3.097227513790131170e-01 2.229193687438964844e+00 -6.030483841896057129e-01 1.600000000000000000e+01
-3.525739610195159912e-01 2.544125080108643022e+00 -5.929709672927856445e-01 1.100000000000000000e+01
-4.104686677455902100e-01 2.965692043304442915e+00 -5.819674134254455566e-01 1.100000000000000000e+01
-4.873302280902863104e-01 3.530100345611571822e+00 -5.644155740737915039e-01 9.000000000000000000e+00
-6.041122078895568848e-01 4.387344837188720703e+00 -5.437809824943542480e-01 9.000000000000000000e+00
-7.887808084487915039e-01 5.735902309417724609e+00 -5.065491795539855957e-01 9.000000000000000000e+00
-1.144512891769408958e+00 8.344316482543945312e+00 -4.414014518260955811e-01 2.000000000000000000e+00
-2.070234298706055132e+00 1.513272094726563033e+01 -2.666029632091522217e-01 2.000000000000000000e+00
-3.029762208461760919e-01 2.237918853759766069e+00 -6.051189303398132324e-01 1.600000000000000000e+01
-3.416050374507904053e-01 2.529890775680541992e+00 -5.893717408180236816e-01 1.100000000000000000e+01
-4.003763496875762939e-01 2.969052553176879883e+00 -5.823490619659423828e-01 1.100000000000000000e+01
-4.747415781021118164e-01 3.529822111129761186e+00 -5.641027092933654785e-01 9.000000000000000000e+00
-5.877381563186645508e-01 4.381556987762451172e+00 -5.428060293197631836e-01 9.000000000000000000e+00
-7.676957845687866211e-01 5.730721950531005859e+00 -5.058519244194030762e-01 9.000000000000000000e+00
-1.116436719894408958e+00 8.356179237365722656e+00 -4.418201446533203125e-01 1.000000000000000000e+00
-2.017398595809936968e+00 1.513985443115234020e+01 -2.666029632091522217e-01 2.000000000000000000e+00
-2.949101030826569159e-01 2.237047433853148970e+00 -6.046012639999389648e-01 1.600000000000000000e+01
-3.337880671024323065e-01 2.538796186447143999e+00 -5.911713838577270508e-01 1.100000000000000000e+01
-3.887321054935454767e-01 2.960699081420897993e+00 -5.804409384727478027e-01 1.000000000000000000e+01
-4.634431898593903143e-01 3.539292335510253906e+00 -5.653541684150695801e-01 9.000000000000000000e+00
-5.706408023834228516e-01 4.369803428649902344e+00 -5.410999059677124023e-01 7.000000000000000000e+00
-7.461412549018859863e-01 5.721512794494628906e+00 -5.048060417175292969e-01 9.000000000000000000e+00
-1.084685564041137917e+00 8.340219497680664062e+00 -4.407734274864196777e-01 1.000000000000000000e+00
-1.954764485359191895e+00 1.507144737243651988e+01 -2.652765810489655096e-01 2.000000000000000000e+00
-2.876342833042144775e-01 2.236046791076660156e+00 -6.040836572647094727e-01 1.600000000000000000e+01
-3.258105814456940252e-01 2.539832353591918945e+00 -5.911713838577270508e-01 1.000000000000000000e+01
-3.784310519695281982e-01 2.954116344451903853e+00 -5.789144635200500488e-01 1.000000000000000000e+01
-4.518212974071503241e-01 3.536812067031859907e+00 -5.647284388542175293e-01 9.000000000000000000e+00
-5.584149956703186035e-01 4.383389472961425781e+00 -5.425623059272766113e-01 7.000000000000000000e+00
-7.271572351455688477e-01 5.715922832489013672e+00 -5.041087865829467773e-01 9.000000000000000000e+00
-1.054959654808043990e+00 8.315846443176269531e+00 -4.393080174922943115e-01 1.000000000000000000e+00
-1.916943550109863059e+00 1.515290164947509943e+01 -2.666029632091522217e-01 2.000000000000000000e+00
-2.791079282760620117e-01 2.231286525726317915e+00 -6.025307178497314453e-01 1.500000000000000000e+01
-3.183901607990264893e-01 2.552556514739989790e+00 -5.938707590103149414e-01 1.100000000000000000e+01
-3.686022758483887274e-01 2.959315776824951172e+00 -5.796777009963989258e-01 1.100000000000000000e+01
-4.394727647304534912e-01 3.538367748260498047e+00 -5.647284388542175293e-01 8.000000000000000000e+00
-5.416468381881713867e-01 4.373491764068604404e+00 -5.410999059677124023e-01 7.000000000000000000e+00
-7.052441835403442383e-01 5.702607631683349609e+00 -5.027143359184265137e-01 9.000000000000000000e+00
-1.025925517082213911e+00 8.319478034973144531e+00 -4.393080174922943115e-01 1.000000000000000000e+00
-1.863062262535094993e+00 1.515156173706055043e+01 -2.664633393287659247e-01 2.000000000000000000e+00
-2.715506851673126221e-01 2.234164953231811968e+00 -6.030483841896057129e-01 1.600000000000000000e+01
-3.085403144359589178e-01 2.545914173126221147e+00 -5.920711755752563477e-01 1.000000000000000000e+01
-3.587417900562285822e-01 2.964482545852661133e+00 -5.804409384727478027e-01 1.000000000000000000e+01
-4.273554980754851740e-01 3.541841268539429155e+00 -5.650413036346435547e-01 9.000000000000000000e+00
-5.273256301879882812e-01 4.383239269256591797e+00 -5.420748591423034668e-01 7.000000000000000000e+00
-6.853340864181518555e-01 5.705034732818604404e+00 -5.027143359184265137e-01 9.000000000000000000e+00
-9.987790584564208984e-01 8.338873863220214844e+00 -4.401454031467437744e-01 1.000000000000000000e+00
-1.806842446327209029e+00 1.513017463684082031e+01 -2.659746706485747736e-01 2.000000000000000000e+00
-2.639767229557036798e-01 2.237017631530762163e+00 -6.035659909248352051e-01 1.600000000000000000e+01
-2.973745465278624933e-01 2.527621746063231978e+00 -5.875721573829650879e-01 1.100000000000000000e+01
-3.483916521072388250e-01 2.965716600418090820e+00 -5.804409384727478027e-01 1.100000000000000000e+01
-4.149895608425139826e-01 3.543311357498168945e+00 -5.650413036346435547e-01 9.000000000000000000e+00
-5.117918252944946289e-01 4.383081436157226562e+00 -5.418310761451721191e-01 9.000000000000000000e+00
-6.644927263259887695e-01 5.699476242065429688e+00 -5.020170807838439941e-01 9.000000000000000000e+00
-9.659752845764160156e-01 8.310566902160644531e+00 -4.384706318378447931e-01 2.000000000000000000e+00
-1.756319046020508035e+00 1.515625286102294922e+01 -2.663237154483795166e-01 2.000000000000000000e+00
-2.564339637756348211e-01 2.243728399276732954e+00 -6.051189303398132324e-01 1.600000000000000000e+01
-2.898731827735900879e-01 2.544184446334838867e+00 -5.911713838577270508e-01 1.100000000000000000e+01
-3.366317749023438055e-01 2.959171056747436968e+00 -5.789144635200500488e-01 1.000000000000000000e+01
-4.004417657852172852e-01 3.531069040298461914e+00 -5.628511905670166016e-01 1.000000000000000000e+01
-4.934935867786406916e-01 4.365202903747558594e+00 -5.393937230110168457e-01 9.000000000000000000e+00
-6.460568308830261230e-01 5.723651409149169922e+00 -5.039345026016235352e-01 9.000000000000000000e+00
-9.377422928810119629e-01 8.333898544311523438e+00 -4.395173490047454834e-01 2.000000000000000000e+00
-1.694069743156433105e+00 1.510297203063965021e+01 -2.652765810489655096e-01 2.000000000000000000e+00
-2.468990385532378873e-01 2.229248762130736861e+00 -6.009778380393981934e-01 1.600000000000000000e+01
-2.809905707836151123e-01 2.545180797576903853e+00 -5.911713838577270508e-01 1.000000000000000000e+01
-3.254399001598358154e-01 2.952522277832030806e+00 -5.773880481719970703e-01 1.000000000000000000e+01
-3.883293271064757746e-01 3.534409046173096147e+00 -5.631640553474426270e-01 9.000000000000000000e+00
-4.791176319122313898e-01 4.374792098999023438e+00 -5.403686761856079102e-01 9.000000000000000000e+00
-6.219589710235595703e-01 5.688240528106688565e+00 -5.006225705146789551e-01 9.000000000000000000e+00
-9.099442362785339355e-01 8.349034309387207031e+00 -4.401454031467437744e-01 1.000000000000000000e+00
-1.643067955970763938e+00 1.512469673156737926e+01 -2.655558288097382147e-01 2.000000000000000000e+00
-2.401241064071654996e-01 2.235817670822143999e+00 -6.025307178497314453e-01 1.600000000000000000e+01
-2.733785808086395264e-01 2.553849220275878906e+00 -5.929709672927856445e-01 1.000000000000000000e+01
-3.173162043094635010e-01 2.969202280044556108e+00 -5.804409384727478027e-01 1.000000000000000000e+01
-3.772343397140502930e-01 3.541569948196411133e+00 -5.641027092933654785e-01 1.000000000000000000e+01
-4.656555056571959894e-01 4.386226654052734375e+00 -5.415873527526855469e-01 7.000000000000000000e+00
-6.039326190948486328e-01 5.698196887969970703e+00 -5.013198256492614746e-01 9.000000000000000000e+00
-8.805743455886840820e-01 8.336115837097167969e+00 -4.393080174922943115e-01 1.000000000000000000e+00
