6.671769142150878906e+00 -3.102595329284667969e+00 -6.437323093414306641e-01 3.000000000000000000e+00
9.497227668762207031e+00 -4.420560836791992188e+00 -5.490041971206665039e-01 5.000000000000000000e+00
3.337784957885742188e+01 -1.555016517639159979e+01 -6.427372097969055176e-01 7.000000000000000000e+00
2.252245187759398970e+00 -1.053112030029297097e+00 -6.662002205848693848e-01 1.800000000000000000e+01
2.592794895172119141e+00 -1.213450431823730025e+00 -6.609061956405639648e-01 1.300000000000000000e+01
3.070618391036986861e+00 -1.437729358673095925e+00 -6.590542793273925781e-01 1.000000000000000000e+01
3.741946220397949219e+00 -1.753652095794677956e+00 -6.545218229293823242e-01 9.000000000000000000e+00
4.262400436401367188e+01 -1.998468780517578125e+01 5.780262947082520419e+00 4.400000000000000000e+01
4.895563125610351562e+00 -2.296375989913939986e+00 -6.639441847801208496e-01 9.000000000000000000e+00
6.680738925933837891e+00 -3.135176181793212891e+00 -6.456497311592102051e-01 3.000000000000000000e+00
9.087646484375000000e+00 -4.268575191497802734e+00 -5.261856913566589355e-01 2.000000000000000000e+00
3.327269363403320312e+01 -1.564275836944580078e+01 -6.417598724365234375e-01 7.000000000000000000e+00
2.255543947219849077e+00 -1.064264893531799094e+00 -6.682707667350769043e-01 1.800000000000000000e+01
2.592067480087279829e+00 -1.224157929420470969e+00 -6.618059873580932617e-01 1.300000000000000000e+01
3.056705713272095171e+00 -1.444245576858520952e+00 -6.571461558341979980e-01 1.000000000000000000e+01
3.739373445510863814e+00 -1.768392324447632058e+00 -6.551475524902343750e-01 9.000000000000000000e+00
4.255398559570313211e+01 -2.013335227966308949e+01 5.780262947082520419e+00 4.400000000000000000e+01
4.858809471130371094e+00 -2.299862146377563032e+00 -6.600443720817565918e-01 9.000000000000000000e+00
6.675156593322753906e+00 -3.161035299301147017e+00 -6.461727023124694824e-01 3.000000000000000000e+00
1.009781265258789062e+01 -4.786157608032226562e+00 -5.856393575668334961e-01 3.000000000000000000e+00
2.237861394882202148e+00 -1.065487980842590110e+00 -6.641296744346618652e-01 1.700000000000000000e+01
2.605370521545410156e+00 -1.241581916809082031e+00 -6.663050055503845215e-01 1.300000000000000000e+01
3.051645755767821822e+00 -1.454906582832335982e+00 -6.571461558341979980e-01 9.000000000000000000e+00
3.729612350463867188e+00 -1.779732942581176980e+00 -6.545218229293823242e-01 9.000000000000000000e+00
4.822091579437255859e+00 -2.303119897842406782e+00 -6.561445593833923340e-01 9.000000000000000000e+00
6.669474601745604581e+00 -3.186893701553345171e+00 -6.466956138610839844e-01 3.000000000000000000e+00
1.006302642822265980e+01 -4.812759399414063388e+00 -5.845926403999328613e-01 6.000000000000000000e+00
3.288491058349608664e+01 -1.574169731140137074e+01 -6.363845467567443848e-01 7.000000000000000000e+00
2.237611055374145952e+00 -1.074966192245482954e+00 -6.651649475097656250e-01 1.700000000000000000e+01
2.592239618301392046e+00 -1.246446371078490989e+00 -6.640555262565612793e-01 1.300000000000000000e+01
3.060702085494995117e+00 -1.472358584403991921e+00 -6.601991057395935059e-01 9.000000000000000000e+00
3.718037605285644975e+00 -1.790169954299926980e+00 -6.535831689834594727e-01 9.000000000000000000e+00
4.874824047088623047e+00 -2.349238872528076172e+00 -6.644316315650939941e-01 9.000000000000000000e+00
6.670872688293457031e+00 -3.216212034225463867e+00 -6.479157805442810059e-01 3.000000000000000000e+00
2.244275569915771040e+00 -1.087826013565063032e+00 -6.682707667350769043e-01 1.800000000000000000e+01
2.580859661102294922e+00 -1.252084970474242942e+00 -6.622558832168579102e-01 1.400000000000000000e+01
3.052011489868164062e+00 -1.481318950653075950e+00 -6.594358682632446289e-01 1.000000000000000000e+01
3.715319871902465820e+00 -1.804863810539246050e+00 -6.542089581489562988e-01 9.000000000000000000e+00
4.895158290863037109e+00 -2.380129337310791016e+00 -6.683315038681030273e-01 9.000000000000000000e+00
6.664980411529541016e+00 -3.242092609405518022e+00 -6.484387516975402832e-01 3.000000000000000000e+00
9.497644424438476562e+00 -4.624105453491210938e+00 -5.536097288131713867e-01 1.100000000000000000e+01
2.243935585021973100e+00 -1.097350835800170898e+00 -6.693060398101806641e-01 1.700000000000000000e+01
2.576473236083983931e+00 -1.261086225509643999e+00 -6.622558832168579102e-01 1.400000000000000000e+01
3.059164524078369141e+00 -1.498007297515868919e+00 -6.621072292327880859e-01 1.000000000000000000e+01
3.714318513870238814e+00 -1.820429682731627974e+00 -6.551475524902343750e-01 9.000000000000000000e+00
4.897513389587402344e+00 -2.402447700500487837e+00 -6.697939038276672363e-01 1.100000000000000000e+01
6.671508789062500000e+00 -3.274115800857543945e+00 -6.501818299293518066e-01 3.000000000000000000e+00
9.345202445983886719e+00 -4.590308666229248047e+00 -5.456546545028686523e-01 7.000000000000000000e+00
2.233353853225708008e+00 -1.101368188858032005e+00 -6.672354936599731445e-01 1.800000000000000000e+01
2.588004350662231001e+00 -1.277385830879210982e+00 -6.663050055503845215e-01 1.500000000000000000e+01
3.034816503524779829e+00 -1.498581886291503906e+00 -6.579093933105468750e-01 9.000000000000000000e+00
3.718886613845825195e+00 -1.837988257408142090e+00 -6.570247411727905273e-01 9.000000000000000000e+00
4.880623340606688565e+00 -2.414274454116820845e+00 -6.685752272605895996e-01 8.000000000000000000e+00
6.653471946716308594e+00 -3.292686462402344194e+00 -6.494845747947692871e-01 3.000000000000000000e+00
9.338877677917480469e+00 -4.625705718994140625e+00 -5.461780428886413574e-01 1.800000000000000000e+01
2.215658664703369141e+00 -1.102273464202881081e+00 -6.630944013595581055e-01 1.800000000000000000e+01
2.583529710769652876e+00 -1.286411881446837935e+00 -6.663050055503845215e-01 1.200000000000000000e+01
3.041867971420288086e+00 -1.515293955802917036e+00 -6.605807542800903320e-01 9.000000000000000000e+00
3.712448120117187944e+00 -1.850958347320557085e+00 -6.570247411727905273e-01 9.000000000000000000e+00
4.889928340911865234e+00 -2.440159797668457031e+00 -6.710125803947448730e-01 1.000000000000000000e+01
6.641937732696533203e+00 -3.315891504287720171e+00 -6.494845747947692871e-01 3.000000000000000000e+00
9.356619834899902344e+00 -4.675238132476806641e+00 -5.481668114662170410e-01 1.800000000000000000e+01
2.223883867263793945e+00 -1.116066455841064009e+00 -6.667178869247436523e-01 1.600000000000000000e+01
2.573799371719359907e+00 -1.292798161506653054e+00 -6.649553179740905762e-01 1.300000000000000000e+01
3.038314342498778853e+00 -1.526784300804137962e+00 -6.609623432159423828e-01 1.000000000000000000e+01
3.702435016632080078e+00 -1.862130880355834961e+00 -6.563990116119384766e-01 9.000000000000000000e+00
4.886700153350830078e+00 -2.459891796112060991e+00 -6.717438101768493652e-01 1.000000000000000000e+01
6.630322933197020596e+00 -3.339055776596068892e+00 -6.494845747947692871e-01 2.000000000000000000e+00
9.409800529479980469e+00 -4.742929935455322266e+00 -5.522490143775939941e-01 1.100000000000000000e+01
2.225145101547241211e+00 -1.126440048217772993e+00 -6.682707667350769043e-01 1.600000000000000000e+01
2.560579299926757812e+00 -1.297370672225951926e+00 -6.627057790756225586e-01 1.200000000000000000e+01
3.039970874786376953e+00 -1.540931224822998047e+00 -6.624888181686401367e-01 1.000000000000000000e+01
3.695912361145019975e+00 -1.875043392181396040e+00 -6.563990116119384766e-01 9.000000000000000000e+00
4.883393764495849609e+00 -2.479630708694458008e+00 -6.724750399589538574e-01 8.000000000000000000e+00
6.668364048004150391e+00 -3.387445688247681108e+00 -6.543653011322021484e-01 2.000000000000000000e+00
9.398528099060058594e+00 -4.778462886810302734e+00 -5.525630116462707520e-01 1.300000000000000000e+01
2.227883100509643999e+00 -1.138103485107422097e+00 -6.703413128852844238e-01 1.700000000000000000e+01
2.562747478485106978e+00 -1.310295462608336958e+00 -6.645054221153259277e-01 1.200000000000000000e+01
3.036050558090209961e+00 -1.552957057952881081e+00 -6.628704667091369629e-01 1.000000000000000000e+01
3.699565410614014116e+00 -1.893978118896483931e+00 -6.582762002944946289e-01 9.000000000000000000e+00
4.865438938140869141e+00 -2.492986440658568892e+00 -6.712563633918762207e-01 1.000000000000000000e+01
6.645265579223632812e+00 -3.406410455703734907e+00 -6.533194184303283691e-01 3.000000000000000000e+00
9.434262275695800781e+00 -4.840229034423828125e+00 -5.557031631469726562e-01 5.000000000000000000e+00
2.210158348083496094e+00 -1.138794541358947976e+00 -6.662002205848693848e-01 1.500000000000000000e+01
2.561621904373168945e+00 -1.321019530296325906e+00 -6.654052138328552246e-01 1.200000000000000000e+01
3.014908552169799805e+00 -1.555444121360779031e+00 -6.594358682632446289e-01 1.000000000000000000e+01
3.701707601547241211e+00 -1.911412000656127930e+00 -6.598405838012695312e-01 9.000000000000000000e+00
4.837308883666992188e+00 -2.499929666519165039e+00 -6.685752272605895996e-01 9.000000000000000000e+00
6.640414237976074219e+00 -3.433246135711669922e+00 -6.540166735649108887e-01 2.000000000000000000e+00
9.530835151672363281e+00 -4.931877136230468750e+00 -5.624021887779235840e-01 1.400000000000000000e+01
2.204655647277832031e+00 -1.145226836204529031e+00 -6.656825542449951172e-01 1.600000000000000000e+01
2.564143419265747070e+00 -1.333102583885193093e+00 -6.672048568725585938e-01 1.300000000000000000e+01
3.023668050765991211e+00 -1.572680711746216042e+00 -6.624888181686401367e-01 1.000000000000000000e+01
3.684835672378540039e+00 -1.918204069137573020e+00 -6.579633355140686035e-01 8.000000000000000000e+00
4.779698848724365234e+00 -2.490274667739868164e+00 -6.617505550384521484e-01 9.000000000000000000e+00
6.611324787139892578e+00 -3.446038722991942915e+00 -6.522735953330993652e-01 2.000000000000000000e+00
9.569321632385253906e+00 -4.992092132568359375e+00 -5.656470060348510742e-01 1.100000000000000000e+01
2.207489490509033203e+00 -1.156501650810241921e+00 -6.677531599998474121e-01 1.600000000000000000e+01
2.559474229812622070e+00 -1.342045068740844949e+00 -6.672048568725585938e-01 1.300000000000000000e+01
3.019898414611815962e+00 -1.584137678146362083e+00 -6.628704667091369629e-01 1.000000000000000000e+01
3.679866313934326172e+00 -1.931973099708556907e+00 -6.582762002944946289e-01 9.000000000000000000e+00
4.835995674133300781e+00 -2.541108369827270952e+00 -6.707688570022583008e-01 1.000000000000000000e+01
6.648635387420654297e+00 -3.495053529739379883e+00 -6.571543216705322266e-01 2.000000000000000000e+00
9.479368209838867188e+00 -4.987337112426757812e+00 -5.613554716110229492e-01 5.000000000000000000e+00
2.203438997268677202e+00 -1.164200186729430930e+00 -6.677531599998474121e-01 1.500000000000000000e+01
2.546160697937012163e+00 -1.346416234970092995e+00 -6.649553179740905762e-01 1.300000000000000000e+01
3.031704187393188032e+00 -1.603850007057189941e+00 -6.666866540908813477e-01 9.000000000000000000e+00
3.680083274841309038e+00 -1.948503732681273970e+00 -6.595277190208435059e-01 9.000000000000000000e+00
4.767458915710449219e+00 -2.526370763778686968e+00 -6.624817252159118652e-01 8.000000000000000000e+00
6.629353523254395419e+00 -3.514507293701171875e+00 -6.564570665359497070e-01 3.000000000000000000e+00
9.375451087951660156e+00 -4.974525928497313565e+00 -5.562265515327453613e-01 1.600000000000000000e+01
2.206181526184082031e+00 -1.175518274307250977e+00 -6.698237061500549316e-01 1.600000000000000000e+01
2.544884204864501953e+00 -1.357129693031311035e+00 -6.658551096916198730e-01 1.300000000000000000e+01
3.007033348083496094e+00 -1.604257702827454057e+00 -6.624888181686401367e-01 1.000000000000000000e+01
3.681971788406372070e+00 -1.965989947319030984e+00 -6.610920429229736328e-01 1.100000000000000000e+01
4.821639060974121094e+00 -2.576678991317749023e+00 -6.712563633918762207e-01 8.000000000000000000e+00
6.645157814025878906e+00 -3.552656412124633789e+00 -6.592460274696350098e-01 3.000000000000000000e+00
9.321048736572265625e+00 -4.987434387207031250e+00 -5.540284514427185059e-01 1.600000000000000000e+01
6.511904907226562500e+01 -3.487264251708983664e+01 -1.289383769035338911e+00 3.800000000000000000e+01
2.200363159179687944e+00 -1.182297706604003906e+00 -6.693060398101806641e-01 1.800000000000000000e+01
2.541847705841064009e+00 -1.366927742958069070e+00 -6.663050055503845215e-01 1.200000000000000000e+01
3.004873037338256836e+00 -1.616604685783386008e+00 -6.632520556449890137e-01 1.000000000000000000e+01
3.689001083374022993e+00 -1.986322402954102007e+00 -6.635950207710266113e-01 1.100000000000000000e+01
4.819605350494384766e+00 -2.597260713577270952e+00 -6.722313165664672852e-01 8.000000000000000000e+00
6.629208564758300781e+00 -3.573939800262451172e+00 -6.588973999023437500e-01 3.000000000000000000e+00
9.256124496459960938e+00 -4.994333744049072266e+00 -5.512022972106933594e-01 8.000000000000000000e+00
2.192825555801392046e+00 -1.188130617141724077e+00 -6.682707667350769043e-01 1.800000000000000000e+01
2.549052238464355025e+00 -1.382294893264770952e+00 -6.694543361663818359e-01 1.300000000000000000e+01
3.002663135528564009e+00 -1.628956198692321999e+00 -6.640152931213378906e-01 1.000000000000000000e+01
3.666421175003052202e+00 -1.990704178810120073e+00 -6.607791781425476074e-01 1.000000000000000000e+01
4.784347057342529297e+00 -2.599851369857788086e+00 -6.685752272605895996e-01 6.000000000000000000e+00
6.618443489074707031e+00 -3.598009824752808061e+00 -6.590717434883117676e-01 3.000000000000000000e+00
9.224598884582519531e+00 -5.018976688385009766e+00 -5.503649115562438965e-01 1.000000000000000000e+01
2.185274124145507812e+00 -1.193925261497498003e+00 -6.672354936599731445e-01 1.800000000000000000e+01
2.542501926422119141e+00 -1.390249371528625044e+00 -6.690044403076171875e-01 1.200000000000000000e+01
3.000403404235839844e+00 -1.641311883926392046e+00 -6.647785305976867676e-01 1.000000000000000000e+01
3.655984401702880859e+00 -2.001593112945557085e+00 -6.601534485816955566e-01 9.000000000000000000e+00
4.790910720825195312e+00 -2.625120878219604048e+00 -6.707688570022583008e-01 1.000000000000000000e+01
6.635544776916503906e+00 -3.637371540069580078e+00 -6.620350480079650879e-01 2.000000000000000000e+00
9.073943138122558594e+00 -4.978136062622070312e+00 -5.424098372459411621e-01 7.000000000000000000e+00
2.189553737640380859e+00 -1.206206798553467019e+00 -6.698237061500549316e-01 1.600000000000000000e+01
2.520568132400513139e+00 -1.389706850051880105e+00 -6.645054221153259277e-01 1.300000000000000000e+01
3.004970550537108931e+00 -1.657464504241942915e+00 -6.670682430267333984e-01 1.000000000000000000e+01
3.652434110641479048e+00 -2.016252040863037109e+00 -6.607791781425476074e-01 1.000000000000000000e+01
4.774767875671386719e+00 -2.637988567352294922e+00 -6.697939038276672363e-01 9.000000000000000000e+00
6.638501167297363281e+00 -3.669186115264893022e+00 -6.636038422584533691e-01 3.000000000000000000e+00
9.082726478576660156e+00 -5.024281024932861328e+00 -5.439799427986145020e-01 5.000000000000000000e+00
2.187018632888793945e+00 -1.214780449867248979e+00 -6.703413128852844238e-01 1.700000000000000000e+01
2.529327630996704102e+00 -1.406071662902832031e+00 -6.681046485900878906e-01 1.300000000000000000e+01
2.999166488647460938e+00 -1.667943716049193892e+00 -6.670682430267333984e-01 1.000000000000000000e+01
3.645373821258544922e+00 -2.028989076614379883e+00 -6.607791781425476074e-01 1.000000000000000000e+01
4.654542922973632812e+00 -2.592813730239868164e+00 -6.541946530342102051e-01 1.100000000000000000e+01
6.625652790069580078e+00 -3.692336320877075195e+00 -6.636038422584533691e-01 3.000000000000000000e+00
9.270960807800292969e+00 -5.170752525329589844e+00 -5.563312172889709473e-01 5.000000000000000000e+00
4.950161743164063211e+01 -2.763151359558105113e+01 -9.895514249801635742e-01 1.500000000000000000e+01
2.179394006729125977e+00 -1.220519304275512917e+00 -6.693060398101806641e-01 1.700000000000000000e+01
2.531203985214232954e+00 -1.418703198432921919e+00 -6.699042320251464844e-01 1.300000000000000000e+01
2.983051538467406782e+00 -1.672641515731811968e+00 -6.647785305976867676e-01 1.000000000000000000e+01
3.645159721374512163e+00 -2.045568227767943892e+00 -6.620306372642517090e-01 1.000000000000000000e+01
4.761427402496337891e+00 -2.674174308776855025e+00 -6.705251336097717285e-01 1.000000000000000000e+01
6.621408939361572266e+00 -3.720321416854857954e+00 -6.644753813743591309e-01 3.000000000000000000e+00
9.249373435974121094e+00 -5.201124668121337891e+00 -5.561218857765197754e-01 5.000000000000000000e+00
2.168391466140747070e+00 -1.224320054054260032e+00 -6.672354936599731445e-01 1.600000000000000000e+01
2.524539709091186968e+00 -1.426571369171143022e+00 -6.694543361663818359e-01 1.200000000000000000e+01
2.977194786071776900e+00 -1.683044075965880904e+00 -6.647785305976867676e-01 1.000000000000000000e+01
3.637997150421143022e+00 -2.058279752731322798e+00 -6.620306372642517090e-01 1.000000000000000000e+01
4.795248508453369141e+00 -2.715231180191040039e+00 -6.766185760498046875e-01 8.000000000000000000e+00
6.617050170898438388e+00 -3.748322010040283203e+00 -6.653469204902648926e-01 3.000000000000000000e+00
9.502206802368164062e+00 -5.387041568756104404e+00 -5.724506974220275879e-01 6.000000000000000000e+00
2.174177885055541992e+00 -1.237615823745727983e+00 -6.703413128852844238e-01 1.500000000000000000e+01
2.526317596435546875e+00 -1.439233541488647017e+00 -6.712539196014404297e-01 1.400000000000000000e+01
2.981535673141479048e+00 -1.699258923530579057e+00 -6.670682430267333984e-01 1.000000000000000000e+01
3.630790233612060991e+00 -2.070966243743896040e+00 -6.620306372642517090e-01 1.000000000000000000e+01
4.644375801086425781e+00 -2.651254415512084961e+00 -6.566320061683654785e-01 9.000000000000000000e+00
6.619496822357177734e+00 -3.780289411544799805e+00 -6.669157147407531738e-01 3.000000000000000000e+00
9.427855491638183594e+00 -5.388463497161865234e+00 -5.691012144088745117e-01 2.000000000000000000e+00
2.174871206283568892e+00 -1.248082160949707031e+00 -6.718942523002624512e-01 1.500000000000000000e+01
2.506069660186768022e+00 -1.439308404922484907e+00 -6.672048568725585938e-01 1.300000000000000000e+01
2.978990554809569868e+00 -1.711612105369568093e+00 -6.678314805030822754e-01 1.000000000000000000e+01
3.626964092254639116e+00 -2.085596799850463867e+00 -6.626563668251037598e-01 1.000000000000000000e+01
4.777896881103515625e+00 -2.749632120132445845e+00 -6.768623590469360352e-01 7.000000000000000000e+00
6.606260776519775391e+00 -3.803372621536254883e+00 -6.669157147407531738e-01 2.000000000000000000e+00
9.467827796936035156e+00 -5.455242156982421875e+00 -5.726600289344787598e-01 3.000000000000000000e+00
2.168829202651977983e+00 -1.254698991775512917e+00 -6.713765859603881836e-01 1.600000000000000000e+01
2.507776021957397017e+00 -1.451953172683716042e+00 -6.690044403076171875e-01 1.200000000000000000e+01
2.971298933029174805e+00 -1.721016287803649902e+00 -6.674498915672302246e-01 1.000000000000000000e+01
3.629915952682495117e+00 -2.104188680648804155e+00 -6.645336151123046875e-01 1.000000000000000000e+01
4.629188060760498047e+00 -2.685605764389038086e+00 -6.571195125579833984e-01 8.000000000000000000e+00
6.623961925506591797e+00 -3.844411611557006836e+00 -6.700533628463745117e-01 3.000000000000000000e+00
9.383099555969238281e+00 -5.450137615203857422e+00 -5.686824917793273926e-01 5.000000000000000000e+00
2.164876699447631836e+00 -1.261506319046020952e+00 -6.713765859603881836e-01 1.500000000000000000e+01
2.509935855865478960e+00 -1.463751316070557085e+00 -6.708040237426757812e-01 1.200000000000000000e+01
2.960790395736693892e+00 -1.727374434471129927e+00 -6.663050055503845215e-01 1.100000000000000000e+01
3.630110979080200195e+00 -2.119566202163695845e+00 -6.657850742340087891e-01 1.000000000000000000e+01
4.576166152954101562e+00 -2.674095630645751953e+00 -6.507822871208190918e-01 1.100000000000000000e+01
6.601531505584716797e+00 -3.859169244766234907e+00 -6.690074801445007324e-01 2.000000000000000000e+00
9.431439399719238281e+00 -5.517914772033691406e+00 -5.726600289344787598e-01 6.000000000000000000e+00
2.153797149658203125e+00 -1.265141606330872026e+00 -6.693060398101806641e-01 1.800000000000000000e+01
2.513210773468018022e+00 -1.477441668510437012e+00 -6.730535626411437988e-01 1.100000000000000000e+01
2.961511850357056108e+00 -1.741680026054382102e+00 -6.678314805030822754e-01 1.000000000000000000e+01
3.632904529571533203e+00 -2.138236522674560991e+00 -6.676623225212097168e-01 1.000000000000000000e+01
4.563383102416992188e+00 -2.688038110733031782e+00 -6.502948403358459473e-01 1.400000000000000000e+01
6.584587097167968750e+00 -3.880166292190552202e+00 -6.686588525772094727e-01 2.000000000000000000e+00
2.159341812133789062e+00 -1.278557658195496050e+00 -6.724118590354919434e-01 1.600000000000000000e+01
2.501332283020019975e+00 -1.482231616973876953e+00 -6.712539196014404297e-01 1.100000000000000000e+01
2.955414056777954102e+00 -1.752007007598876953e+00 -6.678314805030822754e-01 1.000000000000000000e+01
3.608429670333861861e+00 -2.140825510025023970e+00 -6.645336151123046875e-01 1.000000000000000000e+01
4.553972244262695312e+00 -2.703950881958007812e+00 -6.502948403358459473e-01 1.600000000000000000e+01
6.605262279510498047e+00 -3.923477172851562944e+00 -6.721450686454772949e-01 2.000000000000000000e+00
2.151547908782958984e+00 -1.284107208251952903e+00 -6.713765859603881836e-01 1.500000000000000000e+01
2.494470119476317915e+00 -1.489954590797424094e+00 -6.708040237426757812e-01 1.200000000000000000e+01
2.961077690124512163e+00 -1.769361853599547896e+00 -6.705027818679809570e-01 9.000000000000000000e+00
3.604325532913208008e+00 -2.155436038970946822e+00 -6.651593446731567383e-01 1.000000000000000000e+01
4.546209335327148438e+00 -2.720849990844727007e+00 -6.505385637283325195e-01 1.400000000000000000e+01
6.605202198028563565e+00 -3.954697847366333008e+00 -6.735395789146423340e-01 1.000000000000000000e+00
2.156984806060791016e+00 -1.297584772109984907e+00 -6.744824051856994629e-01 1.600000000000000000e+01
2.479236841201781782e+00 -1.492622017860413042e+00 -6.681046485900878906e-01 1.300000000000000000e+01
2.951519727706909180e+00 -1.777661323547363059e+00 -6.697395443916320801e-01 1.100000000000000000e+01
3.600163459777832031e+00 -2.170043706893920898e+00 -6.657850742340087891e-01 1.000000000000000000e+01
4.545182704925537109e+00 -2.741829633712768999e+00 -6.517572402954101562e-01 1.100000000000000000e+01
6.584534168243408203e+00 -3.973612308502196822e+00 -6.728423237800598145e-01 1.000000000000000000e+00
2.150790214538574219e+00 -1.304104566574096902e+00 -6.739647984504699707e-01 1.500000000000000000e+01
2.489005565643310991e+00 -1.510365724563599077e+00 -6.721537709236145020e-01 1.100000000000000000e+01
2.933548927307128906e+00 -1.780821800231934038e+00 -6.670682430267333984e-01 1.100000000000000000e+01
3.609448909759521040e+00 -2.192853927612305132e+00 -6.689137816429138184e-01 1.000000000000000000e+01
4.669582366943359375e+00 -2.839150667190552202e+00 -6.710125803947448730e-01 1.000000000000000000e+01
6.567218780517578125e+00 -3.994501829147338867e+00 -6.724936962127685547e-01 1.000000000000000000e+00
2.136334657669066939e+00 -1.305559992790221946e+00 -6.708589792251586914e-01 1.600000000000000000e+01
2.487043142318726030e+00 -1.521078228950500044e+00 -6.730535626411437988e-01 1.200000000000000000e+01
2.930664300918579102e+00 -1.793100237846374956e+00 -6.678314805030822754e-01 1.100000000000000000e+01
3.598403215408325195e+00 -2.203377008438109907e+00 -6.682880520820617676e-01 1.000000000000000000e+01
4.595325946807861328e+00 -2.816019296646118164e+00 -6.617505550384521484e-01 9.000000000000000000e+00
6.577015876770020419e+00 -4.031979560852050781e+00 -6.749340891838073730e-01 1.000000000000000000e+00
8.789473533630371094e+00 -5.392529010772705078e+00 -5.404210686683654785e-01 2.000000000000000000e+00
2.131764173507689986e+00 -1.313009262084960938e+00 -6.708589792251586914e-01 1.600000000000000000e+01
2.485036373138428178e+00 -1.531795501708983931e+00 -6.739533543586730957e-01 1.400000000000000000e+01
2.929400444030762163e+00 -1.806410670280456987e+00 -6.689763665199279785e-01 1.100000000000000000e+01
3.575560808181763139e+00 -2.206587553024291992e+00 -6.654722094535827637e-01 9.000000000000000000e+00
4.605735301971436435e+00 -2.844560146331787109e+00 -6.646754145622253418e-01 9.000000000000000000e+00
6.578156471252441406e+00 -4.064338207244873047e+00 -6.765028834342956543e-01 2.000000000000000000e+00
4.548691558837891336e+01 -2.814815711975098012e+01 -9.337037205696105957e-01 1.400000000000000000e+01
2.133733272552489790e+00 -1.324517965316772017e+00 -6.729295253753662109e-01 1.600000000000000000e+01
2.459810256958007812e+00 -1.528120398521422896e+00 -6.685545444488525391e-01 1.200000000000000000e+01
2.934749364852904829e+00 -1.823879241943358931e+00 -6.716476678848266602e-01 1.200000000000000000e+01
3.574546098709106001e+00 -2.223228216171265093e+00 -6.667236685752868652e-01 1.000000000000000000e+01
4.614316463470458984e+00 -2.872159004211425781e+00 -6.673565506935119629e-01 1.100000000000000000e+01
6.572385787963867188e+00 -4.092541217803955078e+00 -6.773744225502014160e-01 3.000000000000000000e+00
4.538838195800781250e+01 -2.830676460266112926e+01 -9.337037205696105957e-01 1.400000000000000000e+01
2.135648012161254883e+00 -1.336056351661681907e+00 -6.750000715255737305e-01 1.500000000000000000e+01
2.464371442794799805e+00 -1.542902112007140891e+00 -6.712539196014404297e-01 1.200000000000000000e+01
2.923373460769652876e+00 -1.830985903739928977e+00 -6.705027818679809570e-01 1.200000000000000000e+01
3.581827640533446822e+00 -2.245134353637694868e+00 -6.695395112037658691e-01 1.000000000000000000e+01
4.545405864715576172e+00 -2.851327657699584961e+00 -6.588256955146789551e-01 1.300000000000000000e+01
6.564810276031494141e+00 -4.119694709777832031e+00 -6.780716776847839355e-01 2.000000000000000000e+00
2.129337072372436968e+00 -1.342472672462462935e+00 -6.744824051856994629e-01 1.500000000000000000e+01
2.468859434127808061e+00 -1.557734251022339089e+00 -6.739533543586730957e-01 1.200000000000000000e+01
2.918624401092528853e+00 -1.842227220535278098e+00 -6.708844304084777832e-01 1.200000000000000000e+01
3.577308893203734907e+00 -2.259733438491820845e+00 -6.701652407646179199e-01 1.000000000000000000e+01
4.528713703155517578e+00 -2.862933874130249023e+00 -6.578507423400878906e-01 1.400000000000000000e+01
6.550389766693115234e+00 -4.142584800720214844e+00 -6.780716776847839355e-01 2.000000000000000000e+00
4.518965911865233664e+01 -2.862294387817383168e+01 -9.337037205696105957e-01 1.400000000000000000e+01
2.118115663528441939e+00 -1.345753312110901101e+00 -6.724118590354919434e-01 1.500000000000000000e+01
2.463406801223754883e+00 -1.566342711448668990e+00 -6.739533543586730957e-01 1.100000000000000000e+01
2.917145729064940962e+00 -1.855564951896667036e+00 -6.720292568206787109e-01 1.200000000000000000e+01
3.569399118423461914e+00 -2.272206783294678178e+00 -6.701652407646179199e-01 1.000000000000000000e+01
4.533760547637938565e+00 -2.888323783874512163e+00 -6.600443720817565918e-01 1.600000000000000000e+01
6.514047622680664062e+00 -4.151504516601563388e+00 -6.758056282997131348e-01 2.000000000000000000e+00
2.115032196044921875e+00 -1.354180455207824929e+00 -6.729295253753662109e-01 1.600000000000000000e+01
2.464487552642821822e+00 -1.579137444496155007e+00 -6.757529377937316895e-01 1.100000000000000000e+01
2.907345056533813032e+00 -1.863617420196532981e+00 -6.712660193443298340e-01 1.100000000000000000e+01
3.561445951461791992e+00 -2.284652471542357954e+00 -6.701652407646179199e-01 1.000000000000000000e+01
4.538684844970703125e+00 -2.913783788681029829e+00 -6.622380018234252930e-01 2.100000000000000000e+01
6.541427135467529297e+00 -4.201133728027343750e+00 -6.801634430885314941e-01 0.000000000000000000e+00
2.115162372589110884e+00 -1.364697098731995073e+00 -6.744824051856994629e-01 1.600000000000000000e+01
2.445863246917725053e+00 -1.579273939132689986e+00 -6.721537709236145020e-01 1.200000000000000000e+01
2.904120445251464844e+00 -1.875885128974914995e+00 -6.720292568206787109e-01 1.100000000000000000e+01
3.545154571533203125e+00 -2.291708469390869141e+00 -6.686009168624877930e-01 1.000000000000000000e+01
4.543486595153808594e+00 -2.939313411712646040e+00 -6.644316315650939941e-01 4.200000000000000000e+01
6.503305435180664062e+00 -4.208786964416503906e+00 -6.777230501174926758e-01 3.000000000000000000e+00
2.128201723098754883e+00 -1.383655190467834029e+00 -6.801764369010925293e-01 1.600000000000000000e+01
2.453402996063231978e+00 -1.596304297447205034e+00 -6.757529377937316895e-01 1.100000000000000000e+01
2.899200201034545898e+00 -1.887081980705261008e+00 -6.724109053611755371e-01 1.200000000000000000e+01
3.558650970458983931e+00 -2.318085670471190962e+00 -6.726682186126708984e-01 1.000000000000000000e+01
4.513243675231933594e+00 -2.942146539688109907e+00 -6.615067720413208008e-01 1.900000000000000000e+01
6.530295848846436435e+00 -4.258670806884765625e+00 -6.820808649063110352e-01 3.000000000000000000e+00
2.108815431594849077e+00 -1.381547570228577104e+00 -6.755176782608032227e-01 1.600000000000000000e+01
2.452705144882202148e+00 -1.608063936233520952e+00 -6.771026849746704102e-01 1.200000000000000000e+01
2.876178741455078125e+00 -1.886423230171204057e+00 -6.685947179794311523e-01 1.100000000000000000e+01
3.553840398788452148e+00 -2.332661390304564986e+00 -6.732939481735229492e-01 1.000000000000000000e+01
4.512900829315186435e+00 -2.964421749114989790e+00 -6.629692316055297852e-01 1.600000000000000000e+01
6.502069950103759766e+00 -4.272686481475830078e+00 -6.806863546371459961e-01 2.000000000000000000e+00
2.097289323806763139e+00 -1.385009288787842019e+00 -6.734471321105957031e-01 1.500000000000000000e+01
2.451672077178955078e+00 -1.620266079902648926e+00 -6.784523725509643555e-01 1.100000000000000000e+01
2.879071474075316939e+00 -1.903448700904845969e+00 -6.708844304084777832e-01 1.200000000000000000e+01
3.537029743194580078e+00 -2.340221166610718218e+00 -6.717295646667480469e-01 9.000000000000000000e+00
4.518557071685791016e+00 -2.991901874542235884e+00 -6.654066443443298340e-01 1.600000000000000000e+01
6.497993469238281250e+00 -4.304190635681152344e+00 -6.819065213203430176e-01 3.000000000000000000e+00
2.102092027664185014e+00 -1.398742914199829102e+00 -6.765530109405517578e-01 1.700000000000000000e+01
2.439513444900513139e+00 -1.624493718147278054e+00 -6.766527891159057617e-01 1.200000000000000000e+01
2.895284414291381836e+00 -1.928725242614746094e+00 -6.762270927429199219e-01 1.100000000000000000e+01
3.530483007431029829e+00 -2.353649377822875977e+00 -6.720424890518188477e-01 1.000000000000000000e+01
4.524599075317382812e+00 -3.018673419952393022e+00 -6.678439974784851074e-01 2.200000000000000000e+01
6.476300716400145596e+00 -4.322422504425048828e+00 -6.812092661857604980e-01 2.000000000000000000e+00
2.102502107620238814e+00 -1.408565640449523926e+00 -6.781058907508850098e-01 2.500000000000000000e+01
2.427923440933227983e+00 -1.627808809280395952e+00 -6.748531460762023926e-01 1.100000000000000000e+01
2.890841484069824219e+00 -1.938905119895935059e+00 -6.766086816787719727e-01 1.200000000000000000e+01
3.523071289062500000e+00 -2.364728927612305132e+00 -6.720424890518188477e-01 1.000000000000000000e+01
4.513445377349854404e+00 -3.031766176223754883e+00 -6.676002740859985352e-01 2.900000000000000000e+01
6.451113700866699219e+00 -4.334968566894531250e+00 -6.799890995025634766e-01 5.000000000000000000e+00
2.099173784255981001e+00 -1.416976928710937944e+00 -6.786235570907592773e-01 2.300000000000000000e+01
2.422226428985596147e+00 -1.636273860931396040e+00 -6.748531460762023926e-01 1.100000000000000000e+01
2.874295711517333984e+00 -1.942388653755187988e+00 -6.743189692497253418e-01 1.100000000000000000e+01
3.524613380432128906e+00 -2.383652210235596147e+00 -6.739196777343750000e-01 1.000000000000000000e+01
4.504478931427001953e+00 -3.048614978790283203e+00 -6.678439974784851074e-01 2.200000000000000000e+01
6.417794704437255859e+00 -4.345173358917236328e+00 -6.780716776847839355e-01 5.000000000000000000e+00
2.087577342987060991e+00 -1.420314550399780051e+00 -6.765530109405517578e-01 2.300000000000000000e+01
2.425877809524536133e+00 -1.651721358299254927e+00 -6.775525808334350586e-01 1.100000000000000000e+01
2.863912105560303178e+00 -1.950699925422668013e+00 -6.735557317733764648e-01 1.000000000000000000e+01
3.519117593765258789e+00 -2.398779630661011186e+00 -6.745454072952270508e-01 1.000000000000000000e+01
4.504754066467285156e+00 -3.072934865951538086e+00 -6.695501804351806641e-01 2.100000000000000000e+01
6.373848438262938565e+00 -4.349575042724609375e+00 -6.751083731651306152e-01 4.000000000000000000e+00
2.076232910156250000e+00 -1.423223733901977983e+00 -6.744824051856994629e-01 2.300000000000000000e+01
2.423311233520507812e+00 -1.662383913993835005e+00 -6.784523725509643555e-01 1.000000000000000000e+01
2.850610494613647017e+00 -1.956241488456726074e+00 -6.720292568206787109e-01 1.100000000000000000e+01
3.510722875595093218e+00 -2.411049127578734907e+00 -6.745454072952270508e-01 1.000000000000000000e+01
4.515267848968505859e+00 -3.103257417678833008e+00 -6.727187633514404297e-01 2.400000000000000000e+01
6.317582130432128906e+00 -4.343577384948729581e+00 -6.707506179809570312e-01 6.000000000000000000e+00
2.077610731124877930e+00 -1.434853792190551980e+00 -6.765530109405517578e-01 2.300000000000000000e+01
2.423906326293944868e+00 -1.675264716148376021e+00 -6.802520155906677246e-01 1.000000000000000000e+01
2.853453636169434038e+00 -1.972879171371459961e+00 -6.743189692497253418e-01 1.100000000000000000e+01
3.495787620544434038e+00 -2.418793201446533203e+00 -6.732939481735229492e-01 1.000000000000000000e+01
4.530520439147949219e+00 -3.137080907821654829e+00 -6.766185760498046875e-01 2.800000000000000000e+01
6.264711380004882812e+00 -4.339509963989257812e+00 -6.667414307594299316e-01 7.000000000000000000e+00
2.078932523727416992e+00 -1.446510672569274902e+00 -6.786235570907592773e-01 2.300000000000000000e+01
2.402051448822021040e+00 -1.672579765319823997e+00 -6.757529377937316895e-01 1.100000000000000000e+01
2.861048221588135210e+00 -1.992926836013793945e+00 -6.777535676956176758e-01 1.100000000000000000e+01
3.490564107894897017e+00 -2.433240413665771040e+00 -6.739196777343750000e-01 1.000000000000000000e+01
4.513030052185058594e+00 -3.148333311080933061e+00 -6.756436228752136230e-01 2.400000000000000000e+01
6.256061077117919922e+00 -4.365911960601806641e+00 -6.674386858940124512e-01 7.000000000000000000e+00
2.075706481933594194e+00 -1.454505443572998047e+00 -6.791411638259887695e-01 2.400000000000000000e+01
2.396491765975952148e+00 -1.680536150932312012e+00 -6.757529377937316895e-01 1.100000000000000000e+01
2.838351488113402876e+00 -1.991128683090209961e+00 -6.739373803138732910e-01 1.100000000000000000e+01
3.488943099975585938e+00 -2.449342012405395952e+00 -6.751711368560791016e-01 1.000000000000000000e+01
4.509062290191650391e+00 -3.167846441268920898e+00 -6.766185760498046875e-01 1.700000000000000000e+01
6.265999794006347656e+00 -4.403818607330322266e+00 -6.700533628463745117e-01 7.000000000000000000e+00
2.072194814682006836e+00 -1.462856173515320046e+00 -6.796588301658630371e-01 2.300000000000000000e+01
2.403343915939331055e+00 -1.697886586189270020e+00 -6.793521642684936523e-01 1.100000000000000000e+01
2.831383943557738814e+00 -2.001024246215819868e+00 -6.739373803138732910e-01 1.200000000000000000e+01
3.488435745239257812e+00 -2.467209100723267046e+00 -6.767355203628540039e-01 9.000000000000000000e+00
4.502837657928466797e+00 -3.187006950378417969e+00 -6.773498058319091797e-01 1.500000000000000000e+01
6.183920860290527344e+00 -4.378459930419921875e+00 -6.629065871238708496e-01 7.000000000000000000e+00
2.059204339981079102e+00 -1.464482426643372026e+00 -6.770706176757812500e-01 2.400000000000000000e+01
2.397402524948120117e+00 -1.706265449523926003e+00 -6.793521642684936523e-01 1.100000000000000000e+01
2.833977460861206055e+00 -2.017727375030518022e+00 -6.762270927429199219e-01 1.100000000000000000e+01
3.487846374511719194e+00 -2.485102176666260210e+00 -6.782998442649841309e-01 1.000000000000000000e+01
4.483603954315186435e+00 -3.196943044662476030e+00 -6.761311292648315430e-01 1.700000000000000000e+01
6.171843528747558594e+00 -4.402333259582520419e+00 -6.632552146911621094e-01 9.000000000000000000e+00
2.055650234222412109e+00 -1.472786664962768999e+00 -6.775882840156555176e-01 2.300000000000000000e+01
2.391431808471680132e+00 -1.714623570442199929e+00 -6.793521642684936523e-01 1.100000000000000000e+01
2.830107688903809038e+00 -2.029896020889281782e+00 -6.769903302192687988e-01 1.100000000000000000e+01
3.475940942764281782e+00 -2.494958162307738814e+00 -6.776741147041320801e-01 1.000000000000000000e+01
4.477253913879395419e+00 -3.216048717498778853e+00 -6.768623590469360352e-01 1.400000000000000000e+01
6.120843410491943359e+00 -4.398272037506104404e+00 -6.594203710556030273e-01 1.200000000000000000e+01
2.056503295898437944e+00 -1.484834551811218040e+00 -6.796588301658630371e-01 2.300000000000000000e+01
2.378813266754149947e+00 -1.718811869621277078e+00 -6.775525808334350586e-01 1.100000000000000000e+01
2.825830936431885210e+00 -2.042555570602416992e+00 -6.777535676956176758e-01 1.100000000000000000e+01
3.460371017456055132e+00 -2.503050327301024947e+00 -6.764226555824279785e-01 1.000000000000000000e+01
4.481516838073729581e+00 -3.244076967239379883e+00 -6.792997121810913086e-01 1.400000000000000000e+01
6.124046325683593750e+00 -4.434699535369873047e+00 -6.615120768547058105e-01 1.100000000000000000e+01
2.052870035171508789e+00 -1.493140339851378950e+00 -6.801764369010925293e-01 2.200000000000000000e+01
2.369647741317749023e+00 -1.724811434745789018e+00 -6.766527891159057617e-01 1.100000000000000000e+01
2.817096948623656782e+00 -2.051251411437987837e+00 -6.773719191551208496e-01 1.200000000000000000e+01
3.454805612564086914e+00 -2.517440795898437944e+00 -6.770483851432800293e-01 1.000000000000000000e+01
4.479789257049561435e+00 -3.266718387603760210e+00 -6.807621717453002930e-01 1.500000000000000000e+01
6.057021141052246094e+00 -4.418475151062011719e+00 -6.559340953826904297e-01 1.100000000000000000e+01
2.045051813125609907e+00 -1.497299790382385032e+00 -6.791411638259887695e-01 2.100000000000000000e+01
2.376793146133422852e+00 -1.741461396217345969e+00 -6.802520155906677246e-01 1.200000000000000000e+01
2.799554586410522017e+00 -2.051967144012451172e+00 -6.747006177902221680e-01 1.100000000000000000e+01
3.456436634063721147e+00 -2.535291910171508789e+00 -6.789255738258361816e-01 1.000000000000000000e+01
4.479105949401854581e+00 -3.287823677062987837e+00 -6.822245717048645020e-01 1.500000000000000000e+01
6.017415046691895419e+00 -4.418614387512207031e+00 -6.531451344490051270e-01 1.200000000000000000e+01
2.039812803268433061e+00 -1.504429221153259055e+00 -6.791411638259887695e-01 2.200000000000000000e+01
2.380107402801514116e+00 -1.756690859794616921e+00 -6.829513907432556152e-01 1.100000000000000000e+01
2.801851272583007812e+00 -2.068723678588867188e+00 -6.769903302192687988e-01 1.100000000000000000e+01
3.453920841217041016e+00 -2.552037239074707031e+00 -6.801770329475402832e-01 1.000000000000000000e+01
4.480370998382568359e+00 -3.312880516052246094e+00 -6.841744780540466309e-01 1.400000000000000000e+01
6.011565685272216797e+00 -4.446701049804688388e+00 -6.541910171508789062e-01 1.000000000000000000e+01
2.040751695632935014e+00 -1.516148686408997026e+00 -6.812117099761962891e-01 2.100000000000000000e+01
2.364577531814575195e+00 -1.758011937141418013e+00 -6.802520155906677246e-01 1.100000000000000000e+01
2.800914287567139116e+00 -2.083178043365478960e+00 -6.785168051719665527e-01 1.100000000000000000e+01
3.438652992248535156e+00 -2.559360504150391069e+00 -6.789255738258361816e-01 1.000000000000000000e+01
4.473555564880371094e+00 -3.332056999206542969e+00 -6.849057078361511230e-01 1.500000000000000000e+01
6.075890064239501953e+00 -4.527179241180419922e+00 -6.629065871238708496e-01 8.000000000000000000e+00
2.040086984634398970e+00 -1.526735544204711914e+00 -6.827646493911743164e-01 2.000000000000000000e+01
2.358426570892333984e+00 -1.766255140304564986e+00 -6.802520155906677246e-01 1.100000000000000000e+01
2.799910306930541992e+00 -2.097650766372681108e+00 -6.800432801246643066e-01 1.100000000000000000e+01
3.432859182357788086e+00 -2.573717832565308061e+00 -6.795513033866882324e-01 1.000000000000000000e+01
4.465073108673095703e+00 -3.350034952163695845e+00 -6.853932142257690430e-01 1.500000000000000000e+01
6.017025947570800781e+00 -4.516068935394287109e+00 -6.582001447677612305e-01 7.000000000000000000e+00
2.037830591201781782e+00 -1.536173224449157937e+00 -6.837999224662780762e-01 1.900000000000000000e+01
2.358469724655150923e+00 -1.779171228408813032e+00 -6.820515990257263184e-01 1.100000000000000000e+01
2.780034303665161133e+00 -2.097950696945189986e+00 -6.769903302192687988e-01 1.100000000000000000e+01
3.420701503753662109e+00 -2.583304166793822798e+00 -6.789255738258361816e-01 1.000000000000000000e+01
4.440682411193847656e+00 -3.356025695800780806e+00 -6.834432482719421387e-01 1.200000000000000000e+01
5.963081836700438565e+00 -4.508207321166992188e+00 -6.540166735649108887e-01 7.000000000000000000e+00
2.024763107299805132e+00 -1.537435889244080034e+00 -6.812117099761962891e-01 1.500000000000000000e+01
2.349141597747803178e+00 -1.785035014152527078e+00 -6.811518073081970215e-01 1.100000000000000000e+01
2.769568204879761186e+00 -2.105265855789185014e+00 -6.762270927429199219e-01 1.100000000000000000e+01
3.421096563339232954e+00 -2.602404594421387163e+00 -6.808027625083923340e-01 1.000000000000000000e+01
4.439997196197509766e+00 -3.379922866821289062e+00 -6.851494312286376953e-01 1.200000000000000000e+01
5.939383506774902344e+00 -4.522959709167479581e+00 -6.531451344490051270e-01 6.000000000000000000e+00
2.011711597442626953e+00 -1.538626074790955034e+00 -6.786235570907592773e-01 1.300000000000000000e+01
2.355276346206665039e+00 -1.802699565887450950e+00 -6.847510337829589844e-01 1.100000000000000000e+01
2.769996643066405806e+00 -2.120888233184814009e+00 -6.781351566314697266e-01 1.200000000000000000e+01
3.408855438232421875e+00 -2.611927747726439986e+00 -6.801770329475402832e-01 1.000000000000000000e+01
4.439198970794677734e+00 -3.403856039047241211e+00 -6.868556141853332520e-01 1.200000000000000000e+01
5.904588699340820312e+00 -4.529112815856933594e+00 -6.510533690452575684e-01 7.000000000000000000e+00
2.006328582763671875e+00 -1.545638918876647949e+00 -6.786235570907592773e-01 1.400000000000000000e+01
2.342795848846435991e+00 -1.806150794029236062e+00 -6.829513907432556152e-01 1.100000000000000000e+01
2.767240524291992188e+00 -2.134141206741333008e+00 -6.792800426483154297e-01 1.200000000000000000e+01
3.396589756011962891e+00 -2.621397256851195845e+00 -6.795513033866882324e-01 1.000000000000000000e+01
4.433574676513671875e+00 -3.424184560775756836e+00 -6.878305673599243164e-01 1.200000000000000000e+01
5.884013175964354581e+00 -4.546041965484619141e+00 -6.505304574966430664e-01 6.000000000000000000e+00
2.013131141662598100e+00 -1.562107443809509055e+00 -6.827646493911743164e-01 1.300000000000000000e+01
2.330320358276367188e+00 -1.809536814689636008e+00 -6.811518073081970215e-01 1.100000000000000000e+01
2.762874841690063032e+00 -2.146196603775023970e+00 -6.800432801246643066e-01 1.100000000000000000e+01
3.393657207489014116e+00 -2.638087034225463867e+00 -6.808027625083923340e-01 1.000000000000000000e+01
4.424728870391845703e+00 -3.442077398300170898e+00 -6.883180737495422363e-01 1.200000000000000000e+01
5.907417774200438565e+00 -4.597143650054931641e+00 -6.548882722854614258e-01 7.000000000000000000e+00
2.018320798873900923e+00 -1.577452421188354048e+00 -6.863881349563598633e-01 1.400000000000000000e+01
2.320919752120972124e+00 -1.815258979797363059e+00 -6.802520155906677246e-01 1.100000000000000000e+01
2.752274036407471147e+00 -2.153408050537108931e+00 -6.792800426483154297e-01 1.100000000000000000e+01
3.390649080276488814e+00 -2.654788255691527876e+00 -6.820542812347412109e-01 1.000000000000000000e+01
4.403311252593994141e+00 -3.450155735015869141e+00 -6.868556141853332520e-01 1.200000000000000000e+01
5.819202423095703125e+00 -4.561197757720947266e+00 -6.468698978424072266e-01 7.000000000000000000e+00
2.005487918853760210e+00 -1.578163385391234907e+00 -6.837999224662780762e-01 1.300000000000000000e+01
2.324073314666748047e+00 -1.830179333686829057e+00 -6.829513907432556152e-01 1.200000000000000000e+01
2.742033481597899947e+00 -2.160093307495117188e+00 -6.785168051719665527e-01 1.100000000000000000e+01
3.384929418563843218e+00 -2.668463230133057085e+00 -6.826800107955932617e-01 1.000000000000000000e+01
4.404314041137695312e+00 -3.474574804306029829e+00 -6.888055205345153809e-01 1.200000000000000000e+01
5.724280357360839844e+00 -4.517520904541015625e+00 -6.379800438880920410e-01 1.500000000000000000e+01
1.993911027908324973e+00 -1.580354332923888938e+00 -6.817293763160705566e-01 1.600000000000000000e+01
2.323777914047241211e+00 -1.843124747276305930e+00 -6.847510337829589844e-01 1.400000000000000000e+01
2.740628480911254883e+00 -2.174532890319824219e+00 -6.800432801246643066e-01 1.100000000000000000e+01
3.378688335418701172e+00 -2.682719230651855025e+00 -6.833057403564453125e-01 1.000000000000000000e+01
4.399929523468017578e+00 -3.496102094650268999e+00 -6.900241971015930176e-01 1.400000000000000000e+01
5.834811687469482422e+00 -4.637894153594970703e+00 -6.520992517471313477e-01 8.000000000000000000e+00
1.989892125129699929e+00 -1.588510036468506081e+00 -6.822469830513000488e-01 1.400000000000000000e+01
2.312762260437012163e+00 -1.847576022148132102e+00 -6.834012866020202637e-01 1.200000000000000000e+01
2.736088514328002930e+00 -2.186537265777587891e+00 -6.808065176010131836e-01 1.100000000000000000e+01
3.363132238388061968e+00 -2.689561843872069868e+00 -6.820542812347412109e-01 1.000000000000000000e+01
4.392348766326904297e+00 -3.515160560607910156e+00 -6.907554268836975098e-01 1.200000000000000000e+01
5.818586826324462891e+00 -4.658233165740966797e+00 -6.520992517471313477e-01 6.000000000000000000e+00
1.987346291542053001e+00 -1.597867369651793990e+00 -6.832822561264038086e-01 1.400000000000000000e+01
2.301743984222412109e+00 -1.851972937583922896e+00 -6.820515990257263184e-01 1.400000000000000000e+01
2.731498241424560991e+00 -2.198536872863769975e+00 -6.815697550773620605e-01 1.100000000000000000e+01
3.356800317764281782e+00 -2.703763246536254883e+00 -6.826800107955932617e-01 1.000000000000000000e+01
4.383142948150634766e+00 -3.532962799072266069e+00 -6.912429332733154297e-01 1.200000000000000000e+01
5.814699172973632812e+00 -4.688520431518554688e+00 -6.534937620162963867e-01 9.000000000000000000e+00
1.990764498710632102e+00 -1.612089276313781960e+00 -6.863881349563598633e-01 1.400000000000000000e+01
2.295265436172484907e+00 -1.859996318817138894e+00 -6.820515990257263184e-01 1.200000000000000000e+01
2.726857423782349077e+00 -2.210530757904053178e+00 -6.823329925537109375e-01 1.100000000000000000e+01
3.362682819366455078e+00 -2.727909088134766069e+00 -6.858087182044982910e-01 1.000000000000000000e+01
4.367701530456542969e+00 -3.545738935470581055e+00 -6.907554268836975098e-01 1.200000000000000000e+01
5.801391124725341797e+00 -4.711300849914550781e+00 -6.538423895835876465e-01 7.000000000000000000e+00
1.976142644882201926e+00 -1.611702680587768999e+00 -6.832822561264038086e-01 1.400000000000000000e+01
2.303856134414672852e+00 -1.880318760871886985e+00 -6.865506172180175781e-01 1.400000000000000000e+01
2.705437898635863814e+00 -2.208861112594604048e+00 -6.788983941078186035e-01 1.100000000000000000e+01
3.340902328491210938e+00 -2.729631662368773970e+00 -6.833057403564453125e-01 1.000000000000000000e+01
4.349150657653808594e+00 -3.555937528610229048e+00 -6.897804737091064453e-01 1.200000000000000000e+01
