-2.250306129455565962e+00 1.573341131210326926e+00 -6.339120864868164062e-01 1.500000000000000000e+01
-3.397375488281250000e+01 2.376218032836914062e+01 2.172779560089110884e+00 2.600000000000000000e+01
-2.649682521820067915e+00 1.853260755538939986e+00 -6.285248398780822754e-01 1.300000000000000000e+01
-3.207533121109008789e+00 2.245104789733887163e+00 -6.201062202453613281e-01 9.000000000000000000e+00
-4.108633518218994141e+00 2.877964735031127930e+00 -6.159276366233825684e-01 9.000000000000000000e+00
-3.374925613403320312e+01 2.364904403686523082e+01 6.527071475982666016e+00 1.400000000000000000e+01
-5.647212982177734375e+00 3.957159519195557085e+00 -6.032920479774475098e-01 3.000000000000000000e+00
-8.874548912048339844e+00 6.223263740539550781e+00 -5.680544972419738770e-01 2.000000000000000000e+00
-1.952593207359313965e+00 1.374343037605286089e+00 -6.398006677627563477e-01 1.900000000000000000e+01
-3.430817413330078125e+01 2.415694427490234020e+01 7.324076890945434570e-01 4.000000000000000000e+01
-2.249579906463623047e+00 1.584553241729736106e+00 -6.352617740631103516e-01 1.400000000000000000e+01
-3.373148727416992188e+01 2.375969505310058949e+01 2.162312269210814986e+00 2.600000000000000000e+01
-2.648011684417725053e+00 1.865891098976135032e+00 -6.296696662902832031e-01 1.100000000000000000e+01
-3.193219184875487837e+00 2.251733779907227007e+00 -6.188547611236572266e-01 9.000000000000000000e+00
-3.409184646606445312e+01 2.404915046691894887e+01 5.122655868530273438e+00 2.700000000000000000e+01
-4.101806163787841797e+00 2.894578218460083008e+00 -6.164151430130004883e-01 9.000000000000000000e+00
-3.302505874633789062e+01 2.330525016784667969e+01 6.401924133300781250e+00 1.400000000000000000e+01
-5.608950138092041016e+00 3.959612131118773970e+00 -6.006773710250854492e-01 2.000000000000000000e+00
-8.810359001159667969e+00 6.224240779876708984e+00 -5.653330087661743164e-01 2.000000000000000000e+00
-3.311590576171875000e+01 2.340400695800780895e+01 9.362012863159179688e+00 1.200000000000000000e+01
-1.952511668205261008e+00 1.384502768516540971e+00 -6.413536071777343750e-01 1.900000000000000000e+01
-2.229731798171997070e+00 1.582246184349060059e+00 -6.312126517295837402e-01 1.500000000000000000e+01
-2.651087760925292969e+00 1.881941676139831987e+00 -6.319593787193298340e-01 8.000000000000000000e+00
-3.182119131088256836e+00 2.260578632354735884e+00 -6.182290315628051758e-01 9.000000000000000000e+00
-4.081969738006591797e+00 2.901977300643920898e+00 -6.149526834487915039e-01 9.000000000000000000e+00
-3.287824630737304688e+01 2.338263130187987926e+01 6.390035152435302734e+00 1.400000000000000000e+01
-5.624320030212402344e+00 3.999951839447021040e+00 -6.038149595260620117e-01 2.000000000000000000e+00
-8.772306442260742188e+00 6.243375778198242188e+00 -5.642862915992736816e-01 2.000000000000000000e+00
-1.955526709556580034e+00 1.396924495697021040e+00 -6.439417600631713867e-01 1.900000000000000000e+01
-2.228950977325439009e+00 1.593419671058655007e+00 -6.325623393058776855e-01 1.300000000000000000e+01
-2.638114929199219194e+00 1.886616110801696999e+00 -6.304329037666320801e-01 9.000000000000000000e+00
-3.177421569824219194e+00 2.273971796035767046e+00 -6.188547611236572266e-01 9.000000000000000000e+00
-3.311608123779296875e+01 2.370878601074219105e+01 5.000786781311035156e+00 2.400000000000000000e+01
-4.065359592437744141e+00 2.911584854125977007e+00 -6.139777302742004395e-01 9.000000000000000000e+00
-3.285744476318358664e+01 2.354097366333008168e+01 6.401924133300781250e+00 1.400000000000000000e+01
-5.600605964660645419e+00 4.012597560882568359e+00 -6.027691364288330078e-01 2.000000000000000000e+00
-8.727735519409179688e+00 6.257665634155273438e+00 -5.628208518028259277e-01 2.000000000000000000e+00
-1.934958338737488015e+00 1.392457962036133035e+00 -6.387653946876525879e-01 1.900000000000000000e+01
-2.223375320434569868e+00 1.601190447807312012e+00 -6.325623393058776855e-01 1.400000000000000000e+01
-2.628327369689940962e+00 1.893518209457397017e+00 -6.296696662902832031e-01 8.000000000000000000e+00
-3.185488224029541016e+00 2.296601533889770952e+00 -6.219834089279174805e-01 9.000000000000000000e+00
-4.048732280731201172e+00 2.921112060546875000e+00 -6.130027770996093750e-01 9.000000000000000000e+00
-5.570409774780273438e+00 4.020462512969970703e+00 -6.010259985923767090e-01 2.000000000000000000e+00
-8.734982490539550781e+00 6.309143066406250000e+00 -5.647049546241760254e-01 2.000000000000000000e+00
-3.266998291015625000e+01 2.360570144653319957e+01 9.305325508117675781e+00 1.200000000000000000e+01
-1.922265410423279031e+00 1.393534421920775923e+00 -6.361772418022155762e-01 1.700000000000000000e+01
-2.230391502380371094e+00 1.618096470832824929e+00 -6.361615657806396484e-01 1.400000000000000000e+01
-2.628057479858397993e+00 1.907293796539307085e+00 -6.311961412429809570e-01 9.000000000000000000e+00
-3.158272266387939009e+00 2.293776988983153853e+00 -6.182290315628051758e-01 9.000000000000000000e+00
-3.327095031738281250e+01 2.417276000976562855e+01 5.049534320831298828e+00 2.500000000000000000e+01
-4.040116786956787109e+00 2.936393976211547852e+00 -6.132465600967407227e-01 1.000000000000000000e+01
-3.301602935791016336e+01 2.399635505676269887e+01 6.464498043060302734e+00 1.400000000000000000e+01
-5.566010475158691406e+00 4.046912670135498047e+00 -6.020718812942504883e-01 2.000000000000000000e+00
-8.635386466979980469e+00 6.283191204071044922e+00 -5.596807003021240234e-01 2.000000000000000000e+00
-1.922069787979125977e+00 1.403653860092163086e+00 -6.377301216125488281e-01 1.900000000000000000e+01
-2.216862916946411133e+00 1.620122909545897993e+00 -6.339120864868164062e-01 1.200000000000000000e+01
-2.615044116973876953e+00 1.911821126937865989e+00 -6.296696662902832031e-01 1.000000000000000000e+01
-3.147057771682738814e+00 2.302454710006713867e+00 -6.176032423973083496e-01 9.000000000000000000e+00
-3.296530914306641336e+01 2.412695884704589844e+01 5.015898227691650391e+00 2.400000000000000000e+01
-4.036248683929443359e+00 2.955169439315795898e+00 -6.142215132713317871e-01 1.000000000000000000e+01
-5.532561779022216797e+00 4.052189350128173828e+00 -5.999801158905029297e-01 2.000000000000000000e+00
-8.613401412963867188e+00 6.313295841217041016e+00 -5.596807003021240234e-01 2.000000000000000000e+00
-1.923382997512816939e+00 1.414933681488037109e+00 -6.398006677627563477e-01 1.900000000000000000e+01
-2.203347444534302202e+00 1.622074723243712935e+00 -6.316625475883483887e-01 1.400000000000000000e+01
-2.622582197189331055e+00 1.931415557861327903e+00 -6.331042647361755371e-01 1.000000000000000000e+01
-3.137411355972290039e+00 2.312253952026367188e+00 -6.172903776168823242e-01 8.000000000000000000e+00
-3.310138320922852273e+01 2.440444564819335938e+01 5.049534320831298828e+00 2.500000000000000000e+01
-4.017920970916748047e+00 2.963349342346190962e+00 -6.130027770996093750e-01 9.000000000000000000e+00
-5.521589756011962891e+00 4.073843002319335938e+00 -6.003287434577941895e-01 3.000000000000000000e+00
-8.578457832336425781e+00 6.333833217620849609e+00 -5.588433146476745605e-01 2.000000000000000000e+00
-1.919984340667725053e+00 1.422789096832274947e+00 -6.403183341026306152e-01 1.800000000000000000e+01
-2.197671890258789062e+00 1.629755973815917969e+00 -6.316625475883483887e-01 1.400000000000000000e+01
-2.603210210800170898e+00 1.931200623512268066e+00 -6.300513148307800293e-01 1.000000000000000000e+01
-3.135665178298950195e+00 2.327901601791381836e+00 -6.185418963432312012e-01 8.000000000000000000e+00
-4.001178741455078125e+00 2.972621202468872070e+00 -6.120278239250183105e-01 9.000000000000000000e+00
-5.497741222381591797e+00 4.085961341857910156e+00 -5.992828607559204102e-01 3.000000000000000000e+00
-8.537064552307128906e+00 6.349435806274414062e+00 -5.575872659683227539e-01 2.000000000000000000e+00
-1.911909937858581987e+00 1.427171230316162109e+00 -6.392830610275268555e-01 1.700000000000000000e+01
-2.201337099075316939e+00 1.644414901733397993e+00 -6.343619823455810547e-01 1.300000000000000000e+01
-2.594880580902100053e+00 1.939100503921509011e+00 -6.296696662902832031e-01 1.100000000000000000e+01
-3.124356269836425781e+00 2.336466789245605025e+00 -6.179161071777343750e-01 8.000000000000000000e+00
-3.261229705810546875e+01 2.439711570739746094e+01 5.000786781311035156e+00 2.400000000000000000e+01
-3.990777730941772017e+00 2.986569643020629883e+00 -6.120278239250183105e-01 9.000000000000000000e+00
-5.488229751586914062e+00 4.108709335327148438e+00 -5.998058319091796875e-01 3.000000000000000000e+00
-8.534029960632324219e+00 6.393567562103270596e+00 -5.588433146476745605e-01 2.000000000000000000e+00
-1.891475915908813032e+00 1.422226309776305930e+00 -6.341066360473632812e-01 1.800000000000000000e+01
-2.195583581924438032e+00 1.652088880538939986e+00 -6.343619823455810547e-01 1.400000000000000000e+01
-2.586527585983275923e+00 1.946965813636780007e+00 -6.292880773544311523e-01 1.300000000000000000e+01
-3.116181612014770952e+00 2.347358703613280806e+00 -6.179161071777343750e-01 8.000000000000000000e+00
-3.227328109741210938e+01 2.431966018676758168e+01 4.961788654327392578e+00 2.300000000000000000e+01
-3.977158069610596147e+00 2.998091936111450195e+00 -6.115403771400451660e-01 9.000000000000000000e+00
-5.457946777343750000e+00 4.115845680236816406e+00 -5.980626940727233887e-01 3.000000000000000000e+00
-8.518037796020507812e+00 6.428130149841308594e+00 -5.592620372772216797e-01 2.000000000000000000e+00
-1.896240949630737083e+00 1.435156583786010964e+00 -6.372125148773193359e-01 2.000000000000000000e+01
-2.184168577194213867e+00 1.654272079467772993e+00 -6.325623393058776855e-01 1.400000000000000000e+01
-2.585092782974243164e+00 1.958638906478882058e+00 -6.304329037666320801e-01 1.200000000000000000e+01
-3.100921392440795898e+00 2.351169347763061968e+00 -6.163517832756042480e-01 9.000000000000000000e+00
-3.223467636108397727e+01 2.444972038269042969e+01 4.967638015747070312e+00 2.300000000000000000e+01
-3.980370759963988814e+00 3.020171165466309038e+00 -6.134902834892272949e-01 9.000000000000000000e+00
-5.444989204406738281e+00 4.132971763610839844e+00 -5.980626940727233887e-01 5.000000000000000000e+00
-8.276727676391601562e+00 6.286933422088623047e+00 -5.447126030921936035e-01 1.000000000000000000e+01
-1.892756104469299094e+00 1.442938208580017090e+00 -6.377301216125488281e-01 2.000000000000000000e+01
-2.173732757568358931e+00 1.658340215682982954e+00 -6.312126517295837402e-01 1.300000000000000000e+01
-2.582921981811522993e+00 1.971223831176758035e+00 -6.315777897834777832e-01 1.300000000000000000e+01
-3.097404956817626953e+00 2.365576267242432085e+00 -6.172903776168823242e-01 8.000000000000000000e+00
-3.212705230712891336e+01 2.454521942138671875e+01 4.964225769042968750e+00 2.300000000000000000e+01
-3.966649770736693892e+00 3.031635999679564986e+00 -6.130027770996093750e-01 9.000000000000000000e+00
-5.416284561157226562e+00 4.141062259674072266e+00 -5.964938998222351074e-01 4.000000000000000000e+00
-8.276939392089843750e+00 6.332777023315429688e+00 -5.461780428886413574e-01 7.000000000000000000e+00
-1.892050862312316895e+00 1.453396320343018022e+00 -6.392830610275268555e-01 2.200000000000000000e+01
-2.166095018386840820e+00 1.665108442306518999e+00 -6.307627558708190918e-01 1.400000000000000000e+01
-2.567898273468018022e+00 1.974693536758423074e+00 -6.296696662902832031e-01 1.300000000000000000e+01
-3.088713884353638139e+00 2.376912832260131836e+00 -6.172903776168823242e-01 8.000000000000000000e+00
-3.942929506301879883e+00 3.036464452743529829e+00 -6.110528707504272461e-01 9.000000000000000000e+00
-5.390021800994873047e+00 4.152374267578125000e+00 -5.952737331390380859e-01 4.000000000000000000e+00
-8.372304916381835938e+00 6.454529285430908203e+00 -5.540284514427185059e-01 2.000000000000000000e+00
-3.608006668090820312e+01 2.782554054260253906e+01 1.051916122436523082e+01 1.300000000000000000e+01
-1.880854368209839089e+00 1.455263257026671919e+00 -6.372125148773193359e-01 2.200000000000000000e+01
-2.167973756790161133e+00 1.678624749183655007e+00 -6.330122947692871094e-01 1.500000000000000000e+01
-2.556333303451538086e+00 1.980038523674011008e+00 -6.285248398780822754e-01 1.300000000000000000e+01
-3.083520650863647017e+00 2.390100240707397017e+00 -6.179161071777343750e-01 8.000000000000000000e+00
-3.932306289672852007e+00 3.050209522247314009e+00 -6.110528707504272461e-01 9.000000000000000000e+00
-5.402254104614257812e+00 4.191927909851074219e+00 -5.982370376586914062e-01 3.000000000000000000e+00
-8.359189033508300781e+00 6.491064548492431641e+00 -5.546564459800720215e-01 2.000000000000000000e+00
-3.552102661132813211e+01 2.759267234802246094e+01 1.038419055938721058e+01 1.300000000000000000e+01
-1.871191859245300071e+00 1.458257198333740012e+00 -6.356595754623413086e-01 1.800000000000000000e+01
-2.162101030349731001e+00 1.686182141304015891e+00 -6.330122947692871094e-01 1.300000000000000000e+01
-2.546310424804687944e+00 1.986534476280211958e+00 -6.277616024017333984e-01 1.300000000000000000e+01
-3.070487737655640093e+00 2.397202491760253906e+00 -6.169775128364562988e-01 9.000000000000000000e+00
-3.915378093719481978e+00 3.059028625488280806e+00 -6.100779175758361816e-01 9.000000000000000000e+00
-5.353052616119384766e+00 4.183767795562744141e+00 -5.944021940231323242e-01 4.000000000000000000e+00
-8.282990455627441406e+00 6.478368759155273438e+00 -5.510976314544677734e-01 2.000000000000000000e+00
-1.867609739303589089e+00 1.465972781181335005e+00 -6.361772418022155762e-01 1.900000000000000000e+01
-2.157734632492064986e+00 1.694922804832458052e+00 -6.334621906280517578e-01 1.300000000000000000e+01
-2.548622608184814009e+00 2.002688646316527876e+00 -6.300513148307800293e-01 1.400000000000000000e+01
-3.046573400497436968e+00 2.395695447921752930e+00 -6.138488650321960449e-01 9.000000000000000000e+00
-3.915596246719359907e+00 3.081270456314086914e+00 -6.117841005325317383e-01 1.000000000000000000e+01
-3.517172241210938211e+01 2.768735694885253906e+01 7.089610099792479581e+00 1.500000000000000000e+01
-5.347808837890625000e+00 4.209822177886962891e+00 -5.954480171203613281e-01 4.000000000000000000e+00
-8.247775077819824219e+00 6.497354507446289062e+00 -5.502602458000183105e-01 2.000000000000000000e+00
-1.861222505569458008e+00 1.470960140228271040e+00 -6.356595754623413086e-01 1.800000000000000000e+01
-2.142931222915648970e+00 1.694815635681151900e+00 -6.307627558708190918e-01 1.300000000000000000e+01
-2.541967391967772993e+00 2.011129140853881836e+00 -6.300513148307800293e-01 1.300000000000000000e+01
-3.049453258514403853e+00 2.414368391036986861e+00 -6.160389184951782227e-01 9.000000000000000000e+00
-3.894465446472167969e+00 3.085608720779418945e+00 -6.100779175758361816e-01 9.000000000000000000e+00
-5.333819389343261719e+00 4.227533340454101562e+00 -5.954480171203613281e-01 4.000000000000000000e+00
-8.204276084899902344e+00 6.507293701171875000e+00 -5.487948656082153320e-01 2.000000000000000000e+00
-3.538767242431641336e+01 2.807810401916503906e+01 1.042918109893799006e+01 1.300000000000000000e+01
-1.859099507331847922e+00 1.479854345321655051e+00 -6.366948485374450684e-01 1.800000000000000000e+01
-2.135478019714355025e+00 1.701071381568908913e+00 -6.303128600120544434e-01 1.300000000000000000e+01
-2.522648572921752930e+00 2.010202169418334961e+00 -6.269983649253845215e-01 1.300000000000000000e+01
-3.048729181289672852e+00 2.431156158447266069e+00 -6.176032423973083496e-01 9.000000000000000000e+00
-3.871258020401000977e+00 3.089278459548950195e+00 -6.081280112266540527e-01 8.000000000000000000e+00
-3.502567291259766336e+01 2.796062850952148082e+01 7.098370075225830078e+00 1.500000000000000000e+01
-5.325258255004882812e+00 4.251098155975341797e+00 -5.961452722549438477e-01 4.000000000000000000e+00
-8.156544685363769531e+00 6.515946865081787109e+00 -5.471200942993164062e-01 2.000000000000000000e+00
-1.852674365043639915e+00 1.484803080558777078e+00 -6.361772418022155762e-01 1.900000000000000000e+01
-2.129825353622436968e+00 1.708143472671509011e+00 -6.303128600120544434e-01 1.300000000000000000e+01
-2.509843349456787109e+00 2.013642311096190962e+00 -6.254718899726867676e-01 1.300000000000000000e+01
-3.034489154815673828e+00 2.436305761337279829e+00 -6.163517832756042480e-01 9.000000000000000000e+00
-3.873372316360474077e+00 3.112045764923096147e+00 -6.100779175758361816e-01 9.000000000000000000e+00
-5.287837505340576172e+00 4.250011444091796875e+00 -5.935305953025817871e-01 4.000000000000000000e+00
-8.134891510009765625e+00 6.542958736419677734e+00 -5.471200942993164062e-01 2.000000000000000000e+00
-1.833950996398926003e+00 1.480340480804442915e+00 -6.315184831619262695e-01 1.800000000000000000e+01
-2.132945537567139116e+00 1.722914695739746094e+00 -6.330122947692871094e-01 1.200000000000000000e+01
-2.504326343536376953e+00 2.023624897003173828e+00 -6.258534789085388184e-01 1.300000000000000000e+01
-3.025966405868529829e+00 2.446883440017700195e+00 -6.163517832756042480e-01 9.000000000000000000e+00
-3.850140333175659180e+00 3.115557670593262163e+00 -6.081280112266540527e-01 8.000000000000000000e+00
-5.249741077423095703e+00 4.249639511108398438e+00 -5.909159183502197266e-01 4.000000000000000000e+00
-8.130626678466796875e+00 6.586401462554931641e+00 -5.483761429786682129e-01 2.000000000000000000e+00
-1.834508180618285911e+00 1.491927862167357954e+00 -6.335890293121337891e-01 1.900000000000000000e+01
-2.122081995010375977e+00 1.727030515670775923e+00 -6.316625475883483887e-01 1.400000000000000000e+01
-2.499937534332274947e+00 2.035269021987915039e+00 -6.266167163848876953e-01 1.400000000000000000e+01
-3.004725933074951172e+00 2.447976112365723100e+00 -6.138488650321960449e-01 9.000000000000000000e+00
-3.835618257522583008e+00 3.127139329910277876e+00 -6.076405644416809082e-01 8.000000000000000000e+00
-5.238761901855468750e+00 4.272630214691162109e+00 -5.914388895034790039e-01 4.000000000000000000e+00
-8.056917190551757812e+00 6.575745582580566406e+00 -5.450266599655151367e-01 2.000000000000000000e+00
-1.838256239891052024e+00 1.505667209625243919e+00 -6.366948485374450684e-01 2.000000000000000000e+01
-2.108504772186278853e+00 1.728250741958617942e+00 -6.294130682945251465e-01 1.300000000000000000e+01
-2.500408649444580078e+00 2.050207138061522993e+00 -6.285248398780822754e-01 1.300000000000000000e+01
-2.990054368972777876e+00 2.453437566757202148e+00 -6.125973463058471680e-01 9.000000000000000000e+00
-3.832350015640258789e+00 3.146807909011840820e+00 -6.088592410087585449e-01 9.000000000000000000e+00
-5.231513977050781250e+00 4.297214031219482422e+00 -5.923104286193847656e-01 4.000000000000000000e+00
-7.999970436096191406e+00 6.575927734375000000e+00 -5.427238941192626953e-01 2.000000000000000000e+00
-1.833253145217895952e+00 1.511754751205443892e+00 -6.366948485374450684e-01 2.000000000000000000e+01
-2.102762222290039062e+00 1.735233306884766069e+00 -6.294130682945251465e-01 1.200000000000000000e+01
-2.476941823959351030e+00 2.044739246368408203e+00 -6.243270039558410645e-01 1.300000000000000000e+01
-2.987993717193603960e+00 2.468371868133544922e+00 -6.138488650321960449e-01 9.000000000000000000e+00
-3.450759124755858664e+01 2.851674079895019887e+01 5.496551036834716797e+00 3.700000000000000000e+01
-3.802004098892211914e+00 3.143056392669678178e+00 -6.056906580924987793e-01 9.000000000000000000e+00
-5.200345993041992188e+00 4.300571441650390625e+00 -5.903930068016052246e-01 4.000000000000000000e+00
-7.978119850158691406e+00 6.602420330047607422e+00 -5.427238941192626953e-01 2.000000000000000000e+00
-1.816075801849365012e+00 1.508270740509032981e+00 -6.325537562370300293e-01 1.800000000000000000e+01
-2.101188421249390093e+00 1.746299505233765093e+00 -6.307627558708190918e-01 1.100000000000000000e+01
-2.460731506347655806e+00 2.045842170715332031e+00 -6.220373511314392090e-01 1.300000000000000000e+01
-2.988470554351807085e+00 2.486367225646973100e+00 -6.157260537147521973e-01 9.000000000000000000e+00
-3.435290908813477273e+01 2.859130668640137074e+01 5.487776756286621094e+00 3.700000000000000000e+01
-3.786432981491088867e+00 3.152498483657836914e+00 -6.049594283103942871e-01 9.000000000000000000e+00
-5.160807132720947266e+00 4.298296928405761719e+00 -5.876040458679199219e-01 5.000000000000000000e+00
-7.942750453948974609e+00 6.619999408721923828e+00 -5.418865084648132324e-01 2.000000000000000000e+00
-1.819690823554992898e+00 1.522037506103516069e+00 -6.356595754623413086e-01 1.900000000000000000e+01
-2.104045867919921875e+00 1.761128187179564986e+00 -6.334621906280517578e-01 1.100000000000000000e+01
-2.461101293563843218e+00 2.060721158981322798e+00 -6.239454150199890137e-01 1.200000000000000000e+01
-2.973716735839844194e+00 2.491708993911743164e+00 -6.144745945930480957e-01 9.000000000000000000e+00
-3.778447866439818892e+00 3.168247222900391069e+00 -6.054468750953674316e-01 9.000000000000000000e+00
-5.147298336029052734e+00 4.317565441131591797e+00 -5.877783298492431641e-01 5.000000000000000000e+00
-7.904296398162841797e+00 6.634843349456787109e+00 -5.408397912979125977e-01 2.000000000000000000e+00
-1.805501937866210938e+00 1.520912408828734907e+00 -6.325537562370300293e-01 1.900000000000000000e+01
-2.084475755691527876e+00 1.757157802581787109e+00 -6.294130682945251465e-01 1.200000000000000000e+01
-2.452392339706420898e+00 2.068033933639525923e+00 -6.235638260841369629e-01 1.100000000000000000e+01
-2.958962202072143999e+00 2.496978044509888139e+00 -6.132230758666992188e-01 9.000000000000000000e+00
-3.771915435791016069e+00 3.185259342193603960e+00 -6.061781048774719238e-01 8.000000000000000000e+00
-5.129151821136474609e+00 4.332935333251953125e+00 -5.874297022819519043e-01 5.000000000000000000e+00
-7.908543109893798828e+00 6.685603618621826172e+00 -5.427238941192626953e-01 2.000000000000000000e+00
-1.806341886520385964e+00 1.531889319419861062e+00 -6.346243023872375488e-01 2.300000000000000000e+01
-2.074180126190185991e+00 1.760277748107909934e+00 -6.280633211135864258e-01 1.200000000000000000e+01
-2.445520877838135210e+00 2.076154947280883789e+00 -6.235638260841369629e-01 1.200000000000000000e+01
-2.944643974304199219e+00 2.501660823822021040e+00 -6.119716167449951172e-01 9.000000000000000000e+00
-3.753770112991333008e+00 3.191321134567261186e+00 -6.049594283103942871e-01 9.000000000000000000e+00
-5.099577903747558594e+00 4.337012290954589844e+00 -5.856865644454956055e-01 5.000000000000000000e+00
-7.834615707397460938e+00 6.667780876159667969e+00 -5.391650199890136719e-01 2.000000000000000000e+00
-1.805390596389770952e+00 1.541949272155761941e+00 -6.361772418022155762e-01 2.200000000000000000e+01
-2.068022966384888139e+00 1.767507195472717063e+00 -6.280633211135864258e-01 1.300000000000000000e+01
-2.429305791854857954e+00 2.077023983001708984e+00 -6.212741136550903320e-01 1.100000000000000000e+01
-2.935893535614014116e+00 2.511924266815185991e+00 -6.119716167449951172e-01 9.000000000000000000e+00
-3.730544090270996094e+00 3.194076299667357954e+00 -6.030095219612121582e-01 9.000000000000000000e+00
-5.082894802093505859e+00 4.353490829467773438e+00 -5.855122804641723633e-01 4.000000000000000000e+00
-7.796128749847412109e+00 6.682090282440186435e+00 -5.381183028221130371e-01 2.000000000000000000e+00
-1.794138789176940918e+00 1.543202757835387962e+00 -6.341066360473632812e-01 2.200000000000000000e+01
-2.069225311279296875e+00 1.781071662902832031e+00 -6.303128600120544434e-01 1.200000000000000000e+01
-2.419065237045288086e+00 2.082929134368896040e+00 -6.205108761787414551e-01 1.100000000000000000e+01
-2.937582731246947798e+00 2.531183242797852007e+00 -6.141617298126220703e-01 8.000000000000000000e+00
-3.722378730773925781e+00 3.209671497344971147e+00 -6.034969687461853027e-01 1.100000000000000000e+01
-5.055597782135009766e+00 4.360795974731445312e+00 -5.841177701950073242e-01 5.000000000000000000e+00
-7.787875175476074219e+00 6.722313880920410156e+00 -5.391650199890136719e-01 2.000000000000000000e+00
-1.779979825019835982e+00 1.541866898536681907e+00 -6.310008168220520020e-01 2.200000000000000000e+01
-2.064468145370482954e+00 1.789560198783874956e+00 -6.307627558708190918e-01 1.200000000000000000e+01
-2.407330036163330078e+00 2.087502002716064009e+00 -6.193659901618957520e-01 1.100000000000000000e+01
-2.916793584823607954e+00 2.531064510345458984e+00 -6.116587519645690918e-01 8.000000000000000000e+00
-3.711152315139770952e+00 3.222645521163939986e+00 -6.034969687461853027e-01 9.000000000000000000e+00
-5.031320095062255859e+00 4.370577335357666016e+00 -5.830719470977783203e-01 4.000000000000000000e+00
-7.758333206176757812e+00 6.744216442108154297e+00 -5.387463569641113281e-01 2.000000000000000000e+00
-1.778039574623107910e+00 1.549990177154541016e+00 -6.320360898971557617e-01 2.200000000000000000e+01
-2.064709901809691939e+00 1.801161289215087891e+00 -6.325623393058776855e-01 1.100000000000000000e+01
-2.414072990417480025e+00 2.106672048568726030e+00 -6.228005886077880859e-01 1.200000000000000000e+01
-2.904364109039307085e+00 2.536317586898804155e+00 -6.107201576232910156e-01 9.000000000000000000e+00
-3.706988811492919922e+00 3.239513635635375977e+00 -6.044719219207763672e-01 9.000000000000000000e+00
-5.013064384460449219e+00 4.382428169250488281e+00 -5.825489759445190430e-01 5.000000000000000000e+00
-7.737107276916503906e+00 6.768556594848632812e+00 -5.387463569641113281e-01 2.000000000000000000e+00
-1.776973605155945046e+00 1.560010790824889915e+00 -6.335890293121337891e-01 2.300000000000000000e+01
-2.037913799285889116e+00 1.790351033210753950e+00 -6.262637376785278320e-01 1.300000000000000000e+01
-2.399331092834473100e+00 2.108605861663817915e+00 -6.208924651145935059e-01 1.000000000000000000e+01
-2.894009590148925781e+00 2.545135498046875000e+00 -6.104072928428649902e-01 8.000000000000000000e+00
-3.683736801147460938e+00 3.241941928863524947e+00 -6.025220155715942383e-01 9.000000000000000000e+00
-5.000727176666259766e+00 4.402533531188964844e+00 -5.828976035118103027e-01 5.000000000000000000e+00
-7.707438945770263672e+00 6.790241718292236328e+00 -5.383276343345642090e-01 2.000000000000000000e+00
-1.774138212203979048e+00 1.569072961807250977e+00 -6.346243023872375488e-01 2.000000000000000000e+01
-2.038634777069091797e+00 1.804265975952147993e+00 -6.285132169723510742e-01 1.500000000000000000e+01
-2.384236812591553178e+00 2.110878705978393999e+00 -6.189844012260437012e-01 1.200000000000000000e+01
-2.889097452163695845e+00 2.559655427932738814e+00 -6.113458871841430664e-01 9.000000000000000000e+00
-6.120217132568358664e+01 5.424239730834960938e+01 1.004130268096924006e+01 6.300000000000000000e+01
-3.662917375564575195e+00 3.247520208358765093e+00 -6.010596156120300293e-01 9.000000000000000000e+00
-4.975614070892333984e+00 4.412900447845458984e+00 -5.818517208099365234e-01 5.000000000000000000e+00
-7.694449901580811435e+00 6.829051494598388672e+00 -5.391650199890136719e-01 2.000000000000000000e+00
-1.764322400093079057e+00 1.571401596069335938e+00 -6.330713629722595215e-01 2.100000000000000000e+01
-2.032324075698852983e+00 1.811371207237244096e+00 -6.285132169723510742e-01 1.500000000000000000e+01
-2.369527101516724077e+00 2.112655878067017046e+00 -6.170762777328491211e-01 1.200000000000000000e+01
-2.875723123550415039e+00 2.565779447555541992e+00 -6.104072928428649902e-01 9.000000000000000000e+00
-3.648597717285155806e+00 3.257642269134521040e+00 -6.005721092224121094e-01 9.000000000000000000e+00
-4.940862178802490234e+00 4.412987709045410156e+00 -5.795856714248657227e-01 5.000000000000000000e+00
-7.634826183319091797e+00 6.823925018310546875e+00 -5.366529226303100586e-01 2.000000000000000000e+00
-1.752184152603148970e+00 1.570489645004272017e+00 -6.304832100868225098e-01 2.000000000000000000e+01
-2.028074264526367188e+00 1.819048166275023970e+00 -6.289631724357604980e-01 1.400000000000000000e+01
-2.367262125015258789e+00 2.124022722244263139e+00 -6.182211637496948242e-01 1.300000000000000000e+01
-2.860299110412598100e+00 2.568202495574951172e+00 -6.088429093360900879e-01 9.000000000000000000e+00
-3.650158166885375977e+00 3.279702425003052202e+00 -6.025220155715942383e-01 9.000000000000000000e+00
-4.932901382446289062e+00 4.433815479278563565e+00 -5.802829265594482422e-01 5.000000000000000000e+00
-7.571771621704101562e+00 6.810478687286376953e+00 -5.337221026420593262e-01 2.000000000000000000e+00
-1.750993609428405984e+00 1.580479621887207031e+00 -6.320360898971557617e-01 2.100000000000000000e+01
-2.015927553176879883e+00 1.820891380310059038e+00 -6.271635293960571289e-01 1.400000000000000000e+01
-2.358376741409302202e+00 2.130956888198852983e+00 -6.178395152091979980e-01 1.200000000000000000e+01
-2.857177734375000000e+00 2.583470582962036133e+00 -6.100944280624389648e-01 9.000000000000000000e+00
-3.647519588470458984e+00 3.300415277481079102e+00 -6.039844751358032227e-01 9.000000000000000000e+00
-4.901145935058593750e+00 4.436300277709960938e+00 -5.783655047416687012e-01 4.000000000000000000e+00
-7.565715789794921875e+00 6.852957248687744141e+00 -5.349781513214111328e-01 2.000000000000000000e+00
-1.748047709465027078e+00 1.589486002922058105e+00 -6.330713629722595215e-01 2.100000000000000000e+01
-2.007798910140991211e+00 1.826956391334533913e+00 -6.267136335372924805e-01 1.500000000000000000e+01
-2.359261751174927202e+00 2.147515773773192915e+00 -6.201292276382446289e-01 1.200000000000000000e+01
-2.847689867019652876e+00 2.593925237655640093e+00 -6.100944280624389648e-01 9.000000000000000000e+00
-3.623661756515502930e+00 3.303063631057738814e+00 -6.020345687866210938e-01 9.000000000000000000e+00
-4.902519702911376953e+00 4.470343112945556641e+00 -5.804572701454162598e-01 4.000000000000000000e+00
-7.534646511077880859e+00 6.875256061553955078e+00 -5.345594286918640137e-01 2.000000000000000000e+00
-1.685784530639648082e+01 1.539332771301270064e+01 -3.984733521938323975e-01 3.000000000000000000e+00
-1.752462148666382058e+00 1.604710698127747026e+00 -6.366948485374450684e-01 2.300000000000000000e+01
-2.001409292221068892e+00 1.833953857421875000e+00 -6.267136335372924805e-01 1.600000000000000000e+01
-2.343067646026610884e+00 2.147778511047362837e+00 -6.178395152091979980e-01 1.200000000000000000e+01
-2.840073585510253906e+00 2.605185031890869141e+00 -6.104072928428649902e-01 8.000000000000000000e+00
-3.597486019134521040e+00 3.302268505096435991e+00 -5.995971560478210449e-01 9.000000000000000000e+00
-4.878080368041992188e+00 4.479343414306640625e+00 -5.794113874435424805e-01 4.000000000000000000e+00
-7.495894908905029297e+00 6.888000965118408203e+00 -5.335127115249633789e-01 2.000000000000000000e+00
-1.673040962219237926e+01 1.538440132141112926e+01 -3.967280983924865723e-01 3.000000000000000000e+00
-1.735488295555114968e+00 1.600341200828552024e+00 -6.325537562370300293e-01 2.000000000000000000e+01
-1.994995474815369096e+00 1.840928792953490989e+00 -6.267136335372924805e-01 1.600000000000000000e+01
-2.334113597869873047e+00 2.154612541198730025e+00 -6.174579262733459473e-01 1.100000000000000000e+01
-2.829511404037476030e+00 2.613742351531981978e+00 -6.100944280624389648e-01 9.000000000000000000e+00
-3.583021640777587891e+00 3.312111139297484907e+00 -5.991097092628479004e-01 9.000000000000000000e+00
-4.865340232849121094e+00 4.499049186706542969e+00 -5.797600150108337402e-01 6.000000000000000000e+00
-7.413168907165527344e+00 6.859864234924316406e+00 -5.293258428573608398e-01 2.000000000000000000e+00
-1.727060317993164062e+00 1.603760361671447976e+00 -6.315184831619262695e-01 2.000000000000000000e+01
-1.997122526168823020e+00 1.855840802192687988e+00 -6.294130682945251465e-01 1.300000000000000000e+01
-2.323702573776245117e+00 2.160073518753052202e+00 -6.166946887969970703e-01 1.100000000000000000e+01
-2.820370674133300781e+00 2.623603343963623047e+00 -6.100944280624389648e-01 9.000000000000000000e+00
-3.580156326293944868e+00 3.332713365554810014e+00 -6.005721092224121094e-01 9.000000000000000000e+00
-4.833567142486572266e+00 4.501069545745849609e+00 -5.778425931930541992e-01 5.000000000000000000e+00
-7.403789997100830078e+00 6.899315834045410156e+00 -5.303725600242614746e-01 2.000000000000000000e+00
-1.720321297645569070e+00 1.608159422874450906e+00 -6.310008168220520020e-01 1.900000000000000000e+01
-1.986687898635864036e+00 1.858459472656250000e+00 -6.280633211135864258e-01 1.300000000000000000e+01
-2.316526651382445845e+00 2.167767286300659180e+00 -6.166946887969970703e-01 1.100000000000000000e+01
-2.797236204147338867e+00 2.619439363479613814e+00 -6.069657206535339355e-01 9.000000000000000000e+00
-3.560394048690795898e+00 3.336422920227050781e+00 -5.991097092628479004e-01 9.000000000000000000e+00
-4.805532455444335938e+00 4.504809856414794922e+00 -5.762737989425659180e-01 4.000000000000000000e+00
-7.366303920745849609e+00 6.910164833068847656e+00 -5.293258428573608398e-01 2.000000000000000000e+00
-1.713290572166443093e+00 1.612830519676208052e+00 -6.304832100868225098e-01 1.600000000000000000e+01
-1.960330009460448997e+00 1.846675634384155051e+00 -6.217647194862365723e-01 1.400000000000000000e+01
-2.320376157760620117e+00 2.186611890792847124e+00 -6.197476387023925781e-01 1.200000000000000000e+01
-2.788075447082519975e+00 2.629187583923339844e+00 -6.069657206535339355e-01 9.000000000000000000e+00
-3.550169706344604048e+00 3.350193262100220171e+00 -5.993534326553344727e-01 9.000000000000000000e+00
-4.788329601287841797e+00 4.520189285278320312e+00 -5.760994553565979004e-01 5.000000000000000000e+00
-7.339233875274658203e+00 6.933093070983886719e+00 -5.291165113449096680e-01 2.000000000000000000e+00
-1.716062426567078081e+00 1.626775622367859109e+00 -6.335890293121337891e-01 1.800000000000000000e+01
-1.962354779243469016e+00 1.861554265022278054e+00 -6.244641542434692383e-01 1.400000000000000000e+01
-2.295640230178833008e+00 2.178481101989746094e+00 -6.151682138442993164e-01 1.100000000000000000e+01
-2.776016235351562944e+00 2.636183261871337891e+00 -6.063399910926818848e-01 9.000000000000000000e+00
-3.531258821487427202e+00 3.355727910995482954e+00 -5.981347560882568359e-01 9.000000000000000000e+00
-4.771077632904052734e+00 4.535503387451171875e+00 -5.759251713752746582e-01 5.000000000000000000e+00
-7.294729232788085938e+00 6.939397335052490234e+00 -5.276511311531066895e-01 2.000000000000000000e+00
-1.703386664390563965e+00 1.626086115837096946e+00 -6.310008168220520020e-01 1.700000000000000000e+01
-1.961481213569640891e+00 1.873777270317078081e+00 -6.262637376785278320e-01 1.200000000000000000e+01
-2.289441347122191939e+00 2.187837600708007812e+00 -6.155498027801513672e-01 1.100000000000000000e+01
-2.765369653701781782e+00 2.644491910934447798e+00 -6.060271263122558594e-01 9.000000000000000000e+00
-3.505181550979613814e+00 3.354309320449829102e+00 -5.956973433494567871e-01 9.000000000000000000e+00
-4.737946033477783203e+00 4.535596847534179688e+00 -5.738334059715270996e-01 4.000000000000000000e+00
-7.296422481536865234e+00 6.989687919616699219e+00 -5.295352339744567871e-01 2.000000000000000000e+00
-1.692413210868835005e+00 1.626371502876281960e+00 -6.289302706718444824e-01 1.800000000000000000e+01
-1.956661343574523926e+00 1.881622195243835005e+00 -6.267136335372924805e-01 9.000000000000000000e+00
-2.286418199539185014e+00 2.199500799179077148e+00 -6.166946887969970703e-01 1.100000000000000000e+01
-2.762277364730834961e+00 2.659127712249755859e+00 -6.072785854339599609e-01 8.000000000000000000e+00
-3.499757528305054155e+00 3.371423244476317915e+00 -5.966722965240478516e-01 9.000000000000000000e+00
-4.715706348419188565e+00 4.544370651245117188e+00 -5.729618668556213379e-01 4.000000000000000000e+00
-7.250201225280761719e+00 6.991662502288818359e+00 -5.278604626655578613e-01 2.000000000000000000e+00
-1.689502358436584029e+00 1.634956002235413042e+00 -6.299655437469482422e-01 1.700000000000000000e+01
-1.940281987190247026e+00 1.878951191902161089e+00 -6.235643029212951660e-01 7.000000000000000000e+00
-2.273086071014403853e+00 2.202004432678223100e+00 -6.151682138442993164e-01 1.100000000000000000e+01
-2.738795280456542969e+00 2.655004262924193892e+00 -6.041498780250549316e-01 8.000000000000000000e+00
-3.493667125701903853e+00 3.389147996902465820e+00 -5.976472496986389160e-01 9.000000000000000000e+00
-4.699814796447753906e+00 4.560803890228270596e+00 -5.729618668556213379e-01 5.000000000000000000e+00
-7.202826023101806641e+00 6.994665145874023438e+00 -5.261856913566589355e-01 2.000000000000000000e+00
-1.683784961700439009e+00 1.640843510627747026e+00 -6.299655437469482422e-01 1.700000000000000000e+01
-1.940687298774719016e+00 1.892515301704406960e+00 -6.258138418197631836e-01 6.000000000000000000e+00
-2.266791105270386186e+00 2.211296558380126953e+00 -6.155498027801513672e-01 1.200000000000000000e+01
-2.729510784149169922e+00 2.664548158645629883e+00 -6.041498780250549316e-01 8.000000000000000000e+00
-3.467615604400635210e+00 3.387450933456420898e+00 -5.952098965644836426e-01 9.000000000000000000e+00
-4.700965404510498047e+00 4.593891620635986328e+00 -5.750535726547241211e-01 5.000000000000000000e+00
-7.178366184234619141e+00 7.019764900207520419e+00 -5.261856913566589355e-01 2.000000000000000000e+00
-1.683562397956847922e+00 1.652123451232909934e+00 -6.320360898971557617e-01 1.800000000000000000e+01
-1.932678937911987083e+00 1.897912621498107910e+00 -6.253639459609985352e-01 8.000000000000000000e+00
-2.254856824874877930e+00 2.215068101882935014e+00 -6.144049763679504395e-01 1.300000000000000000e+01
-2.730054140090941939e+00 2.683753490447998047e+00 -6.063399910926818848e-01 9.000000000000000000e+00
-3.455770015716553178e+00 3.399534463882445845e+00 -5.952098965644836426e-01 9.000000000000000000e+00
-4.652238845825195312e+00 4.578131198883056641e+00 -5.710444450378417969e-01 6.000000000000000000e+00
-7.131049633026123047e+00 7.022357463836669922e+00 -5.245109796524047852e-01 2.000000000000000000e+00
-1.561915016174316051e+01 1.539182376861572088e+01 -3.827661871910095215e-01 3.000000000000000000e+00
-1.672288775444030984e+00 1.652558565139770952e+00 -6.299655437469482422e-01 1.700000000000000000e+01
-1.919113993644713911e+00 1.897796034812927024e+00 -6.231144070625305176e-01 9.000000000000000000e+00
-2.242923974990845171e+00 2.218783617019652876e+00 -6.132600903511047363e-01 1.200000000000000000e+01
-2.720669507980347124e+00 2.693266868591309038e+00 -6.063399910926818848e-01 9.000000000000000000e+00
-3.443882465362548828e+00 3.411576509475708008e+00 -5.952098965644836426e-01 9.000000000000000000e+00
-4.629153728485107422e+00 4.587330341339111328e+00 -5.701728463172912598e-01 6.000000000000000000e+00
-7.117839336395263672e+00 7.058457374572753906e+00 -5.253483057022094727e-01 2.000000000000000000e+00
-1.663771390914916992e+00 1.655660510063170943e+00 -6.289302706718444824e-01 1.700000000000000000e+01
-1.926286220550537109e+00 1.918234229087830034e+00 -6.276134252548217773e-01 1.200000000000000000e+01
-2.237946987152100053e+00 2.229370355606079102e+00 -6.140233278274536133e-01 1.200000000000000000e+01
-2.711251497268677202e+00 2.702747344970703125e+00 -6.063399910926818848e-01 9.000000000000000000e+00
-3.426331281661986861e+00 3.417969465255736861e+00 -5.942349433898925781e-01 9.000000000000000000e+00
-4.631446838378906250e+00 4.621757030487061435e+00 -5.724388957023620605e-01 3.000000000000000000e+00
-7.076198101043701172e+00 7.066324710845947266e+00 -5.240922570228576660e-01 2.000000000000000000e+00
-1.661001563072205034e+00 1.663902997970581055e+00 -6.299655437469482422e-01 1.800000000000000000e+01
-1.913033127784729004e+00 1.917713284492492898e+00 -6.253639459609985352e-01 1.300000000000000000e+01
-2.229155540466309038e+00 2.235389232635498047e+00 -6.136417388916015625e-01 1.100000000000000000e+01
-2.685541629791260210e+00 2.694932460784912109e+00 -6.025855541229248047e-01 9.000000000000000000e+00
-3.426183938980102983e+00 3.440565586090087891e+00 -5.961848497390747070e-01 9.000000000000000000e+00
-4.599227428436279297e+00 4.620145797729492188e+00 -5.703471899032592773e-01 3.000000000000000000e+00
-7.052726268768311435e+00 7.089751243591308594e+00 -5.240922570228576660e-01 2.000000000000000000e+00
-1.651103138923645020e+00 1.665575027465820090e+00 -6.284126639366149902e-01 1.900000000000000000e+01
-1.895355701446532981e+00 1.913303732872009055e+00 -6.217647194862365723e-01 1.400000000000000000e+01
-2.222720384597777876e+00 2.244551897048950195e+00 -6.140233278274536133e-01 1.200000000000000000e+01
-2.681676149368286133e+00 2.709906578063964844e+00 -6.038370132446289062e-01 9.000000000000000000e+00
-3.405778408050537109e+00 3.444035291671752930e+00 -5.947223901748657227e-01 9.000000000000000000e+00
-4.584473133087158203e+00 4.637588977813720703e+00 -5.705214738845825195e-01 4.000000000000000000e+00
-6.968983173370361328e+00 7.054649829864501953e+00 -5.196960568428039551e-01 2.000000000000000000e+00
-1.654765963554382102e+00 1.680965185165405051e+00 -6.320360898971557617e-01 2.000000000000000000e+01
-1.887298941612244096e+00 1.918518900871277078e+00 -6.213148236274719238e-01 1.300000000000000000e+01
-2.210742235183715820e+00 2.248097419738769975e+00 -6.128785014152526855e-01 1.100000000000000000e+01
-2.674969673156737837e+00 2.722068786621094194e+00 -6.044628024101257324e-01 9.000000000000000000e+00
-3.390954017639160156e+00 3.453069925308227983e+00 -5.942349433898925781e-01 9.000000000000000000e+00
-4.573839664459229404e+00 4.659250736236572266e+00 -5.712187290191650391e-01 4.000000000000000000e+00
-6.972288608551025391e+00 7.107448577880859375e+00 -5.217894911766052246e-01 2.000000000000000000e+00
-1.639435052871704102e+00 1.677061200141906960e+00 -6.284126639366149902e-01 1.600000000000000000e+01
-1.891484618186950906e+00 1.936246991157531960e+00 -6.249140501022338867e-01 1.300000000000000000e+01
-2.194651603698730025e+00 2.247373104095458984e+00 -6.105887889862060547e-01 1.200000000000000000e+01
-2.665451526641846147e+00 2.731389522552489790e+00 -6.044628024101257324e-01 9.000000000000000000e+00
-3.371950149536132812e+00 3.457779645919799805e+00 -5.930162072181701660e-01 8.000000000000000000e+00
-4.551984786987304688e+00 4.669481277465820312e+00 -5.705214738845825195e-01 7.000000000000000000e+00
-6.922350406646729404e+00 7.105991840362548828e+00 -5.199053883552551270e-01 2.000000000000000000e+00
-1.624151825904845969e+00 1.673070669174193892e+00 -6.247891783714294434e-01 1.800000000000000000e+01
-1.894212484359740989e+00 1.952628850936890093e+00 -6.280633211135864258e-01 1.300000000000000000e+01
-2.192260503768920898e+00 2.260657787322998047e+00 -6.121152639389038086e-01 1.100000000000000000e+01
-2.651776790618896040e+00 2.736421346664429155e+00 -6.035241484642028809e-01 8.000000000000000000e+00
-3.364002704620360884e+00 3.473806858062744141e+00 -5.937474370002746582e-01 9.000000000000000000e+00
-4.521800041198729581e+00 4.671027183532714844e+00 -5.687783956527709961e-01 6.000000000000000000e+00
-6.922499656677246094e+00 7.155951023101806641e+00 -5.217894911766052246e-01 2.000000000000000000e+00
-1.625005602836609109e+00 1.685683965682982954e+00 -6.273773908615112305e-01 1.900000000000000000e+01
-1.880625009536742942e+00 1.952211737632751021e+00 -6.258138418197631836e-01 1.500000000000000000e+01
-2.189803123474121094e+00 2.273952960968018022e+00 -6.136417388916015625e-01 1.200000000000000000e+01
-2.633990526199340820e+00 2.737121105194091797e+00 -6.016469597816467285e-01 8.000000000000000000e+00
-3.353232145309447798e+00 3.486959218978881836e+00 -5.939911603927612305e-01 8.000000000000000000e+00
-4.494421005249023438e+00 4.675292015075683594e+00 -5.673838853836059570e-01 6.000000000000000000e+00
-6.844900131225585938e+00 7.125338554382324219e+00 -5.178119540214538574e-01 2.000000000000000000e+00
-1.621038198471068892e+00 1.692175745964050071e+00 -6.278949975967407227e-01 1.800000000000000000e+01
-1.867744803428649902e+00 1.951071739196776900e+00 -6.235643029212951660e-01 1.400000000000000000e+01
-2.178576469421387163e+00 2.276566028594971147e+00 -6.124968528747558594e-01 1.200000000000000000e+01
-2.629474163055419922e+00 2.749665498733520952e+00 -6.025855541229248047e-01 9.000000000000000000e+00
-3.331289291381835938e+00 3.485995292663574219e+00 -5.920412540435791016e-01 8.000000000000000000e+00
-4.486592292785645419e+00 4.696591854095458984e+00 -5.682554244995117188e-01 6.000000000000000000e+00
-6.847305774688720703e+00 7.172811508178710938e+00 -5.196960568428039551e-01 2.000000000000000000e+00
-1.624442100524901900e+00 1.707621812820435014e+00 -6.315184831619262695e-01 1.900000000000000000e+01
-1.859580278396606001e+00 1.956167101860045943e+00 -6.231144070625305176e-01 1.300000000000000000e+01
-2.166559219360352007e+00 2.279887199401855025e+00 -6.113520264625549316e-01 1.100000000000000000e+01
-2.623940944671630859e+00 2.763124465942382812e+00 -6.035241484642028809e-01 8.000000000000000000e+00
-3.316367864608765093e+00 3.494722366333007812e+00 -5.915538072586059570e-01 8.000000000000000000e+00
-4.468799591064453125e+00 4.710778713226318359e+00 -5.680811405181884766e-01 6.000000000000000000e+00
-6.802989006042479581e+00 7.176376342773438388e+00 -5.182306170463562012e-01 2.000000000000000000e+00
-1.611540675163269043e+00 1.706541419029236062e+00 -6.289302706718444824e-01 1.800000000000000000e+01
-5.837395095825195312e+01 6.183672714233397727e+01 1.484327197074889915e+00 8.000000000000000000e+00
-1.855072975158690962e+00 1.965804219245911089e+00 -6.240141987800598145e-01 1.300000000000000000e+01
-2.156841278076171875e+00 2.286384582519530806e+00 -6.109703779220581055e-01 1.200000000000000000e+01
-2.615150928497314009e+00 2.774160623550415039e+00 -6.038370132446289062e-01 9.000000000000000000e+00
-3.308981418609619141e+00 3.512633800506591797e+00 -5.925287604331970215e-01 8.000000000000000000e+00
-4.429649353027343750e+00 4.703918457031250000e+00 -5.652921199798583984e-01 6.000000000000000000e+00
-6.743791103363037109e+00 7.166354179382324219e+00 -5.157185196876525879e-01 2.000000000000000000e+00
-1.597645163536071999e+00 1.703701257705688032e+00 -6.258244514465332031e-01 1.700000000000000000e+01
-1.850864768028259055e+00 1.975111603736876997e+00 -6.249140501022338867e-01 1.300000000000000000e+01
-2.150189399719237837e+00 2.295332193374633789e+00 -6.113520264625549316e-01 1.100000000000000000e+01
-2.608151197433472124e+00 2.786156415939331055e+00 -6.044628024101257324e-01 9.000000000000000000e+00
-3.285851001739501953e+00 3.512565374374390093e+00 -5.905788540840148926e-01 8.000000000000000000e+00
-4.406398296356201172e+00 4.712075710296630859e+00 -5.644205808639526367e-01 4.000000000000000000e+00
-6.732371330261229581e+00 7.204443454742431641e+00 -5.167652368545532227e-01 2.000000000000000000e+00
-1.594620227813720925e+00 1.711816906929015891e+00 -6.268597245216369629e-01 1.700000000000000000e+01
-1.844304919242859109e+00 1.981238484382628950e+00 -6.249140501022338867e-01 1.200000000000000000e+01
-2.143903255462646040e+00 2.303887128829956055e+00 -6.117336153984069824e-01 1.200000000000000000e+01
-2.585445880889893022e+00 2.780324220657349077e+00 -6.013340950012207031e-01 9.000000000000000000e+00
-3.274184703826903853e+00 3.523442506790161133e+00 -5.905788540840148926e-01 8.000000000000000000e+00
-4.404308319091796875e+00 4.741259574890136719e+00 -5.661637187004089355e-01 6.000000000000000000e+00
-6.716596126556395596e+00 7.235512256622313565e+00 -5.173932909965515137e-01 2.000000000000000000e+00
-1.589946985244750977e+00 1.718790888786315918e+00 -6.273773908615112305e-01 1.900000000000000000e+01
-1.829441070556641069e+00 1.979078173637389915e+00 -6.222146153450012207e-01 1.200000000000000000e+01
-2.134515762329102007e+00 2.309914827346802202e+00 -6.113520264625549316e-01 1.100000000000000000e+01
-2.578405141830443892e+00 2.792234659194945845e+00 -6.019598245620727539e-01 9.000000000000000000e+00
-3.265904426574707031e+00 3.539226531982421875e+00 -5.913100838661193848e-01 9.000000000000000000e+00
-4.363415241241455078e+00 4.730244159698486328e+00 -5.630260705947875977e-01 4.000000000000000000e+00
