-9.279653429985046387e-01 -7.786554098129272461e-01 1.059813797473907054e-01 7.100000000000000000e+01
-9.655797481536865234e-01 -8.099305033683776855e-01 -1.996103823184967041e-01 4.700000000000000000e+01
-9.446119666099548340e-01 -7.920618057250976562e-01 1.513617187738419134e-01 6.500000000000000000e+01
-9.675702452659606934e-01 -8.110248446464538574e-01 -1.550178080797194879e-01 4.900000000000000000e+01
-9.325568079948425293e-01 -7.816763520240783691e-01 1.927272677421570102e-01 6.500000000000000000e+01
-9.498888850212097168e-01 -7.959219813346862793e-01 -1.084217429161072055e-01 7.200000000000000000e+01
-9.647311568260192871e-01 -8.080719709396362305e-01 2.446171343326568881e-01 9.900000000000000000e+01
-9.647396802902221680e-01 -8.077926039695739746e-01 -6.594330817461013794e-02 6.900000000000000000e+01
-9.324749112129211426e-01 -7.804999947547912598e-01 2.807389199733734131e-01 7.200000000000000000e+01
-9.523959159851074219e-01 -7.968916296958923340e-01 -2.167588844895362854e-02 5.500000000000000000e+01
-9.304552078247070312e-01 -7.785333395004272461e-01 3.250767290592194159e-01 8.400000000000000000e+01
-9.505751729011535645e-01 -7.928329706192016602e-01 2.160607837140560150e-02 5.700000000000000000e+01
-2.445688486099243164e+00 -2.039117574691772017e+00 -7.351400256156921387e-01 1.400000000000000000e+01
-9.527618288993835449e-01 -7.940930128097534180e-01 6.500125676393508911e-02 5.800000000000000000e+01
-2.937811136245727983e+00 -2.448560714721680132e+00 -7.433918714523315430e-01 8.000000000000000000e+00
-9.230241179466247559e-01 -7.690346837043762207e-01 1.051098257303238054e-01 7.300000000000000000e+01
-9.653653502464294434e-01 -8.040266633033752441e-01 -1.989846378564834872e-01 4.500000000000000000e+01
-9.397432208061218262e-01 -7.824089527130126953e-01 1.501430273056029996e-01 6.900000000000000000e+01
-9.856531023979187012e-01 -8.203412890434265137e-01 -1.574551910161972046e-01 5.100000000000000000e+01
-9.430081844329833984e-01 -7.845700979232788086e-01 1.942916065454483032e-01 6.800000000000000000e+01
-9.649142622947692871e-01 -8.027956485748291016e-01 -1.098162382841109952e-01 7.000000000000000000e+01
-9.449045062065124512e-01 -7.858687639236450195e-01 2.388928681612015048e-01 9.400000000000000000e+01
-9.629461169242858887e-01 -8.005895614624023438e-01 -6.562928855419158936e-02 6.600000000000000000e+01
-9.381911158561706543e-01 -7.797314524650573730e-01 2.816387116909027100e-01 7.200000000000000000e+01
-9.644004702568054199e-01 -8.012295365333557129e-01 -2.188531681895256042e-02 5.500000000000000000e+01
-9.301952719688415527e-01 -7.728116512298583984e-01 3.240414559841156006e-01 8.600000000000000000e+01
-2.091645956039429155e+00 -1.732821106910706010e+00 -7.277991771697998047e-01 2.400000000000000000e+01
-9.579572081565856934e-01 -7.933363914489746094e-01 2.171079441905022014e-02 5.900000000000000000e+01
-2.442283868789672852e+00 -2.021869182586669922e+00 -7.319907546043395996e-01 1.600000000000000000e+01
-9.478344917297363281e-01 -7.843955755233764648e-01 6.447789818048477173e-02 5.700000000000000000e+01
-2.947852849960327148e+00 -2.439542770385742188e+00 -7.437734603881835938e-01 1.200000000000000000e+01
-9.333787560462951660e-01 -7.721580266952514648e-01 1.059813797473907054e-01 6.700000000000000000e+01
-9.818664789199829102e-01 -8.119819760322570801e-01 -2.018004655838012973e-01 4.500000000000000000e+01
-9.332886934280395508e-01 -7.715349793434143066e-01 1.486805975437164029e-01 6.300000000000000000e+01
-9.961616396903991699e-01 -8.232184052467346191e-01 -1.586738824844360074e-01 5.000000000000000000e+01
-9.533557891845703125e-01 -7.875640988349914551e-01 1.958559453487395963e-01 7.100000000000000000e+01
-9.769269227981567383e-01 -8.070361614227294922e-01 -1.108621060848235945e-01 6.600000000000000000e+01
-9.491557478904724121e-01 -7.838157415390014648e-01 2.392744868993758878e-01 9.500000000000000000e+01
-9.626542925834655762e-01 -7.946803569793701172e-01 -6.541994214057922363e-02 6.600000000000000000e+01
-9.363980293273925781e-01 -7.727307677268981934e-01 2.802890241146088202e-01 7.700000000000000000e+01
-9.702765345573425293e-01 -8.004032969474792480e-01 -2.195512689650059093e-02 5.600000000000000000e+01
-9.360024333000183105e-01 -7.718552947044372559e-01 3.250767290592194159e-01 8.600000000000000000e+01
-2.097681999206542969e+00 -1.725509405136107954e+00 -7.277991771697998047e-01 2.500000000000000000e+01
-9.684435129165649414e-01 -7.963380217552185059e-01 2.188531681895256042e-02 5.700000000000000000e+01
-2.444810390472412109e+00 -2.009619474411011186e+00 -7.306410074234008789e-01 1.400000000000000000e+01
-9.490236043930053711e-01 -7.798142433166503906e-01 6.437322497367858887e-02 5.300000000000000000e+01
-2.948766231536864790e+00 -2.423005819320679155e+00 -7.418653964996337891e-01 1.200000000000000000e+01
-9.468454718589782715e-01 -7.777476906776428223e-01 1.072015613317490040e-01 6.500000000000000000e+01
-9.938548207283020020e-01 -8.160710930824279785e-01 -2.036776691675185880e-01 3.600000000000000000e+01
-9.467169046401977539e-01 -7.770887613296508789e-01 1.503867655992507935e-01 6.500000000000000000e+01
-9.974945187568664551e-01 -8.184769749641418457e-01 -1.584301441907882968e-01 5.100000000000000000e+01
-9.454078674316406250e-01 -7.754620909690856934e-01 1.936658620834350863e-01 6.700000000000000000e+01
-9.920618534088134766e-01 -8.137295246124267578e-01 -1.122565940022468983e-01 7.300000000000000000e+01
-9.534041285514831543e-01 -7.817426323890686035e-01 2.396561056375504095e-01 8.700000000000000000e+01
-9.700564146041870117e-01 -7.951135635375976562e-01 -6.573396176099777222e-02 6.900000000000000000e+01
-9.270306825637817383e-01 -7.595767378807067871e-01 2.766897976398468018e-01 8.000000000000000000e+01
-9.699705839157104492e-01 -7.944772839546203613e-01 -2.188531681895256042e-02 5.700000000000000000e+01
-9.385568499565124512e-01 -7.687471508979797363e-01 3.250767290592194159e-01 8.600000000000000000e+01
-2.103692293167113814e+00 -1.718176603317260964e+00 -7.277991771697998047e-01 2.700000000000000000e+01
-9.774132966995239258e-01 -7.980113625526428223e-01 2.202493697404861103e-02 5.700000000000000000e+01
-2.462378501892089844e+00 -2.009698629379272017e+00 -7.337903380393981934e-01 1.800000000000000000e+01
-9.563825130462646484e-01 -7.802845835685729980e-01 6.468724459409713745e-02 5.000000000000000000e+01
-2.955684900283813032e+00 -2.411456823348999023e+00 -7.414837479591369629e-01 1.300000000000000000e+01
-9.526425600051879883e-01 -7.769563198089599609e-01 1.075501888990401944e-01 6.700000000000000000e+01
-9.921042919158935547e-01 -8.088522553443908691e-01 -2.027390599250792902e-01 6.000000000000000000e+00
-9.463461041450500488e-01 -7.712711691856384277e-01 1.498992890119552890e-01 6.500000000000000000e+01
-1.006501436233520952e+00 -8.200053572654724121e-01 -1.594050973653793057e-01 5.100000000000000000e+01
-9.450456500053405762e-01 -7.696624398231506348e-01 1.930401325225830078e-01 6.800000000000000000e+01
-9.825372695922851562e-01 -8.001962900161743164e-01 -1.108621060848235945e-01 7.500000000000000000e+01
-9.546046257019042969e-01 -7.771703600883483887e-01 2.392744868993758878e-01 9.100000000000000000e+01
-9.836695790290832520e-01 -8.005475401878356934e-01 -6.646666675806045532e-02 6.400000000000000000e+01
-9.342114925384521484e-01 -7.600256204605102539e-01 2.780395150184630793e-01 9.700000000000000000e+01
-9.742892980575561523e-01 -7.923483252525329590e-01 -2.192022278904914856e-02 5.200000000000000000e+01
-9.382370114326477051e-01 -7.630285024642944336e-01 3.240414559841156006e-01 8.000000000000000000e+01
-2.105473518371582031e+00 -1.706804990768433061e+00 -7.262462377548217773e-01 2.300000000000000000e+01
-9.818851947784423828e-01 -7.956826090812683105e-01 2.205984108150004994e-02 5.900000000000000000e+01
-2.466699361801147017e+00 -1.998206615447998047e+00 -7.328905463218688965e-01 1.600000000000000000e+01
-9.777237176895141602e-01 -7.920276522636413574e-01 6.594330817461013794e-02 4.600000000000000000e+01
-2.966029167175292969e+00 -2.401843070983887163e+00 -7.418653964996337891e-01 1.200000000000000000e+01
-9.369006752967834473e-01 -7.584165334701538086e-01 1.054584458470344960e-01 6.400000000000000000e+01
-3.729947805404663086e+00 -3.018296957015991211e+00 -7.599586248397827148e-01 1.100000000000000000e+01
-9.522533416748046875e-01 -7.702943682670593262e-01 1.503867655992507935e-01 6.500000000000000000e+01
-1.014130949974060059e+00 -8.200554251670837402e-01 -1.601363122463226041e-01 4.700000000000000000e+01
-9.446544647216796875e-01 -7.638747692108154297e-01 1.924143880605697909e-01 6.500000000000000000e+01
-9.823645949363708496e-01 -7.940847277641296387e-01 -1.105134785175322931e-01 6.900000000000000000e+01
-9.589737057685852051e-01 -7.749002575874328613e-01 2.396561056375504095e-01 8.700000000000000000e+01
-9.912582039833068848e-01 -8.007018566131591797e-01 -6.678067892789840698e-02 6.300000000000000000e+01
-9.491201639175415039e-01 -7.663906216621398926e-01 2.816387116909027100e-01 9.400000000000000000e+01
-9.865230321884155273e-01 -7.963081002235412598e-01 -2.212965115904808044e-02 5.200000000000000000e+01
-9.380208849906921387e-01 -7.571577429771423340e-01 3.230061829090117853e-01 7.600000000000000000e+01
-2.114428520202637163e+00 -1.701867699623107910e+00 -7.272815108299255371e-01 2.300000000000000000e+01
-9.799826741218566895e-01 -7.884896397590637207e-01 2.195512689650059093e-02 5.600000000000000000e+01
-2.479733467102050781e+00 -1.994469523429871050e+00 -7.346901297569274902e-01 1.900000000000000000e+01
-9.884027838706970215e-01 -7.946962714195251465e-01 6.646666675806045532e-02 5.100000000000000000e+01
-2.974395275115966797e+00 -2.391475200653076172e+00 -7.418653964996337891e-01 1.300000000000000000e+01
-9.504131078720092773e-01 -7.638786435127258301e-01 1.066786274313926974e-01 6.400000000000000000e+01
-3.731221437454224077e+00 -2.997835159301757812e+00 -7.580814361572265625e-01 1.100000000000000000e+01
-9.518409371376037598e-01 -7.644795775413513184e-01 1.498992890119552890e-01 6.500000000000000000e+01
-1.016987204551696999e+00 -8.165104389190673828e-01 -1.601363122463226041e-01 1.900000000000000000e+01
-9.566912651062011719e-01 -7.678259015083312988e-01 1.942916065454483032e-01 6.500000000000000000e+01
-1.003776431083678977e+00 -8.056157827377319336e-01 -1.126052215695381026e-01 6.900000000000000000e+01
-9.601414203643798828e-01 -7.703195214271545410e-01 2.392744868993758878e-01 8.900000000000000000e+01
-9.924890995025634766e-01 -7.959872484207153320e-01 -6.667600572109222412e-02 5.900000000000000000e+01
-9.609121680259704590e-01 -7.703866958618164062e-01 2.843381464481353760e-01 9.200000000000000000e+01
-1.003340363502501997e+00 -8.041146993637084961e-01 -2.244379557669163097e-02 5.700000000000000000e+01
-9.422973394393920898e-01 -7.549225091934204102e-01 3.235238194465637207e-01 7.300000000000000000e+01
-2.117042541503905806e+00 -1.692434072494507058e+00 -7.262462377548217773e-01 1.900000000000000000e+01
-9.904027581214904785e-01 -7.914775013923645020e-01 2.212965115904808044e-02 5.400000000000000000e+01
-2.478720903396606001e+00 -1.980153918266295943e+00 -7.324406504631042480e-01 1.900000000000000000e+01
-9.955759048461914062e-01 -7.953269481658935547e-01 6.678067892789840698e-02 4.800000000000000000e+01
-2.983843326568603960e+00 -2.382823705673218218e+00 -7.422469854354858398e-01 1.200000000000000000e+01
-9.576122760772705078e-01 -7.644518017768859863e-01 1.072015613317490040e-01 6.700000000000000000e+01
-3.734966039657593218e+00 -2.980516910552978960e+00 -7.568299174308776855e-01 1.100000000000000000e+01
-9.512671828269958496e-01 -7.588431239128112793e-01 1.494118124246597012e-01 6.600000000000000000e+01
-5.129487514495849609e+00 -4.090420246124267578e+00 -8.055563569068908691e-01 7.000000000000000000e+00
-9.623215198516845703e-01 -7.671118378639221191e-01 1.949173361063004095e-01 6.800000000000000000e+01
-1.008000493049622026e+00 -8.035246729850769043e-01 -1.127795279026030939e-01 6.300000000000000000e+01
-9.565490484237670898e-01 -7.622373104095458984e-01 2.377480119466781894e-01 9.100000000000000000e+01
-1.001371979713439941e+00 -7.976693511009216309e-01 -6.709469854831695557e-02 5.400000000000000000e+01
-9.573637247085571289e-01 -7.623402476310729980e-01 2.825385332107543945e-01 9.400000000000000000e+01
-1.012259483337401900e+00 -8.057646751403808594e-01 -2.258341386914252888e-02 5.600000000000000000e+01
-9.371070265769958496e-01 -7.459428310394287109e-01 3.209356069564818781e-01 9.600000000000000000e+01
-2.130503177642821822e+00 -1.691038966178894043e+00 -7.288344502449035645e-01 2.100000000000000000e+01
-9.962924718856811523e-01 -7.905014157295227051e-01 2.219946123659611095e-02 5.400000000000000000e+01
-2.481037378311156782e+00 -1.967856526374816895e+00 -7.310909032821655273e-01 1.800000000000000000e+01
-9.889572262763977051e-01 -7.844000458717346191e-01 6.615264713764190674e-02 4.700000000000000000e+01
-2.984450817108153853e+00 -2.366294860839844194e+00 -7.403389215469360352e-01 1.300000000000000000e+01
-9.618362784385681152e-01 -7.623420357704162598e-01 1.073758751153946062e-01 6.900000000000000000e+01
-3.753088712692261186e+00 -2.973595142364501953e+00 -7.583943009376525879e-01 1.200000000000000000e+01
-9.461295604705810547e-01 -7.493554949760437012e-01 1.481931209564208984e-01 6.200000000000000000e+01
-5.095487594604492188e+00 -4.034291267395020419e+00 -7.980004549026489258e-01 1.200000000000000000e+01
-9.634444117546081543e-01 -7.625221014022827148e-01 1.946044713258743009e-01 6.500000000000000000e+01
-1.027984261512755904e+00 -8.136024475097656250e-01 -1.146969571709633012e-01 4.200000000000000000e+01
-9.653625488281250000e-01 -7.637662291526794434e-01 2.392744868993758878e-01 8.900000000000000000e+01
-1.018249154090880904e+00 -8.053196072578430176e-01 -6.803674250841140747e-02 4.900000000000000000e+01
-9.508467912673950195e-01 -7.517422437667846680e-01 2.798390984535216730e-01 9.200000000000000000e+01
-1.016634821891784890e+00 -8.034662008285522461e-01 -2.261831797659397125e-02 5.300000000000000000e+01
-9.578930139541625977e-01 -7.570413947105407715e-01 3.271472752094268799e-01 1.000000000000000000e+02
-2.128806352615356001e+00 -1.677613258361815962e+00 -7.262462377548217773e-01 2.000000000000000000e+01
-1.014754056930541992e+00 -7.993934154510498047e-01 2.254850976169108998e-02 5.300000000000000000e+01
-2.494015455245972124e+00 -1.964006662368773970e+00 -7.328905463218688965e-01 1.800000000000000000e+01
-9.981029033660888672e-01 -7.857116460800170898e-01 6.657133996486663818e-02 4.900000000000000000e+01
-2.983436822891234907e+00 -2.348576545715332031e+00 -7.380492091178894043e-01 1.200000000000000000e+01
-9.597942829132080078e-01 -7.552836537361145020e-01 1.068529412150382996e-01 6.600000000000000000e+01
-3.764998197555541992e+00 -2.961697578430175781e+00 -7.587071657180786133e-01 1.100000000000000000e+01
-9.721459746360778809e-01 -7.644541263580322266e-01 1.518491953611373901e-01 6.500000000000000000e+01
-5.117341995239257812e+00 -4.022614002227783203e+00 -7.992191314697265625e-01 1.000000000000000000e+01
-9.597557187080383301e-01 -7.544398903846740723e-01 1.933529973030090054e-01 6.200000000000000000e+01
-1.057450056076050027e+00 -8.309364318847656250e-01 -1.176602542400359969e-01 8.000000000000000000e+00
-9.695666432380676270e-01 -7.616045475006103516e-01 2.396561056375504095e-01 8.600000000000000000e+01
-1.028908252716064009e+00 -8.079277276992797852e-01 -6.856010109186172485e-02 4.500000000000000000e+01
-9.565308690071105957e-01 -7.508251070976257324e-01 2.807389199733734131e-01 9.200000000000000000e+01
-1.016286849975585938e+00 -7.974437475204467773e-01 -2.254850976169108998e-02 5.100000000000000000e+01
-9.515410661697387695e-01 -7.463717460632324219e-01 3.240414559841156006e-01 1.000000000000000000e+02
-2.128563404083251953e+00 -1.665410399436950906e+00 -7.241756916046142578e-01 1.700000000000000000e+01
-1.014387965202331987e+00 -7.933824658393859863e-01 2.247869968414306988e-02 5.400000000000000000e+01
-2.502391099929810014e+00 -1.956489324569701926e+00 -7.333404421806335449e-01 1.700000000000000000e+01
-1.006996631622314009e+00 -7.873182296752929688e-01 6.699002534151077271e-02 5.200000000000000000e+01
-2.997804164886475053e+00 -2.342983961105347124e+00 -7.395756840705871582e-01 1.100000000000000000e+01
-9.749850630760192871e-01 -7.617418169975280762e-01 1.082474291324615062e-01 6.500000000000000000e+01
-3.769086122512816939e+00 -2.943673610687255859e+00 -7.574557065963745117e-01 1.100000000000000000e+01
-9.685496687889099121e-01 -7.561696171760559082e-01 1.508742421865462979e-01 6.500000000000000000e+01
-5.168910026550292969e+00 -4.034038543701171875e+00 -8.050689101219177246e-01 1.000000000000000000e+00
-9.656293988227844238e-01 -7.533472776412963867e-01 1.939787417650223056e-01 6.300000000000000000e+01
-9.737673401832580566e-01 -7.594228386878967285e-01 2.400377094745635986e-01 7.300000000000000000e+01
-1.063225150108336958e+00 -8.288909792900085449e-01 -7.065354287624359131e-02 9.000000000000000000e+00
-9.652943015098571777e-01 -7.522731423377990723e-01 2.825385332107543945e-01 8.900000000000000000e+01
-1.023796796798706055e+00 -7.975781559944152832e-01 -2.265322394669055939e-02 3.100000000000000000e+01
-9.419471025466918945e-01 -7.335498929023742676e-01 3.199003338813781738e-01 1.000000000000000000e+02
-2.145043134689331055e+00 -1.666265964508057085e+00 -7.277991771697998047e-01 1.000000000000000000e+01
-1.013992428779602051e+00 -7.873838543891906738e-01 2.240888960659503937e-02 5.300000000000000000e+01
-2.507665872573852983e+00 -1.946547508239746094e+00 -7.328905463218688965e-01 1.500000000000000000e+01
-1.012894272804260032e+00 -7.862477302551269531e-01 6.719936430454254150e-02 5.700000000000000000e+01
-3.010617733001708984e+00 -2.336116075515747070e+00 -7.407205104827880859e-01 1.200000000000000000e+01
-9.713408946990966797e-01 -7.534492611885070801e-01 1.075501888990401944e-01 6.100000000000000000e+01
-3.784021854400635210e+00 -2.934130430221558061e+00 -7.583943009376525879e-01 1.200000000000000000e+01
-9.664764404296875000e-01 -7.491357326507568359e-01 1.501430273056029996e-01 6.900000000000000000e+01
-9.681222438812255859e-01 -7.501410245895385742e-01 1.939787417650223056e-01 6.100000000000000000e+01
-9.686506390571594238e-01 -7.500094771385192871e-01 2.381296306848526001e-01 3.400000000000000000e+01
-9.632905125617980957e-01 -7.453215122222900391e-01 2.811888158321381170e-01 8.100000000000000000e+01
-9.536718726158142090e-01 -7.373473048210144043e-01 3.230061829090117853e-01 9.700000000000000000e+01
-1.034155368804932085e+00 -7.972698211669921875e-01 2.279284223914146076e-02 2.800000000000000000e+01
-2.515988826751708984e+00 -1.938971757888793945e+00 -7.333404421806335449e-01 4.000000000000000000e+00
-1.025124430656433105e+00 -7.900223135948181152e-01 6.782739609479904175e-02 5.700000000000000000e+01
-3.020309209823607954e+00 -2.326791048049927202e+00 -7.411021590232849121e-01 8.000000000000000000e+00
-9.850148558616638184e-01 -7.585635781288146973e-01 1.087703704833983959e-01 5.200000000000000000e+01
-3.784848928451538086e+00 -2.913673877716064009e+00 -7.565170526504516602e-01 9.000000000000000000e+00
-9.580731987953186035e-01 -7.372830510139465332e-01 1.484368592500686923e-01 6.600000000000000000e+01
-9.785633683204650879e-01 -7.527793049812316895e-01 1.955430805683135986e-01 6.100000000000000000e+01
-9.759323000907897949e-01 -7.502132058143615723e-01 2.392744868993758878e-01 7.900000000000000000e+01
-9.612500667572021484e-01 -7.383931279182434082e-01 2.798390984535216730e-01 9.700000000000000000e+01
-9.577723145484924316e-01 -7.351901531219482422e-01 3.235238194465637207e-01 9.500000000000000000e+01
-1.121410012245178001e+00 -8.583134412765502930e-01 -3.783934414386749268e-01 1.000000000000000000e+00
-1.024840235710144043e+00 -7.838330268859863281e-01 6.761805713176727295e-02 5.700000000000000000e+01
-1.003618478775023970e+00 -7.670467495918273926e-01 1.105134785175322931e-01 5.800000000000000000e+01
-9.670794606208801270e-01 -7.385860681533813477e-01 1.494118124246597012e-01 6.600000000000000000e+01
-9.750354290008544922e-01 -7.443928122520446777e-01 1.942916065454483032e-01 6.100000000000000000e+01
-9.864798188209533691e-01 -7.525851726531982422e-01 2.411825656890868863e-01 1.000000000000000000e+02
-9.515519142150878906e-01 -7.254133224487304688e-01 2.762399017810822088e-01 9.700000000000000000e+01
-9.634058475494384766e-01 -7.341843247413635254e-01 3.245590925216674805e-01 6.700000000000000000e+01
-1.122861027717590110e+00 -8.532249927520751953e-01 -3.778758049011229914e-01 1.400000000000000000e+01
-1.135377645492553933e+00 -8.624234199523925781e-01 2.488713152706623077e-02 1.000000000000000000e+00
-1.171778202056884988e+00 -8.897504806518554688e-01 -3.396760821342468262e-01 1.000000000000000000e+00
-1.056202054023742898e+00 -8.019916415214538574e-01 6.950215250253677368e-02 3.700000000000000000e+01
-1.015813112258910911e+00 -7.707647085189819336e-01 1.115593537688255033e-01 6.200000000000000000e+01
-9.743971824645996094e-01 -7.388039231300354004e-01 1.501430273056029996e-01 6.900000000000000000e+01
-9.634593725204467773e-01 -7.302458882331848145e-01 1.914757788181304932e-01 6.300000000000000000e+01
-9.797106385231018066e-01 -7.420250773429870605e-01 2.388928681612015048e-01 9.200000000000000000e+01
-1.125791907310486062e+00 -8.523567318916320801e-01 -7.400304079055786133e-02 2.000000000000000000e+00
-9.680631160736083984e-01 -7.326717376708984375e-01 2.802890241146088202e-01 8.700000000000000000e+01
-1.135436654090880904e+00 -8.590355515480041504e-01 -2.485222741961478840e-02 1.000000000000000000e+00
-9.522229433059692383e-01 -7.201605439186096191e-01 3.199003338813781738e-01 5.500000000000000000e+01
-1.117826819419861062e+00 -8.438733816146850586e-01 -3.752876222133635919e-01 4.200000000000000000e+01
-1.101369142532349077e+00 -8.311473727226257324e-01 2.408432029187678944e-02 9.000000000000000000e+00
-1.134119033813477007e+00 -8.555513620376586914e-01 -3.279786407947539728e-01 1.000000000000000000e+01
-1.095533013343811035e+00 -8.261430859565734863e-01 7.190960645675659180e-02 3.700000000000000000e+01
-1.169364094734191895e+00 -8.818191289901733398e-01 -2.846870124340056818e-01 1.000000000000000000e+00
-1.023002505302428977e+00 -7.711676359176635742e-01 1.120822876691817960e-01 6.100000000000000000e+01
-9.862268567085266113e-01 -7.429053783416748047e-01 1.516054570674895963e-01 6.200000000000000000e+01
-1.106875896453856978e+00 -8.334852457046508789e-01 -1.701295971870422086e-01 3.000000000000000000e+00
-9.752168655395507812e-01 -7.343450784683227539e-01 1.933529973030090054e-01 6.300000000000000000e+01
-1.103131651878356934e+00 -8.303640484809875488e-01 -1.207978576421737948e-01 8.000000000000000000e+00
-9.867432117462158203e-01 -7.424848675727844238e-01 2.400377094745635986e-01 9.500000000000000000e+01
-1.122079610824584961e+00 -8.440134525299072266e-01 -7.358435541391372681e-02 2.600000000000000000e+01
-9.750328063964843750e-01 -7.331402897834777832e-01 2.816387116909027100e-01 6.600000000000000000e+01
-1.118947744369507058e+00 -8.410462737083435059e-01 -2.443336881697177887e-02 1.200000000000000000e+01
-9.358243346214294434e-01 -7.034032940864562988e-01 3.136886954307556152e-01 4.500000000000000000e+01
-1.116128087043761985e+00 -8.364905714988708496e-01 -3.737347126007080078e-01 4.800000000000000000e+01
-1.083458781242371050e+00 -8.117110133171081543e-01 2.363055758178234100e-02 3.600000000000000000e+01
-1.133978962898253950e+00 -8.492510318756103516e-01 -3.270788192749022882e-01 4.600000000000000000e+01
-1.090415835380553977e+00 -8.163291215896606445e-01 7.138624787330627441e-02 4.800000000000000000e+01
-1.126857757568358931e+00 -8.436110019683837891e-01 -2.736200988292694092e-01 9.000000000000000000e+00
-1.049615502357482910e+00 -7.854984998703002930e-01 1.146969571709633012e-01 5.100000000000000000e+01
-1.154674649238585982e+00 -8.638069629669189453e-01 -2.283943146467208862e-01 3.000000000000000000e+00
-9.967626929283142090e-01 -7.454025149345397949e-01 1.528241634368895929e-01 6.500000000000000000e+01
-1.132037758827209029e+00 -8.462563157081604004e-01 -1.735419481992722113e-01 2.300000000000000000e+01
-9.763194918632507324e-01 -7.295833230018615723e-01 1.930401325225830078e-01 6.600000000000000000e+01
-1.118791341781615989e+00 -8.360496163368225098e-01 -1.221923530101775984e-01 3.900000000000000000e+01
-9.736003279685974121e-01 -7.272865772247314453e-01 2.362215369939804077e-01 8.200000000000000000e+01
-1.115417122840880904e+00 -8.329214453697204590e-01 -7.295632362365722656e-02 4.600000000000000000e+01
-9.713394045829772949e-01 -7.250695228576660156e-01 2.798390984535216730e-01 5.200000000000000000e+01
-1.109055280685425027e+00 -8.275680541992187500e-01 -2.415413036942481995e-02 2.800000000000000000e+01
-9.306536316871643066e-01 -6.941933035850524902e-01 3.111004829406737726e-01 4.300000000000000000e+01
-1.117491245269774947e+00 -8.314362764358520508e-01 -3.732170760631560724e-01 5.100000000000000000e+01
-1.079867243766784890e+00 -8.031505346298217773e-01 2.349093928933143963e-02 5.000000000000000000e+01
-1.121297717094420943e+00 -8.336604237556457520e-01 -3.225798010826110840e-01 5.700000000000000000e+01
-1.078831553459167036e+00 -8.017954826354980469e-01 7.044419646263122559e-02 5.100000000000000000e+01
-1.132947206497191939e+00 -8.420145511627197266e-01 -2.743833363056182861e-01 2.900000000000000000e+01
-1.050751686096190962e+00 -7.806416749954223633e-01 1.145226433873176991e-01 5.300000000000000000e+01
-1.129137277603148970e+00 -8.385713100433349609e-01 -2.227626740932464877e-01 1.000000000000000000e+01
-9.834198355674743652e-01 -7.300857901573181152e-01 1.503867655992507935e-01 5.800000000000000000e+01
-1.117449998855591042e+00 -8.292865157127380371e-01 -1.708608120679855069e-01 4.300000000000000000e+01
-9.914237260818481445e-01 -7.357594370841979980e-01 1.955430805683135986e-01 6.500000000000000000e+01
-1.105701446533202903e+00 -8.202684521675109863e-01 -1.204492375254631042e-01 5.300000000000000000e+01
-9.840178489685058594e-01 -7.297308444976806641e-01 2.381296306848526001e-01 6.000000000000000000e+01
-1.105481982231139915e+00 -8.195074796676635742e-01 -7.211894541978836060e-02 5.200000000000000000e+01
-9.566417932510375977e-01 -7.089117765426635742e-01 2.748901844024658203e-01 3.300000000000000000e+01
-1.105509877204895020e+00 -8.189304471015930176e-01 -2.401451207697391857e-02 4.600000000000000000e+01
-9.376075267791748047e-01 -6.945530772209167480e-01 3.126533925533295233e-01 4.700000000000000000e+01
-1.115724921226501021e+00 -8.240872025489807129e-01 -3.716641366481781006e-01 5.400000000000000000e+01
-1.079446792602539062e+00 -7.970006465911865234e-01 2.342112921178340912e-02 5.200000000000000000e+01
-1.117929220199584961e+00 -8.251123428344726562e-01 -3.207802176475524902e-01 5.500000000000000000e+01
-1.065552115440369096e+00 -7.861670851707458496e-01 6.939747929573059082e-02 5.400000000000000000e+01
-1.129560232162476030e+00 -8.333923816680908203e-01 -2.728568613529204767e-01 4.600000000000000000e+01
-1.050263285636902078e+00 -7.746039032936096191e-01 1.141740232706069946e-01 5.900000000000000000e+01
-1.128877639770508035e+00 -8.322803378105163574e-01 -2.221369445323944092e-01 2.300000000000000000e+01
-1.005138278007507102e+00 -7.407810688018798828e-01 1.533116400241852084e-01 6.500000000000000000e+01
-1.105954051017761008e+00 -8.147839307785034180e-01 -1.686671674251556119e-01 4.300000000000000000e+01
-9.909325838088989258e-01 -7.297779321670532227e-01 1.949173361063004095e-01 6.700000000000000000e+01
-1.114975094795227051e+00 -8.211297392845153809e-01 -1.211464852094649991e-01 6.000000000000000000e+01
-1.000788331031799094e+00 -7.367668747901916504e-01 2.415641844272614081e-01 7.300000000000000000e+01
-1.093858242034912109e+00 -8.049893975257873535e-01 -7.117690145969390869e-02 5.300000000000000000e+01
-9.418433904647827148e-01 -6.928656101226806641e-01 2.699412703514099121e-01 1.200000000000000000e+01
-1.101917862892151101e+00 -8.103277683258056641e-01 -2.387489192187786102e-02 4.900000000000000000e+01
-9.417034387588500977e-01 -6.922561526298522949e-01 3.131710588932036798e-01 4.300000000000000000e+01
-1.112505316734313965e+00 -8.154241442680358887e-01 -3.695935904979705811e-01 5.900000000000000000e+01
-1.082360744476317915e+00 -7.930389046669006348e-01 2.342112921178340912e-02 5.200000000000000000e+01
-1.119373679161071999e+00 -8.198578953742980957e-01 -3.203302919864655096e-01 5.700000000000000000e+01
-1.065203428268433061e+00 -7.798965573310852051e-01 6.918813288211822510e-02 5.400000000000000000e+01
-1.123102784156799094e+00 -8.222880363464355469e-01 -2.705671489238739014e-01 5.900000000000000000e+01
-1.046664237976073997e+00 -7.660424113273620605e-01 1.134767755866050998e-01 5.500000000000000000e+01
-1.119166493415832964e+00 -8.188061118125915527e-01 -2.196339815855025968e-01 3.100000000000000000e+01
-1.007846593856811968e+00 -7.370920777320861816e-01 1.533116400241852084e-01 5.800000000000000000e+01
-1.100920438766479048e+00 -8.048670887947082520e-01 -1.674484759569168091e-01 4.500000000000000000e+01
-9.855006337165832520e-01 -7.204853296279907227e-01 1.933529973030090054e-01 6.300000000000000000e+01
-1.108325600624084029e+00 -8.099840879440307617e-01 -1.201006099581718028e-01 6.600000000000000000e+01
-1.017749547958374023e+00 -7.435169816017150879e-01 2.449987530708312988e-01 1.000000000000000000e+02
-1.101640224456787109e+00 -8.045085072517395020e-01 -7.149091362953186035e-02 5.500000000000000000e+01
-9.459505081176757812e-01 -6.905579566955566406e-01 2.703911662101746161e-01 4.200000000000000000e+01
-1.093573212623595969e+00 -7.980321645736694336e-01 -2.363055758178234100e-02 5.400000000000000000e+01
-9.581587910652160645e-01 -6.992138624191284180e-01 3.178297877311707098e-01 2.800000000000000000e+01
-1.099723815917968972e+00 -8.001697659492492676e-01 -3.644172251224517822e-01 5.300000000000000000e+01
-1.077036499977112038e+00 -7.833747267723083496e-01 2.324660494923591961e-02 5.200000000000000000e+01
-1.125381112098694070e+00 -8.182375431060791016e-01 -3.212301135063170832e-01 5.700000000000000000e+01
-1.061456799507140891e+00 -7.714766263961791992e-01 6.876944750547409058e-02 5.400000000000000000e+01
-1.124378085136414018e+00 -8.172084093093872070e-01 -2.701855301856995184e-01 5.900000000000000000e+01
-1.034824967384337935e+00 -7.518443465232849121e-01 1.119079738855361938e-01 5.200000000000000000e+01
-1.098043084144592063e+00 -7.974821925163269043e-01 -2.149409502744674960e-01 4.800000000000000000e+01
-1.020051717758178933e+00 -7.405670285224914551e-01 1.547740697860718051e-01 5.000000000000000000e+01
-1.100510120391845925e+00 -7.986873388290405273e-01 -1.669609993696213046e-01 4.700000000000000000e+01
-9.913325905799865723e-01 -7.191883921623229980e-01 1.939787417650223056e-01 6.200000000000000000e+01
-1.096632003784179910e+00 -7.955806255340576172e-01 -1.185318082571029941e-01 7.200000000000000000e+01
-9.917310476303100586e-01 -7.192133069038391113e-01 2.381296306848526001e-01 9.200000000000000000e+01
-1.102824687957763894e+00 -7.994858622550964355e-01 -7.138624787330627441e-02 5.800000000000000000e+01
-9.578230381011962891e-01 -6.941128373146057129e-01 2.730905711650847834e-01 4.900000000000000000e+01
-1.093113303184509055e+00 -7.918637394905090332e-01 -2.356074936687945973e-02 5.900000000000000000e+01
-9.841853380203247070e-01 -7.126931548118591309e-01 3.255943655967711847e-01 2.600000000000000000e+01
-1.105642318725585938e+00 -7.985883951187133789e-01 -3.654524981975554865e-01 5.300000000000000000e+01
-1.068415522575377974e+00 -7.714163064956665039e-01 2.300227247178554882e-02 5.200000000000000000e+01
-1.117169260978698953e+00 -8.063208460807800293e-01 -3.180807828903198242e-01 5.500000000000000000e+01
-1.067382693290710005e+00 -7.701039314270019531e-01 6.897879391908645630e-02 6.800000000000000000e+01
-1.127223849296570046e+00 -8.132786154747009277e-01 -2.701855301856995184e-01 5.900000000000000000e+01
-1.042290925979614036e+00 -7.517239451408386230e-01 1.124309077858925005e-01 5.500000000000000000e+01
-1.081591844558716042e+00 -7.797816991806030273e-01 -2.111865282058716098e-01 5.100000000000000000e+01
-1.022630572319030984e+00 -7.370018959045410156e-01 1.547740697860718051e-01 5.300000000000000000e+01
-1.104902029037476030e+00 -7.960013151168823242e-01 -1.672047376632689875e-01 5.200000000000000000e+01
-1.000123143196105957e+00 -7.205157876014709473e-01 1.952302157878876010e-01 6.100000000000000000e+01
-1.099402427673340066e+00 -7.917478084564208984e-01 -1.185318082571029941e-01 7.200000000000000000e+01
-9.894555211067199707e-01 -7.123060822486877441e-01 2.369847744703293124e-01 9.500000000000000000e+01
-1.087776303291321023e+00 -7.827987074851989746e-01 -7.023485004901885986e-02 5.500000000000000000e+01
-9.713137149810791016e-01 -6.987311840057373047e-01 2.762399017810822088e-01 5.300000000000000000e+01
-1.089376688003540039e+00 -7.833733558654785156e-01 -2.342112921178340912e-02 5.700000000000000000e+01
-9.959538578987121582e-01 -7.161927819252014160e-01 3.287001848220825195e-01 3.100000000000000000e+01
-1.108423233032227007e+00 -7.947241067886352539e-01 -3.654524981975554865e-01 5.300000000000000000e+01
-1.066225767135619895e+00 -7.641873955726623535e-01 2.289755642414093018e-02 5.500000000000000000e+01
-1.108888149261475053e+00 -7.944716215133666992e-01 -3.149314820766448975e-01 5.600000000000000000e+01
-1.065193057060241921e+00 -7.628845572471618652e-01 6.866477429866790771e-02 6.700000000000000000e+01
-1.126863598823546919e+00 -8.070526719093322754e-01 -2.694222927093505859e-01 5.400000000000000000e+01
-1.041668534278870073e+00 -7.457614541053771973e-01 1.120822876691817960e-01 6.100000000000000000e+01
-1.087519884109497070e+00 -7.783007025718688965e-01 -2.118122726678847989e-01 5.100000000000000000e+01
-1.026811361312865989e+00 -7.345827817916870117e-01 1.550178080797194879e-01 6.100000000000000000e+01
-1.101215124130249023e+00 -7.875207662582397461e-01 -1.662297844886780063e-01 5.100000000000000000e+01
-1.012399077415466087e+00 -7.237380146980285645e-01 1.971074193716048917e-01 6.300000000000000000e+01
-1.098917722702025923e+00 -7.855880260467529297e-01 -1.181831881403923035e-01 7.500000000000000000e+01
-9.919359087944030762e-01 -7.088478803634643555e-01 2.369847744703293124e-01 9.900000000000000000e+01
-1.070999860763550027e+00 -7.650654911994934082e-01 -6.897879391908645630e-02 6.200000000000000000e+01
-9.674031734466552734e-01 -6.908065080642700195e-01 2.744402885437012274e-01 5.800000000000000000e+01
-1.093732118606566939e+00 -7.807277441024780273e-01 -2.345603518188000072e-02 6.100000000000000000e+01
-1.004862427711487038e+00 -7.170259952545166016e-01 3.307707309722899836e-01 3.600000000000000000e+01
-1.112764477729796919e+00 -7.919703722000122070e-01 -3.659701347351074219e-01 5.500000000000000000e+01
-1.075404405593872070e+00 -7.650978565216064453e-01 2.303717657923698078e-02 5.300000000000000000e+01
-1.111654639244080034e+00 -7.905960083007812500e-01 -3.149314820766448975e-01 5.700000000000000000e+01
-1.059710502624511941e+00 -7.533754110336303711e-01 6.814141571521759033e-02 6.800000000000000000e+01
-1.126473665237426980e+00 -8.008391261100769043e-01 -2.686590552330017090e-01 5.400000000000000000e+01
-1.042641401290893999e+00 -7.409666776657104492e-01 1.119079738855361938e-01 6.400000000000000000e+01
-1.096671581268310991e+00 -7.790759205818176270e-01 -2.130637466907500943e-01 5.500000000000000000e+01
-1.032606363296509011e+00 -7.332927584648132324e-01 1.555052846670151034e-01 6.700000000000000000e+01
-1.099101185798645020e+00 -7.802248001098632812e-01 -1.654985696077347079e-01 5.000000000000000000e+01
-1.009961128234863059e+00 -7.169464826583862305e-01 1.961688250303267878e-01 6.500000000000000000e+01
-1.104902982711791992e+00 -7.840533256530761719e-01 -1.185318082571029941e-01 7.700000000000000000e+01
-1.004011988639831987e+00 -7.121963500976562500e-01 2.392744868993758878e-01 1.000000000000000000e+02
-1.083439350128174050e+00 -7.682539224624633789e-01 -6.960681825876235962e-02 5.500000000000000000e+01
-9.713984727859497070e-01 -6.885523796081542969e-01 2.748901844024658203e-01 7.700000000000000000e+01
-1.089924216270446999e+00 -7.722806930541992188e-01 -2.331641502678393971e-02 6.100000000000000000e+01
-1.018268465995789018e+00 -7.215080261230468750e-01 3.343942165374755859e-01 4.300000000000000000e+01
-1.110788702964782937e+00 -7.847372293472290039e-01 -3.644172251224517822e-01 5.300000000000000000e+01
-1.071534752845763938e+00 -7.567251920700073242e-01 2.289755642414093018e-02 5.400000000000000000e+01
-1.114407539367676003e+00 -7.867107987403869629e-01 -3.149314820766448975e-01 6.300000000000000000e+01
-1.059070110321044922e+00 -7.473686337471008301e-01 6.793206930160522461e-02 6.600000000000000000e+01
-1.122846007347106934e+00 -7.923742532730102539e-01 -2.671325802803040106e-01 5.900000000000000000e+01
-1.048477649688720925e+00 -7.396196126937866211e-01 1.122565940022468983e-01 6.400000000000000000e+01
-1.102613091468811035e+00 -7.775198221206665039e-01 -2.136894762516022006e-01 5.700000000000000000e+01
-1.027047157287598100e+00 -7.239652872085571289e-01 1.542865931987761896e-01 6.600000000000000000e+01
-1.096949934959412065e+00 -7.729531526565551758e-01 -1.647673547267914096e-01 5.100000000000000000e+01
-1.010842919349669966e+00 -7.122788429260253906e-01 1.958559453487395963e-01 6.500000000000000000e+01
-1.097859859466552956e+00 -7.733076810836791992e-01 -1.174859404563903947e-01 7.700000000000000000e+01
-1.003281354904175027e+00 -7.064267992973327637e-01 2.385112494230270108e-01 8.100000000000000000e+01
-1.082847952842711958e+00 -7.621682286262512207e-01 -6.939747929573059082e-02 5.400000000000000000e+01
-9.722023010253906250e-01 -6.840359568595886230e-01 2.744402885437012274e-01 7.100000000000000000e+01
-1.081163883209228960e+00 -7.604185938835144043e-01 -2.307208068668841969e-02 6.300000000000000000e+01
-1.009719729423522949e+00 -7.101695537567138672e-01 3.307707309722899836e-01 6.100000000000000000e+01
-1.110221862792968972e+00 -7.788304686546325684e-01 -3.633819520473480225e-01 5.700000000000000000e+01
-1.067489266395569070e+00 -7.485752105712890625e-01 2.275793813169002880e-02 5.500000000000000000e+01
-1.123393177986145020e+00 -7.874853014945983887e-01 -3.167310953140258789e-01 6.100000000000000000e+01
-1.071356534957885964e+00 -7.507293820381164551e-01 6.856010109186172485e-02 5.800000000000000000e+01
-1.127075314521789995e+00 -7.897730469703674316e-01 -2.675141990184783936e-01 6.100000000000000000e+01
-1.039501428604125977e+00 -7.281371355056762695e-01 1.110364198684691966e-01 6.700000000000000000e+01
-1.105185389518738015e+00 -7.738591432571411133e-01 -2.136894762516022006e-01 5.600000000000000000e+01
-1.031068563461303933e+00 -7.216938138008117676e-01 1.545303314924240112e-01 6.200000000000000000e+01
-1.104386568069458008e+00 -7.727254033088684082e-01 -1.654985696077347079e-01 5.400000000000000000e+01
-1.016560435295104980e+00 -7.110103368759155273e-01 1.964816898107528964e-01 6.100000000000000000e+01
-1.095520257949829102e+00 -7.662369608879089355e-01 -1.169630065560341020e-01 7.900000000000000000e+01
-1.000791549682616965e+00 -6.997210383415222168e-01 2.373663932085036954e-01 4.500000000000000000e+01
-1.087006449699402078e+00 -7.597172856330871582e-01 -6.950215250253677368e-02 5.800000000000000000e+01
-9.904401302337646484e-01 -6.919690966606140137e-01 2.789393067359923761e-01 5.300000000000000000e+01
-1.082040071487426980e+00 -7.556841969490051270e-01 -2.303717657923698078e-02 5.900000000000000000e+01
-1.018404483795166016e+00 -7.112418413162231445e-01 3.328412771224976141e-01 7.200000000000000000e+01
-1.111348390579224077e+00 -7.738464474678039551e-01 -3.628643155097960871e-01 5.500000000000000000e+01
-1.060248255729675071e+00 -7.379900217056274414e-01 2.254850976169108998e-02 6.000000000000000000e+01
-1.118137121200561968e+00 -7.779940962791442871e-01 -3.144815862178801935e-01 6.500000000000000000e+01
-1.072330951690674050e+00 -7.458446621894836426e-01 6.845542788505554199e-02 5.600000000000000000e+01
-1.129825234413146973e+00 -7.858340144157409668e-01 -2.675141990184783936e-01 6.000000000000000000e+01
-1.043672561645508035e+00 -7.256415486335754395e-01 1.112107262015342990e-01 6.700000000000000000e+01
-1.093281269073486106e+00 -7.598502635955810547e-01 -2.108736634254456122e-01 5.500000000000000000e+01
-1.041732788085937944e+00 -7.237535119056701660e-01 1.557490229606627863e-01 6.500000000000000000e+01
-1.105446696281433105e+00 -7.677333354949951172e-01 -1.652548313140868863e-01 5.200000000000000000e+01
-1.023904204368591087e+00 -7.108371257781982422e-01 1.974202990531921109e-01 6.800000000000000000e+01
-1.101461529731750044e+00 -7.646806836128234863e-01 -1.173116266727448065e-01 7.900000000000000000e+01
-1.017744064331054910e+00 -7.062973380088806152e-01 2.408009469509125033e-01 9.700000000000000000e+01
-1.081446528434752974e+00 -7.502261400222778320e-01 -6.897879391908645630e-02 6.000000000000000000e+01
-9.912481307983398438e-01 -6.873970627784729004e-01 2.784894108772277832e-01 5.200000000000000000e+01
-1.084671258926392046e+00 -7.519025802612304688e-01 -2.303717657923698078e-02 5.900000000000000000e+01
-1.028943896293639915e+00 -7.130060195922851562e-01 3.354294896125792902e-01 6.900000000000000000e+01
-1.115632057189940962e+00 -7.710607647895812988e-01 -3.633819520473480225e-01 5.700000000000000000e+01
-1.066108345985413042e+00 -7.365579009056091309e-01 2.261831797659397125e-02 6.100000000000000000e+01
-1.111225008964539018e+00 -7.674418091773986816e-01 -3.117821514606475830e-01 6.500000000000000000e+01
-1.069996953010559082e+00 -7.386928796768188477e-01 6.814141571521759033e-02 5.400000000000000000e+01
-1.132561445236206055e+00 -7.818853855133056641e-01 -2.675141990184783936e-01 6.000000000000000000e+01
-1.051118612289428933e+00 -7.253890037536621094e-01 1.117336601018906056e-01 6.700000000000000000e+01
-1.099178910255431907e+00 -7.582727670669555664e-01 -2.114993929862976074e-01 4.800000000000000000e+01
-1.031179189682007058e+00 -7.110973000526428223e-01 1.537991166114807129e-01 6.500000000000000000e+01
-1.099947810173034890e+00 -7.582366466522216797e-01 -1.640361398458481113e-01 5.400000000000000000e+01
-1.036138772964477983e+00 -7.139838337898254395e-01 1.992975026369095126e-01 6.700000000000000000e+01
-1.099202275276184082e+00 -7.574396729469299316e-01 -1.167886927723884999e-01 7.200000000000000000e+01
-1.005652070045470969e+00 -6.927171945571899414e-01 2.373663932085036954e-01 1.000000000000000000e+02
-1.079123735427856001e+00 -7.430485486984252930e-01 -6.866477429866790771e-02 6.300000000000000000e+01
-9.775891900062561035e-01 -6.728838086128234863e-01 2.739903926849365234e-01 6.400000000000000000e+01
-1.087289333343506081e+00 -7.481117844581604004e-01 -2.303717657923698078e-02 6.700000000000000000e+01
-1.034485697746277078e+00 -7.117800712585449219e-01 3.364647626876831055e-01 6.800000000000000000e+01
-1.119909763336182085e+00 -7.682545781135559082e-01 -3.638995885848999023e-01 5.900000000000000000e+01
-1.070322036743164062e+00 -7.339628934860229492e-01 2.265322394669055939e-02 6.400000000000000000e+01
-1.118719100952147993e+00 -7.668637037277221680e-01 -3.131318688392639160e-01 6.900000000000000000e+01
-1.061035990715027078e+00 -7.270506620407104492e-01 6.740871071815490723e-02 5.200000000000000000e+01
-1.128805756568908913e+00 -7.734882831573486328e-01 -2.659877538681030273e-01 5.900000000000000000e+01
-1.052000522613524947e+00 -7.205895781517028809e-01 1.115593537688255033e-01 7.500000000000000000e+01
-1.100189208984375000e+00 -7.533152699470520020e-01 -2.111865282058716098e-01 4.600000000000000000e+01
-1.030378818511962891e+00 -7.052509784698486328e-01 1.533116400241852084e-01 6.600000000000000000e+01
-1.092757940292357954e+00 -7.476668953895568848e-01 -1.625737100839614868e-01 6.100000000000000000e+01
-1.038624763488769975e+00 -7.103626728057861328e-01 1.992975026369095126e-01 6.500000000000000000e+01
-1.105128526687622070e+00 -7.558476924896240234e-01 -1.171373203396797041e-01 7.500000000000000000e+01
-1.017788052558898926e+00 -6.958508491516113281e-01 2.396561056375504095e-01 1.000000000000000000e+02
-1.081710815429687944e+00 -7.392771840095520020e-01 -6.866477429866790771e-02 6.300000000000000000e+01
-9.911956191062927246e-01 -6.771622896194458008e-01 2.771396934986115057e-01 7.200000000000000000e+01
-1.081637382507323997e+00 -7.386731505393981934e-01 -2.286265231668949127e-02 6.500000000000000000e+01
-1.041749954223633035e+00 -7.114331722259521484e-01 3.380176723003386896e-01 6.600000000000000000e+01
-1.117926955223083052e+00 -7.608838081359863281e-01 -3.623466491699218750e-01 5.700000000000000000e+01
-1.079618215560913086e+00 -7.345345020294189453e-01 2.279284223914146076e-02 6.300000000000000000e+01
-1.123133659362792969e+00 -7.638541460037231445e-01 -3.135817646980286200e-01 6.500000000000000000e+01
-1.065218925476073997e+00 -7.244657278060913086e-01 6.751338392496109009e-02 5.300000000000000000e+01
-1.118644475936890093e+00 -7.605154514312744141e-01 -2.629348039627075195e-01 6.000000000000000000e+01
-1.052986741065979004e+00 -7.156090736389160156e-01 1.113850399851799011e-01 7.300000000000000000e+01
-1.104576826095581055e+00 -7.503878474235534668e-01 -2.114993929862976074e-01 4.700000000000000000e+01
-1.042810082435607910e+00 -7.081609964370727539e-01 1.547740697860718051e-01 6.500000000000000000e+01
-1.097133398056030051e+00 -7.447715997695922852e-01 -1.628174483776093084e-01 5.500000000000000000e+01
-1.037829279899596946e+00 -7.045139670372009277e-01 1.986717730760574063e-01 6.500000000000000000e+01
-1.101296901702881081e+00 -7.473171353340148926e-01 -1.164400726556777954e-01 8.500000000000000000e+01
-1.031704783439636008e+00 -6.998304724693298340e-01 2.423274219036102017e-01 9.500000000000000000e+01
-1.089372396469115989e+00 -7.386702299118041992e-01 -6.897879391908645630e-02 6.600000000000000000e+01
-9.936709403991699219e-01 -6.735248565673828125e-01 2.771396934986115057e-01 7.100000000000000000e+01
-1.082681894302367942e+00 -7.335820794105529785e-01 -2.282774820923804890e-02 6.100000000000000000e+01
-1.044350504875183105e+00 -7.076101899147033691e-01 3.380176723003386896e-01 6.500000000000000000e+01
-1.115773677825927956e+00 -7.537327408790588379e-01 -3.607937395572661798e-01 5.900000000000000000e+01
-1.070574998855591042e+00 -7.229278683662414551e-01 2.254850976169108998e-02 6.000000000000000000e+01
-1.127408385276793990e+00 -7.610192894935607910e-01 -3.140316605567932129e-01 6.700000000000000000e+01
-1.069522619247436968e+00 -7.216737866401672363e-01 6.761805713176727295e-02 5.200000000000000000e+01
-1.124547243118285911e+00 -7.588022947311401367e-01 -2.636980414390563965e-01 6.000000000000000000e+01
-1.048871159553528054e+00 -7.074725627899169922e-01 1.106877923011780063e-01 7.200000000000000000e+01
-1.107189536094665971e+00 -7.465276122093200684e-01 -2.114993929862976074e-01 4.800000000000000000e+01
-1.050214052200316939e+00 -7.078450322151184082e-01 1.555052846670151034e-01 6.700000000000000000e+01
-1.103018999099731001e+00 -7.431557178497314453e-01 -1.633049249649048129e-01 5.900000000000000000e+01
-1.042042970657349077e+00 -7.018088698387145996e-01 1.989846378564834872e-01 6.500000000000000000e+01
-1.092330932617187944e+00 -7.356775403022766113e-01 -1.152198910713195940e-01 1.000000000000000000e+02
-1.027627110481261985e+00 -6.918392181396484375e-01 2.408009469509125033e-01 9.900000000000000000e+01
-1.091944217681884988e+00 -7.348631024360656738e-01 -6.897879391908645630e-02 6.600000000000000000e+01
-9.960159063339233398e-01 -6.700521707534790039e-01 2.771396934986115057e-01 7.200000000000000000e+01
-1.081917285919189009e+00 -7.275665402412414551e-01 -2.275793813169002880e-02 5.900000000000000000e+01
-1.040523886680603027e+00 -6.994666457176208496e-01 3.359471261501312256e-01 6.500000000000000000e+01
-1.115058183670043945e+00 -7.478764057159423828e-01 -3.597584664821624756e-01 6.100000000000000000e+01
