-6.426980018615722656e+00 3.242278575897216797e+00 -6.297873854637145996e-01 3.000000000000000000e+00
-1.043521022796631037e+01 5.268918037414550781e+00 -6.126447319984436035e-01 3.000000000000000000e+00
-2.172861337661743164e+00 1.101401925086975098e+00 -6.527416110038757324e-01 1.900000000000000000e+01
-2.493860244750977007e+00 1.265207409858704057e+00 -6.456094980239868164e-01 1.300000000000000000e+01
-2.935874223709106001e+00 1.490098357200623003e+00 -6.399733424186706543e-01 1.300000000000000000e+01
-3.585737705230712891e+00 1.821509957313538042e+00 -6.370011568069458008e-01 9.000000000000000000e+00
-4.606050014495849609e+00 2.341838836669921875e+00 -6.344518065452575684e-01 7.000000000000000000e+00
-6.389554977416992188e+00 3.250024080276488814e+00 -6.271727085113525391e-01 2.000000000000000000e+00
-1.042835903167724965e+01 5.308929920196533203e+00 -6.132727265357971191e-01 3.000000000000000000e+00
-2.162123203277587891e+00 1.105462193489074929e+00 -6.506710648536682129e-01 1.900000000000000000e+01
-2.487693786621094194e+00 1.273017168045043945e+00 -6.451596021652221680e-01 1.100000000000000000e+01
-2.927159786224364790e+00 1.498548030853271040e+00 -6.392101049423217773e-01 1.200000000000000000e+01
-3.582873821258544922e+00 1.835816979408263938e+00 -6.376268863677978516e-01 9.000000000000000000e+00
-4.606679439544677734e+00 2.362432003021239790e+00 -6.356704831123352051e-01 7.000000000000000000e+00
-6.388807773590087891e+00 3.277764797210692915e+00 -6.282185912132263184e-01 2.000000000000000000e+00
-1.040621089935302912e+01 5.343474864959716797e+00 -6.130633950233459473e-01 3.000000000000000000e+00
-2.153100252151488814e+00 1.110346317291259988e+00 -6.491181850433349609e-01 1.900000000000000000e+01
-2.491893291473389116e+00 1.286162018775939941e+00 -6.474091410636901855e-01 1.200000000000000000e+01
-2.920166492462158203e+00 1.507855892181396040e+00 -6.388285160064697266e-01 1.200000000000000000e+01
-3.564159631729125977e+00 1.841963887214661089e+00 -6.354367733001708984e-01 8.000000000000000000e+00
-4.579009532928466797e+00 2.368465900421143022e+00 -6.329893469810485840e-01 7.000000000000000000e+00
-6.416256427764892578e+00 3.320190668106079102e+00 -6.320534348487854004e-01 2.000000000000000000e+00
-1.033428955078125000e+01 5.352210998535156250e+00 -6.099232435226440430e-01 3.000000000000000000e+00
-2.152639150619506836e+00 1.119638085365294966e+00 -6.501534581184387207e-01 1.900000000000000000e+01
-2.480474472045897993e+00 1.291253209114074929e+00 -6.456094980239868164e-01 1.500000000000000000e+01
-2.918367862701416016e+00 1.519853591918945090e+00 -6.395917534828186035e-01 1.200000000000000000e+01
-3.548949718475341797e+00 1.849828720092772993e+00 -6.338724493980407715e-01 5.000000000000000000e+00
-4.579514503479003906e+00 2.389025926589965820e+00 -6.342080831527709961e-01 6.000000000000000000e+00
-6.358703613281250000e+00 3.318599700927733931e+00 -6.275213360786437988e-01 2.000000000000000000e+00
-1.036157226562500000e+01 5.412294387817382812e+00 -6.126447319984436035e-01 3.000000000000000000e+00
-2.148914337158203125e+00 1.126770377159119096e+00 -6.501534581184387207e-01 1.700000000000000000e+01
-2.471002101898192915e+00 1.296755075454711914e+00 -6.442598104476928711e-01 1.400000000000000000e+01
-2.918526649475098100e+00 1.532260775566101074e+00 -6.407365798950195312e-01 1.300000000000000000e+01
-3.560282468795775923e+00 1.870775699615478960e+00 -6.370011568069458008e-01 4.000000000000000000e+00
-6.097680282592772727e+01 3.205427551269531250e+01 8.458463668823242188e+00 6.300000000000000000e+01
-4.575080871582031250e+00 2.406046867370605025e+00 -6.346955299377441406e-01 9.000000000000000000e+00
-6.354716777801513672e+00 3.343378305435181108e+00 -6.282185912132263184e-01 2.000000000000000000e+00
-1.029761886596680043e+01 5.422430038452148438e+00 -6.099232435226440430e-01 3.000000000000000000e+00
-2.144968032836914062e+00 1.134264588356018066e+00 -6.501534581184387207e-01 1.800000000000000000e+01
-2.461293458938599077e+00 1.302637815475464089e+00 -6.429101228713989258e-01 1.500000000000000000e+01
-2.904484987258911133e+00 1.537845611572266069e+00 -6.388285160064697266e-01 1.300000000000000000e+01
-3.571185111999512163e+00 1.892441511154175027e+00 -6.401298046112060547e-01 7.000000000000000000e+00
-6.095223617553710938e+01 3.231341934204102273e+01 8.470650672912597656e+00 6.300000000000000000e+01
-4.561393260955811435e+00 2.419212102890015093e+00 -6.339643001556396484e-01 1.000000000000000000e+01
-6.339487552642822266e+00 3.363672256469727007e+00 -6.278699636459350586e-01 3.000000000000000000e+00
-1.027862834930419922e+01 5.458342552185058594e+00 -6.099232435226440430e-01 3.000000000000000000e+00
-2.144205331802368164e+00 1.143937349319458008e+00 -6.511887311935424805e-01 1.900000000000000000e+01
-2.458221435546875000e+00 1.312568068504333052e+00 -6.433600187301635742e-01 1.400000000000000000e+01
-2.888438940048218218e+00 1.542930603027343972e+00 -6.365388035774230957e-01 1.400000000000000000e+01
-3.543320417404174805e+00 1.894341826438904031e+00 -6.363754272460937500e-01 9.000000000000000000e+00
-4.548995018005371094e+00 2.434041023254394975e+00 -6.334768533706665039e-01 1.000000000000000000e+01
-6.288472175598145419e+00 3.366199016571044922e+00 -6.240351200103759766e-01 2.000000000000000000e+00
-1.025855350494384943e+01 5.495978832244873047e+00 -6.099232435226440430e-01 3.000000000000000000e+00
-2.119783878326416016e+00 1.140431761741637962e+00 -6.449770331382751465e-01 1.800000000000000000e+01
-2.462203979492187944e+00 1.325760245323180930e+00 -6.456094980239868164e-01 1.500000000000000000e+01
-2.879578590393065962e+00 1.551141619682312012e+00 -6.357755661010742188e-01 1.500000000000000000e+01
-3.538425207138061968e+00 1.907636165618896040e+00 -6.366882920265197754e-01 1.000000000000000000e+01
-4.538723945617675781e+00 2.448962450027465820e+00 -6.332331299781799316e-01 1.000000000000000000e+01
-6.301229476928710938e+00 3.401379108428955078e+00 -6.264754533767700195e-01 2.000000000000000000e+00
-1.023930644989014027e+01 5.531754493713378906e+00 -6.099232435226440430e-01 3.000000000000000000e+00
-2.127878189086914062e+00 1.153901338577270952e+00 -6.486005187034606934e-01 1.900000000000000000e+01
-2.459506750106811968e+00 1.334847450256348100e+00 -6.460594534873962402e-01 1.400000000000000000e+01
-2.879595041275023970e+00 1.563492536544800027e+00 -6.369204521179199219e-01 1.400000000000000000e+01
-3.516458749771118164e+00 1.910870909690856934e+00 -6.338724493980407715e-01 9.000000000000000000e+00
-4.541040897369384766e+00 2.469690561294556108e+00 -6.346955299377441406e-01 1.000000000000000000e+01
-6.279414653778076172e+00 3.416542768478393999e+00 -6.254296302795410156e-01 2.000000000000000000e+00
-1.022090625762938920e+01 5.565678596496582031e+00 -6.099232435226440430e-01 3.000000000000000000e+00
-2.120447158813477007e+00 1.159468293190001997e+00 -6.475652456283569336e-01 1.900000000000000000e+01
-2.432608842849731001e+00 1.331262707710265891e+00 -6.402106881141662598e-01 1.300000000000000000e+01
-2.870675802230834961e+00 1.571649074554442915e+00 -6.361572146415710449e-01 1.400000000000000000e+01
-3.509767055511475053e+00 1.923134088516234907e+00 -6.338724493980407715e-01 9.000000000000000000e+00
-4.518468379974365234e+00 2.477890729904174805e+00 -6.327456235885620117e-01 1.000000000000000000e+01
-6.260463237762451172e+00 3.434607744216918945e+00 -6.247323751449584961e-01 2.000000000000000000e+00
-1.020141601562500000e+01 5.601322174072265625e+00 -6.099232435226440430e-01 3.000000000000000000e+00
-2.124436616897583008e+00 1.172268390655518022e+00 -6.501534581184387207e-01 2.000000000000000000e+01
-2.436008691787720171e+00 1.345303893089293990e+00 -6.424602270126342773e-01 1.200000000000000000e+01
-2.866338253021239790e+00 1.583609461784363015e+00 -6.365388035774230957e-01 1.500000000000000000e+01
-3.504085779190063032e+00 1.937552213668823020e+00 -6.341853141784667969e-01 9.000000000000000000e+00
-4.508920669555664062e+00 2.495222091674805132e+00 -6.327456235885620117e-01 1.000000000000000000e+01
-6.273375511169433594e+00 3.473096132278441939e+00 -6.273470520973205566e-01 3.000000000000000000e+00
-1.017983341217041016e+01 5.640451431274414062e+00 -6.099232435226440430e-01 3.000000000000000000e+00
-2.116955518722534180e+00 1.177798390388488992e+00 -6.491181850433349609e-01 1.900000000000000000e+01
-2.433000564575194868e+00 1.354746937751770020e+00 -6.429101228713989258e-01 1.300000000000000000e+01
-2.852217435836791992e+00 1.588828206062316895e+00 -6.346307396888732910e-01 1.700000000000000000e+01
-3.500751733779906782e+00 1.951695799827575906e+00 -6.348110437393188477e-01 1.000000000000000000e+01
-4.489781856536865234e+00 2.505142450332642046e+00 -6.312832236289978027e-01 1.000000000000000000e+01
-6.235118389129638672e+00 3.480406761169434038e+00 -6.247323751449584961e-01 2.000000000000000000e+00
-1.007290172576903942e+01 5.627247810363770419e+00 -6.046896576881408691e-01 3.000000000000000000e+00
-2.103133678436278853e+00 1.178776025772094949e+00 -6.460123658180236816e-01 1.900000000000000000e+01
-2.428732395172119141e+00 1.362383723258971946e+00 -6.429101228713989258e-01 1.300000000000000000e+01
-2.847212076187133789e+00 1.597780823707581010e+00 -6.346307396888732910e-01 1.300000000000000000e+01
-3.475657463073730025e+00 1.952043533325195090e+00 -6.313694715499877930e-01 9.000000000000000000e+00
-4.488811492919921875e+00 2.523125886917113814e+00 -6.322581768035888672e-01 1.000000000000000000e+01
-6.210260391235351562e+00 3.492165327072143999e+00 -6.233378648757934570e-01 3.000000000000000000e+00
-1.005517387390137074e+01 5.658864498138427734e+00 -6.046896576881408691e-01 3.000000000000000000e+00
-2.102370023727416992e+00 1.188010931015015093e+00 -6.470476388931274414e-01 1.900000000000000000e+01
-2.420569419860839844e+00 1.368934631347656028e+00 -6.420103311538696289e-01 1.300000000000000000e+01
-2.851869821548461914e+00 1.613510251045227051e+00 -6.369204521179199219e-01 1.200000000000000000e+01
-3.472260236740111861e+00 1.966110587120055930e+00 -6.319952607154846191e-01 1.000000000000000000e+01
-4.476522922515869141e+00 2.536821842193603960e+00 -6.317706704139709473e-01 1.000000000000000000e+01
-6.180700302124023438e+00 3.503995656967163086e+00 -6.215947866439819336e-01 3.000000000000000000e+00
-9.948503494262695312e+00 5.644648551940917969e+00 -5.994560718536376953e-01 3.000000000000000000e+00
-2.098210096359252930e+00 1.195342302322387917e+00 -6.470476388931274414e-01 1.800000000000000000e+01
-6.092692184448242188e+01 3.472392272949218750e+01 1.224076867103577104e+00 3.200000000000000000e+01
-2.407311677932738814e+00 1.372549533843993919e+00 -6.397607922554016113e-01 1.400000000000000000e+01
-2.844514846801757812e+00 1.622482657432555930e+00 -6.365388035774230957e-01 1.200000000000000000e+01
-3.467091560363769975e+00 1.979198455810547097e+00 -6.323081254959106445e-01 1.000000000000000000e+01
-4.446956634521484375e+00 2.540615558624268022e+00 -6.288458108901977539e-01 1.000000000000000000e+01
-6.168431758880615234e+00 3.525549173355102983e+00 -6.215947866439819336e-01 2.000000000000000000e+00
-9.928738594055175781e+00 5.679340839385986328e+00 -5.994560718536376953e-01 3.000000000000000000e+00
-2.102401018142700195e+00 1.207469820976257102e+00 -6.496357917785644531e-01 1.900000000000000000e+01
-2.399127006530762163e+00 1.379002094268799050e+00 -6.388610005378723145e-01 1.300000000000000000e+01
-2.830324172973632812e+00 1.627508640289307085e+00 -6.346307396888732910e-01 1.300000000000000000e+01
-3.468722343444824219e+00 1.996215224266052024e+00 -6.338724493980407715e-01 1.100000000000000000e+01
-4.427740097045898438e+00 2.550178527832030806e+00 -6.273833513259887695e-01 1.000000000000000000e+01
-6.149182319641113281e+00 3.543080806732178178e+00 -6.208975315093994141e-01 3.000000000000000000e+00
-9.908853530883789062e+00 5.713963985443115234e+00 -5.994560718536376953e-01 3.000000000000000000e+00
-2.088142156600952148e+00 1.208993434906006081e+00 -6.465299725532531738e-01 1.900000000000000000e+01
-2.402729272842406782e+00 1.392253279685973899e+00 -6.411104798316955566e-01 1.200000000000000000e+01
-2.819530487060546875e+00 1.634424567222594993e+00 -6.334858536720275879e-01 1.200000000000000000e+01
-3.460024356842041016e+00 2.007319927215576172e+00 -6.335595846176147461e-01 1.000000000000000000e+01
-4.418811321258544922e+00 2.565618753433227983e+00 -6.273833513259887695e-01 1.000000000000000000e+01
-6.133331298828125000e+00 3.562522411346435991e+00 -6.205489039421081543e-01 2.000000000000000000e+00
-9.888848304748535156e+00 5.748517513275145596e+00 -5.994560718536376953e-01 3.000000000000000000e+00
-2.075567007064818892e+00 1.211405992507935014e+00 -6.439417600631713867e-01 1.700000000000000000e+01
-2.401220321655272993e+00 1.402597665786742942e+00 -6.420103311538696289e-01 1.200000000000000000e+01
-2.805332660675048828e+00 1.639304041862488015e+00 -6.315777897834777832e-01 1.100000000000000000e+01
-3.447880983352661133e+00 2.016393661499022993e+00 -6.326209902763366699e-01 1.100000000000000000e+01
-3.618176651000977273e+01 2.116833877563476918e+01 5.147029876708984375e+00 2.800000000000000000e+01
-4.416681766510009766e+00 2.585038423538208008e+00 -6.283583641052246094e-01 1.000000000000000000e+01
-6.076155662536621094e+00 3.557735443115233931e+00 -6.160168051719665527e-01 2.000000000000000000e+00
-9.868721961975097656e+00 5.783000946044921875e+00 -5.994560718536376953e-01 3.000000000000000000e+00
-2.076320886611938032e+00 1.221582531929015891e+00 -6.454946994781494141e-01 1.900000000000000000e+01
-2.387913227081298828e+00 1.406027078628540039e+00 -6.397607922554016113e-01 1.400000000000000000e+01
-2.814817667007445845e+00 1.658054351806641069e+00 -6.350123286247253418e-01 1.200000000000000000e+01
-3.420401096343994141e+00 2.016378641128540039e+00 -6.288665533065795898e-01 1.100000000000000000e+01
-3.595718383789063211e+01 2.120576858520508168e+01 5.125580787658691406e+00 2.700000000000000000e+01
-4.397373199462890625e+00 2.594387531280518022e+00 -6.268959045410156250e-01 1.000000000000000000e+01
-6.084289550781250000e+00 3.591075897216796875e+00 -6.181085109710693359e-01 2.000000000000000000e+00
-9.741856575012207031e+00 5.754435062408447266e+00 -5.929663777351379395e-01 3.000000000000000000e+00
-2.075367450714110884e+00 1.230793714523314986e+00 -6.465299725532531738e-01 1.900000000000000000e+01
-6.091355514526367188e+01 3.613906860351563211e+01 1.236293554306030051e+00 3.000000000000000000e+01
-2.381314992904663086e+00 1.413359284400939941e+00 -6.393108963966369629e-01 1.200000000000000000e+01
-2.812389135360718218e+00 1.669874429702759011e+00 -6.357755661010742188e-01 1.200000000000000000e+01
-3.421832561492919922e+00 2.033351421356201172e+00 -6.304308772087097168e-01 1.000000000000000000e+01
-4.384877681732177734e+00 2.607692241668701172e+00 -6.264083981513977051e-01 1.000000000000000000e+01
-6.051169872283936435e+00 3.600067853927611861e+00 -6.160168051719665527e-01 2.000000000000000000e+00
-9.677091598510742188e+00 5.761838912963867188e+00 -5.902448892593383789e-01 3.000000000000000000e+00
-2.076033115386962891e+00 1.241004228591918945e+00 -6.480829119682312012e-01 1.900000000000000000e+01
-2.369677543640137163e+00 1.417661190032958984e+00 -6.375113129615783691e-01 1.200000000000000000e+01
-2.799804687500000000e+00 1.675648570060729980e+00 -6.342490911483764648e-01 1.100000000000000000e+01
-3.411324739456177202e+00 2.043253421783446822e+00 -6.298051476478576660e-01 1.000000000000000000e+01
-3.388409805297852273e+01 2.030331802368164062e+01 4.850156307220458984e+00 2.000000000000000000e+01
-4.362127780914306641e+00 2.614817380905150923e+00 -6.244584918022155762e-01 1.000000000000000000e+01
-6.052236080169677734e+00 3.629365682601929155e+00 -6.174112558364868164e-01 2.000000000000000000e+00
-9.656920433044433594e+00 5.795583248138427734e+00 -5.902448892593383789e-01 3.000000000000000000e+00
-2.061760187149047852e+00 1.242261409759521040e+00 -6.449770331382751465e-01 1.800000000000000000e+01
-2.376396417617797852e+00 1.432968378067017046e+00 -6.406605839729309082e-01 1.300000000000000000e+01
-2.780489921569824219e+00 1.677298784255981001e+00 -6.311961412429809570e-01 1.100000000000000000e+01
-3.400789499282836914e+00 2.053106784820557085e+00 -6.291794180870056152e-01 1.000000000000000000e+01
-4.366566181182861328e+00 2.638240575790404829e+00 -6.264083981513977051e-01 1.000000000000000000e+01
-6.025889396667479581e+00 3.642225027084351030e+00 -6.160168051719665527e-01 2.000000000000000000e+00
-9.640048980712890625e+00 5.831324577331542969e+00 -5.904542803764343262e-01 3.000000000000000000e+00
-2.053891181945800781e+00 1.247803688049315962e+00 -6.439417600631713867e-01 2.000000000000000000e+01
-2.366132974624633789e+00 1.438631415367126021e+00 -6.393108963966369629e-01 1.200000000000000000e+01
-2.781033039093018022e+00 1.691559433937072976e+00 -6.327226161956787109e-01 1.200000000000000000e+01
-3.403365850448607954e+00 2.071720361709595171e+00 -6.310566067695617676e-01 1.000000000000000000e+01
-3.331407928466796875e+01 2.028714561462401988e+01 4.789221286773681641e+00 2.000000000000000000e+01
-4.346695423126220703e+00 2.648030519485474077e+00 -6.249459981918334961e-01 1.000000000000000000e+01
-5.981875896453857422e+00 3.645622730255126953e+00 -6.128791570663452148e-01 3.000000000000000000e+00
-9.594739913940429688e+00 5.852057933807373047e+00 -5.889888405799865723e-01 3.000000000000000000e+00
-2.049523115158081055e+00 1.254965424537658913e+00 -6.439417600631713867e-01 2.000000000000000000e+01
-2.367743015289307085e+00 1.450954794883728027e+00 -6.411104798316955566e-01 1.300000000000000000e+01
-2.783480167388916016e+00 1.706387281417846902e+00 -6.346307396888732910e-01 1.200000000000000000e+01
-3.382643461227416992e+00 2.075323581695557085e+00 -6.285536885261535645e-01 1.000000000000000000e+01
-4.334042072296142578e+00 2.661109685897827148e+00 -6.244584918022155762e-01 1.000000000000000000e+01
-3.477835464477539062e+01 2.136233139038085938e+01 6.464498043060302734e+00 1.400000000000000000e+01
-5.996276855468750000e+00 3.683166027069091797e+00 -6.156681776046752930e-01 3.000000000000000000e+00
-9.506194114685058594e+00 5.843676567077636719e+00 -5.848019719123840332e-01 3.000000000000000000e+00
-2.048638582229613814e+00 1.263783574104309082e+00 -6.449770331382751465e-01 1.900000000000000000e+01
-2.346336603164672852e+00 1.448561429977416992e+00 -6.366114616394042969e-01 1.300000000000000000e+01
-2.781147003173828125e+00 1.717671513557434082e+00 -6.353939771652221680e-01 1.200000000000000000e+01
-3.365660905838013139e+00 2.080297946929932085e+00 -6.266764402389526367e-01 1.000000000000000000e+01
-3.401266098022460938e+01 2.103125762939453125e+01 4.910115718841552734e+00 2.200000000000000000e+01
-4.325193881988525391e+00 2.675467252731322798e+00 -6.244584918022155762e-01 1.000000000000000000e+01
-5.975558757781982422e+00 3.697788000106811968e+00 -6.147966384887695312e-01 3.000000000000000000e+00
-9.520723342895507812e+00 5.896199703216552734e+00 -5.868954062461853027e-01 3.000000000000000000e+00
-2.049136400222777876e+00 1.273986935615539995e+00 -6.465299725532531738e-01 2.100000000000000000e+01
-2.342920541763306108e+00 1.457772254943848100e+00 -6.370613574981689453e-01 1.400000000000000000e+01
-2.775134325027465820e+00 1.727369070053101030e+00 -6.353939771652221680e-01 1.200000000000000000e+01
-3.363408803939818892e+00 2.095166921615601030e+00 -6.276150941848754883e-01 1.100000000000000000e+01
-4.305721282958984375e+00 2.684247732162476030e+00 -6.229960918426513672e-01 1.200000000000000000e+01
-5.952471256256104404e+00 3.712298154830933061e+00 -6.137507557868957520e-01 3.000000000000000000e+00
-9.449254035949707031e+00 5.897672176361083984e+00 -5.837552547454833984e-01 3.000000000000000000e+00
-2.033217668533325195e+00 1.273952007293700950e+00 -6.429064869880676270e-01 2.000000000000000000e+01
-2.341119766235352007e+00 1.468012332916259988e+00 -6.379612088203430176e-01 1.200000000000000000e+01
-3.366247940063477273e+01 2.111643409729003906e+01 2.082552433013916016e+00 2.300000000000000000e+01
-2.745804309844971147e+00 1.722439765930176003e+00 -6.300513148307800293e-01 1.200000000000000000e+01
-3.356074810028076172e+00 2.106894731521606001e+00 -6.276150941848754883e-01 1.100000000000000000e+01
-6.102761840820313211e+01 3.832709503173828125e+01 8.848445892333984375e+00 6.300000000000000000e+01
-4.292963504791259766e+00 2.697149038314818892e+00 -6.225085854530334473e-01 1.000000000000000000e+01
-3.443989562988281250e+01 2.163762664794921875e+01 6.441971302032470703e+00 1.400000000000000000e+01
-5.924294948577880859e+00 3.723511457443236861e+00 -6.121819615364074707e-01 2.000000000000000000e+00
-9.411704063415527344e+00 5.919986248016357422e+00 -5.827085375785827637e-01 3.000000000000000000e+00
-3.296271896362304688e+01 2.074166679382323863e+01 8.991293907165527344e+00 1.200000000000000000e+01
-2.033658742904663086e+00 1.284135699272155984e+00 -6.444594264030456543e-01 2.100000000000000000e+01
-2.339275836944580078e+00 1.478257417678833008e+00 -6.388610005378723145e-01 1.300000000000000000e+01
-3.352779006958007812e+01 2.119538879394530895e+01 2.078784227371215820e+00 2.200000000000000000e+01
-2.758029222488402876e+00 1.743553638458251953e+00 -6.342490911483764648e-01 1.300000000000000000e+01
-3.350369215011597124e+00 2.119652748107910156e+00 -6.279279589653015137e-01 1.100000000000000000e+01
-6.106119537353516336e+01 3.864604949951171875e+01 8.872818946838378906e+00 6.300000000000000000e+01
-4.270104885101318359e+00 2.703622579574584961e+00 -6.205586791038513184e-01 1.000000000000000000e+01
-3.454058837890625000e+01 2.187786674499512074e+01 6.475760936737061435e+00 1.400000000000000000e+01
-5.916310787200927734e+00 3.747366905212401900e+00 -6.127048730850219727e-01 3.000000000000000000e+00
-9.363991737365722656e+00 5.935694217681884766e+00 -5.810337662696838379e-01 3.000000000000000000e+00
-3.280783081054688211e+01 2.080442047119140980e+01 8.968798637390136719e+00 1.200000000000000000e+01
-2.024274110794066939e+00 1.288115382194519043e+00 -6.429064869880676270e-01 2.000000000000000000e+01
-2.330814123153686968e+00 1.484320521354675071e+00 -6.379612088203430176e-01 1.200000000000000000e+01
-2.760205268859862837e+00 1.758444666862488015e+00 -6.361572146415710449e-01 1.300000000000000000e+01
-3.324627876281737837e+00 2.119653463363647017e+00 -6.244863867759704590e-01 1.000000000000000000e+01
-4.270682334899902344e+00 2.724918127059936968e+00 -6.220211386680603027e-01 1.000000000000000000e+01
-3.449116516113281250e+01 2.200716209411621094e+01 6.480141162872313565e+00 1.400000000000000000e+01
-5.881361484527587891e+00 3.754060029983520952e+00 -6.104388236999511719e-01 2.000000000000000000e+00
-9.363412857055664062e+00 5.981246948242188388e+00 -5.822898745536804199e-01 3.000000000000000000e+00
-3.273336410522460938e+01 2.091776466369628906e+01 8.968348503112792969e+00 1.200000000000000000e+01
-2.023017883300780806e+00 1.297259092330933061e+00 -6.439417600631713867e-01 1.900000000000000000e+01
-2.317418336868286133e+00 1.487185001373291016e+00 -6.357116699218750000e-01 1.300000000000000000e+01
-2.745789766311645952e+00 1.762765645980834961e+00 -6.342490911483764648e-01 1.300000000000000000e+01
-3.313884735107421875e+00 2.129110097885131836e+00 -6.238606572151184082e-01 1.000000000000000000e+01
-3.447539138793945312e+01 2.215830802917480113e+01 5.031985282897949219e+00 2.500000000000000000e+01
-4.247786521911621094e+00 2.731220245361328125e+00 -6.200712323188781738e-01 1.000000000000000000e+01
-3.432720184326171875e+01 2.207999992370605113e+01 6.464498043060302734e+00 1.400000000000000000e+01
-5.881627082824707031e+00 3.783189535140991211e+00 -6.118333339691162109e-01 3.000000000000000000e+00
-9.282019615173339844e+00 5.974977016448974609e+00 -5.785216689109802246e-01 3.000000000000000000e+00
-3.271585464477539062e+01 2.106777191162109020e+01 8.983645439147949219e+00 1.200000000000000000e+01
-2.018477439880371094e+00 1.304312944412231001e+00 -6.439417600631713867e-01 1.900000000000000000e+01
-2.310576438903809038e+00 1.494207024574280007e+00 -6.352617740631103516e-01 1.300000000000000000e+01
-2.736323118209838867e+00 1.770206809043884055e+00 -6.334858536720275879e-01 1.200000000000000000e+01
-3.301458120346068892e+00 2.137444019317626953e+00 -6.229220628738403320e-01 1.000000000000000000e+01
-4.221567153930664062e+00 2.735236883163452148e+00 -6.176338195800781250e-01 1.000000000000000000e+01
-3.408801269531250000e+01 2.208629798889160156e+01 6.433210849761962891e+00 1.400000000000000000e+01
-5.871729373931884766e+00 3.805864572525023970e+00 -6.121819615364074707e-01 2.000000000000000000e+00
-3.307058715820313211e+01 2.144348144531250000e+01 7.661362648010253906e+00 6.300000000000000000e+01
-9.261106491088867188e+00 6.007340908050537109e+00 -5.785216689109802246e-01 3.000000000000000000e+00
-3.273693084716796875e+01 2.124336814880371094e+01 9.009739875793457031e+00 1.200000000000000000e+01
-2.009055376052856001e+00 1.308188319206238015e+00 -6.423888802528381348e-01 1.800000000000000000e+01
-2.310244798660277876e+00 1.505455136299133079e+00 -6.366114616394042969e-01 1.300000000000000000e+01
-2.723548650741577148e+00 1.775458931922913042e+00 -6.319593787193298340e-01 1.300000000000000000e+01
-3.313830137252808061e+00 2.161907196044921875e+00 -6.266764402389526367e-01 1.000000000000000000e+01
-3.477202606201171875e+01 2.269355201721191051e+01 5.098282337188720703e+00 2.600000000000000000e+01
-4.225291252136229581e+00 2.758638143539429155e+00 -6.195837259292602539e-01 1.000000000000000000e+01
-5.868417263031005859e+00 3.832874536514281782e+00 -6.132277846336364746e-01 2.000000000000000000e+00
-9.240079879760742188e+00 6.039631366729736328e+00 -5.785216689109802246e-01 3.000000000000000000e+00
-3.267562484741210938e+01 2.136604309082030895e+01 9.013339042663574219e+00 1.200000000000000000e+01
-1.995013952255249023e+00 1.308486342430114968e+00 -6.392830610275268555e-01 1.700000000000000000e+01
-2.308498144149779829e+00 1.515246510505676047e+00 -6.375113129615783691e-01 1.200000000000000000e+01
-2.711081504821776900e+00 1.780170440673827903e+00 -6.304329037666320801e-01 1.300000000000000000e+01
-3.295086622238159180e+00 2.165290832519530806e+00 -6.244863867759704590e-01 9.000000000000000000e+00
-4.202851772308349609e+00 2.763908624649047852e+00 -6.176338195800781250e-01 1.000000000000000000e+01
-5.822384834289550781e+00 3.830413341522216797e+00 -6.097415685653686523e-01 2.000000000000000000e+00
-9.220001220703125000e+00 6.070239543914794922e+00 -5.785216689109802246e-01 3.000000000000000000e+00
-3.245161056518554688e+01 2.137352561950683949e+01 8.971048355102539062e+00 1.200000000000000000e+01
-1.998492717742919922e+00 1.320767998695373979e+00 -6.418712139129638672e-01 1.900000000000000000e+01
-2.295067787170410156e+00 1.517920374870300071e+00 -6.352617740631103516e-01 1.300000000000000000e+01
-2.714674949645996094e+00 1.796122908592223899e+00 -6.327226161956787109e-01 1.200000000000000000e+01
-3.274332046508789062e+00 2.168055057525635210e+00 -6.219834089279174805e-01 9.000000000000000000e+00
-4.193178176879882812e+00 2.778562545776367188e+00 -6.176338195800781250e-01 1.000000000000000000e+01
-5.820603370666503906e+00 3.858419656753540039e+00 -6.109617352485656738e-01 3.000000000000000000e+00
-9.198756217956542969e+00 6.102386474609375000e+00 -5.785216689109802246e-01 3.000000000000000000e+00
-3.231835174560546875e+01 2.144787979125976918e+01 8.954851150512695312e+00 1.200000000000000000e+01
-1.990654349327086958e+00 1.325594425201416016e+00 -6.408359408378601074e-01 1.900000000000000000e+01
-2.289755344390869141e+00 1.525922417640686035e+00 -6.352617740631103516e-01 1.400000000000000000e+01
-2.711655855178833008e+00 1.807765960693358931e+00 -6.334858536720275879e-01 1.300000000000000000e+01
-3.271673917770386186e+00 2.182760238647460938e+00 -6.229220628738403320e-01 1.000000000000000000e+01
-4.176849842071533203e+00 2.788773298263549805e+00 -6.166588664054870605e-01 1.000000000000000000e+01
-5.808756351470947266e+00 3.879820585250854048e+00 -6.111360788345336914e-01 2.000000000000000000e+00
-1.995640277862549050e+00 1.338993191719054954e+00 -6.439417600631713867e-01 1.900000000000000000e+01
-2.277943372726439986e+00 1.529560565948486106e+00 -6.334621906280517578e-01 1.400000000000000000e+01
-2.702069759368896040e+00 1.815031051635741965e+00 -6.327226161956787109e-01 1.300000000000000000e+01
-3.262395143508911133e+00 2.193065166473389116e+00 -6.226091980934143066e-01 9.000000000000000000e+00
-4.168736934661865234e+00 2.804444313049315962e+00 -6.169025897979736328e-01 9.000000000000000000e+00
-5.791872024536132812e+00 3.897848367691040039e+00 -6.107874512672424316e-01 3.000000000000000000e+00
-9.155929565429687500e+00 6.166456699371337891e+00 -5.785216689109802246e-01 3.000000000000000000e+00
-1.982951879501342995e+00 1.340541362762450950e+00 -6.413536071777343750e-01 1.800000000000000000e+01
-2.290344953536986861e+00 1.549514412879944070e+00 -6.384111046791076660e-01 1.500000000000000000e+01
-2.690840005874633789e+00 1.821150779724121094e+00 -6.315777897834777832e-01 1.300000000000000000e+01
-3.248178005218505859e+00 2.200008630752563032e+00 -6.213576793670654297e-01 9.000000000000000000e+00
-4.157279014587402344e+00 2.817865133285522017e+00 -6.166588664054870605e-01 1.000000000000000000e+01
-3.313470077514647727e+01 2.245918846130371094e+01 6.339975833892822266e+00 1.400000000000000000e+01
-5.740302562713623047e+00 3.892324447631835938e+00 -6.067782640457153320e-01 3.000000000000000000e+00
-3.277734375000000000e+01 2.223366928100585938e+01 7.698761463165283203e+00 6.300000000000000000e+01
-9.088073730468750000e+00 6.166977882385253906e+00 -5.755908489227294922e-01 3.000000000000000000e+00
-1.968680500984191895e+00 1.340929865837096946e+00 -6.382477879524230957e-01 1.900000000000000000e+01
-2.276870965957642046e+00 1.552011847496032937e+00 -6.361615657806396484e-01 1.300000000000000000e+01
-2.681222438812255859e+00 1.828320264816283958e+00 -6.308145523071289062e-01 1.300000000000000000e+01
-3.243741989135742188e+00 2.213560581207274947e+00 -6.219834089279174805e-01 9.000000000000000000e+00
-3.317181777954102273e+01 2.264525032043457031e+01 4.931564807891845703e+00 2.200000000000000000e+01
-4.144138813018798828e+00 2.830120563507080078e+00 -6.161714196205139160e-01 1.000000000000000000e+01
-3.299996566772460938e+01 2.254482460021973012e+01 6.329964160919188565e+00 1.400000000000000000e+01
-5.731616497039794922e+00 3.915709733963013139e+00 -6.073012351989746094e-01 2.000000000000000000e+00
-9.046706199645996094e+00 6.185136795043945312e+00 -5.743348002433776855e-01 3.000000000000000000e+00
-3.246612548828125000e+01 2.220506095886230113e+01 9.080823898315429688e+00 1.200000000000000000e+01
-1.968766331672668013e+00 1.351072907447814941e+00 -6.398006677627563477e-01 1.900000000000000000e+01
-2.268226861953734907e+00 1.557743668556212935e+00 -6.352617740631103516e-01 1.400000000000000000e+01
-2.676442146301269975e+00 1.838780045509337935e+00 -6.311961412429809570e-01 1.300000000000000000e+01
-3.222973346710205078e+00 2.215916633605957031e+00 -6.194804906845092773e-01 9.000000000000000000e+00
-3.302060317993164062e+01 2.271140670776366832e+01 4.920840263366699219e+00 2.200000000000000000e+01
-4.140776157379150391e+00 2.849069833755493164e+00 -6.171463727951049805e-01 1.000000000000000000e+01
-3.297313690185546875e+01 2.269571876525878906e+01 6.339975833892822266e+00 1.400000000000000000e+01
-5.704783439636229581e+00 3.926655769348144975e+00 -6.059067249298095703e-01 3.000000000000000000e+00
-3.337161254882813211e+01 2.297857666015625000e+01 7.875832080841063565e+00 6.300000000000000000e+01
-9.008613586425781250e+00 6.205348014831542969e+00 -5.732880830764770508e-01 3.000000000000000000e+00
-3.242692947387695312e+01 2.234479141235351918e+01 9.091621398925781250e+00 1.200000000000000000e+01
-1.965627312660217063e+00 1.359035611152648926e+00 -6.403183341026306152e-01 2.000000000000000000e+01
-2.259570360183715820e+00 1.563434123992919922e+00 -6.343619823455810547e-01 1.400000000000000000e+01
-2.678078889846802202e+00 1.853698253631592019e+00 -6.331042647361755371e-01 1.200000000000000000e+01
-3.221714258193970171e+00 2.231652736663817915e+00 -6.207319498062133789e-01 9.000000000000000000e+00
-3.296723175048828125e+01 2.284462165832519887e+01 4.924740314483642578e+00 2.200000000000000000e+01
-4.130805969238281250e+00 2.863506555557250977e+00 -6.171463727951049805e-01 1.000000000000000000e+01
-5.677944183349609375e+00 3.937462329864501953e+00 -6.045122146606445312e-01 3.000000000000000000e+00
-8.963925361633300781e+00 6.220814228057861328e+00 -5.718226432800292969e-01 3.000000000000000000e+00
-3.235193634033203125e+01 2.246006774902344105e+01 9.092521667480468750e+00 1.200000000000000000e+01
-1.967212080955504927e+00 1.370305418968200906e+00 -6.423888802528381348e-01 2.000000000000000000e+01
-2.247704744338988814e+00 1.566854357719420943e+00 -6.325623393058776855e-01 1.400000000000000000e+01
-2.658709049224853960e+00 1.854051232337952104e+00 -6.300513148307800293e-01 1.300000000000000000e+01
-3.210664749145507812e+00 2.240623950958251953e+00 -6.201062202453613281e-01 9.000000000000000000e+00
-3.292309570312500000e+01 2.298456001281737926e+01 4.930102348327636719e+00 2.200000000000000000e+01
-4.107765197753906250e+00 2.868815422058105025e+00 -6.151964664459228516e-01 1.000000000000000000e+01
-3.362440872192382812e+01 2.348289680480957031e+01 6.495784759521484375e+00 1.400000000000000000e+01
-5.680498123168945312e+00 3.968668937683105025e+00 -6.062553524971008301e-01 3.000000000000000000e+00
-8.925787925720214844e+00 6.240622043609619141e+00 -5.707759261131286621e-01 3.000000000000000000e+00
-1.959254264831542969e+00 1.374944448471068892e+00 -6.413536071777343750e-01 1.900000000000000000e+01
-3.434186935424804688e+01 2.410901641845703125e+01 7.324076890945434570e-01 4.000000000000000000e+01
-2.242221593856811968e+00 1.574690818786621094e+00 -6.325623393058776855e-01 1.400000000000000000e+01
-2.645795106887816939e+00 1.858806252479553001e+00 -6.285248398780822754e-01 1.200000000000000000e+01
-3.206055879592895952e+00 2.254089832305908203e+00 -6.207319498062133789e-01 9.000000000000000000e+00
-4.092855453491210938e+00 2.879709959030150923e+00 -6.144652366638183594e-01 9.000000000000000000e+00
-5.653575897216796875e+00 3.979299068450928178e+00 -6.048608422279357910e-01 2.000000000000000000e+00
-8.861495018005371094e+00 6.241837024688720703e+00 -5.680544972419738770e-01 2.000000000000000000e+00
-3.310553741455078125e+01 2.332743835449219105e+01 9.349865913391113281e+00 1.200000000000000000e+01
-1.944978237152100053e+00 1.375083804130553977e+00 -6.382477879524230957e-01 1.900000000000000000e+01
-3.431628036499022727e+01 2.427031517028808949e+01 7.336642742156982422e-01 4.000000000000000000e+01
-2.246256351470946822e+00 1.589261174201965110e+00 -6.352617740631103516e-01 1.400000000000000000e+01
-2.639290571212768999e+00 1.868030428886414018e+00 -6.285248398780822754e-01 9.000000000000000000e+00
-3.194944143295288086e+00 2.262983798980712891e+00 -6.201062202453613281e-01 9.000000000000000000e+00
-4.098973751068115234e+00 2.905458450317382812e+00 -6.169025897979736328e-01 9.000000000000000000e+00
-3.284080123901367188e+01 2.327840995788573863e+01 6.375643253326416016e+00 1.400000000000000000e+01
-5.626648902893066406e+00 3.989789962768555132e+00 -6.034663915634155273e-01 2.000000000000000000e+00
-8.839653015136718750e+00 6.272731304168701172e+00 -5.680544972419738770e-01 2.000000000000000000e+00
-3.297941589355468750e+01 2.341127204895019887e+01 9.337268829345703125e+00 1.200000000000000000e+01
-1.940166473388672097e+00 1.381864666938781960e+00 -6.382477879524230957e-01 1.800000000000000000e+01
-2.235934257507324219e+00 1.593699216842650923e+00 -6.339120864868164062e-01 1.300000000000000000e+01
-2.624761343002318892e+00 1.871532917022705078e+00 -6.266167163848876953e-01 8.000000000000000000e+00
-3.180593490600585938e+00 2.269532918930054155e+00 -6.188547611236572266e-01 9.000000000000000000e+00
-4.085576057434082031e+00 2.917441844940185991e+00 -6.164151430130004883e-01 9.000000000000000000e+00
-3.289438247680664062e+01 2.348933219909667969e+01 6.401924133300781250e+00 1.400000000000000000e+01
-5.596475601196289062e+00 3.997825145721435991e+00 -6.017232537269592285e-01 2.000000000000000000e+00
-8.817703247070312500e+00 6.303549289703369141e+00 -5.680544972419738770e-01 2.000000000000000000e+00
-1.944748640060425027e+00 1.395385980606079102e+00 -6.413536071777343750e-01 1.700000000000000000e+01
-2.228774785995482954e+00 1.600357770919800027e+00 -6.334621906280517578e-01 1.300000000000000000e+01
-2.646914005279541016e+00 1.901300191879272017e+00 -6.334858536720275879e-01 8.000000000000000000e+00
-3.169444084167480025e+00 2.278315544128417969e+00 -6.182290315628051758e-01 9.000000000000000000e+00
-3.306635284423828125e+01 2.377809143066405895e+01 5.000786781311035156e+00 2.400000000000000000e+01
-4.052806854248046875e+00 2.915456056594849077e+00 -6.130027770996093750e-01 9.000000000000000000e+00
-5.579252243041992188e+00 4.015008449554443359e+00 -6.013746261596679688e-01 2.000000000000000000e+00
-8.737300872802734375e+00 6.292272090911865234e+00 -5.642862915992736816e-01 2.000000000000000000e+00
-3.272188568115233664e+01 2.357373237609862926e+01 9.310724258422851562e+00 1.200000000000000000e+01
-1.936734676361083984e+00 1.399902582168579102e+00 -6.403183341026306152e-01 1.700000000000000000e+01
-2.223174810409545898e+00 1.608127832412719949e+00 -6.334621906280517578e-01 1.300000000000000000e+01
-2.630717992782593218e+00 1.903622508049011008e+00 -6.311961412429809570e-01 8.000000000000000000e+00
-3.169471502304077148e+00 2.295157909393310991e+00 -6.197933554649353027e-01 8.000000000000000000e+00
-3.346543121337891336e+01 2.424273872375487926e+01 5.073908329010009766e+00 2.600000000000000000e+01
-4.049035072326660156e+00 2.934244632720946822e+00 -6.139777302742004395e-01 9.000000000000000000e+00
-5.578107833862304688e+00 4.043814659118652344e+00 -6.027691364288330078e-01 2.000000000000000000e+00
-8.670017242431640625e+00 6.289893150329589844e+00 -5.613554716110229492e-01 2.000000000000000000e+00
-1.931836366653441939e+00 1.406654477119446023e+00 -6.403183341026306152e-01 1.700000000000000000e+01
-2.217547893524169922e+00 1.615878343582153098e+00 -6.334621906280517578e-01 1.300000000000000000e+01
-2.616124629974364790e+00 1.907011508941649947e+00 -6.292880773544311523e-01 9.000000000000000000e+00
-3.156652927398682085e+00 2.302715063095093218e+00 -6.188547611236572266e-01 9.000000000000000000e+00
-3.305989837646483664e+01 2.412537384033203125e+01 5.025160312652587891e+00 2.500000000000000000e+01
-4.025941371917724609e+00 2.938997030258179155e+00 -6.120278239250183105e-01 1.000000000000000000e+01
-3.304547119140625000e+01 2.412368583679198863e+01 6.480141162872313565e+00 1.400000000000000000e+01
-5.567176342010498047e+00 4.065611362457275391e+00 -6.031177639961242676e-01 2.000000000000000000e+00
-8.628658294677734375e+00 6.305977344512938565e+00 -5.600994229316711426e-01 2.000000000000000000e+00
-1.917567968368530051e+00 1.406533718109131081e+00 -6.372125148773193359e-01 1.700000000000000000e+01
-2.222890615463256836e+00 1.631681084632873979e+00 -6.366114616394042969e-01 1.300000000000000000e+01
-3.373931884765625000e+01 2.477492904663085938e+01 2.193713903427124023e+00 2.700000000000000000e+01
-2.611034393310546875e+00 1.917293906211853027e+00 -6.296696662902832031e-01 1.100000000000000000e+01
-3.147004127502440962e+00 2.312550067901610884e+00 -6.185418963432312012e-01 9.000000000000000000e+00
-3.291150665283203125e+01 2.419359588623046875e+01 5.015410900115966797e+00 2.400000000000000000e+01
-4.039646148681640625e+00 2.970672845840454102e+00 -6.156839132308959961e-01 1.000000000000000000e+01
-3.319551086425781250e+01 2.442022705078125000e+01 6.527071475982666016e+00 1.400000000000000000e+01
-5.517642974853515625e+00 4.059045314788818359e+00 -5.992828607559204102e-01 2.000000000000000000e+00
-8.622677803039550781e+00 6.347899436950683594e+00 -5.611461400985717773e-01 2.000000000000000000e+00
-1.908231496810913086e+00 1.409441590309143066e+00 -6.356595754623413086e-01 1.900000000000000000e+01
-2.206497669219971147e+00 1.630935192108154075e+00 -6.334621906280517578e-01 1.400000000000000000e+01
-2.610976219177246094e+00 1.930610775947571023e+00 -6.311961412429809570e-01 1.100000000000000000e+01
-3.129790544509888139e+00 2.315923213958739790e+00 -6.166646480560302734e-01 8.000000000000000000e+00
-3.321402359008789062e+01 2.458605575561523082e+01 5.073908329010009766e+00 2.600000000000000000e+01
-4.012224197387695312e+00 2.971057653427124023e+00 -6.130027770996093750e-01 9.000000000000000000e+00
-5.518561363220214844e+00 4.087994098663330078e+00 -6.008517146110534668e-01 3.000000000000000000e+00
-8.595162391662597656e+00 6.371700763702392578e+00 -5.607274174690246582e-01 2.000000000000000000e+00
-1.911049485206604004e+00 1.421859860420227051e+00 -6.382477879524230957e-01 1.800000000000000000e+01
-2.192975997924805132e+00 1.632808327674865945e+00 -6.312126517295837402e-01 1.300000000000000000e+01
-2.604221343994141069e+00 1.939713001251220925e+00 -6.311961412429809570e-01 1.100000000000000000e+01
-3.128022670745850053e+00 2.331556081771851030e+00 -6.179161071777343750e-01 8.000000000000000000e+00
-4.011375904083251953e+00 2.992166280746459961e+00 -6.144652366638183594e-01 9.000000000000000000e+00
-5.509048461914063388e+00 4.110806941986083984e+00 -6.013746261596679688e-01 3.000000000000000000e+00
-8.550463676452636719e+00 6.384934425354003906e+00 -5.592620372772216797e-01 2.000000000000000000e+00
-1.906074643135071023e+00 1.428521990776062012e+00 -6.382477879524230957e-01 1.800000000000000000e+01
-2.185703992843627930e+00 1.639284133911133035e+00 -6.307627558708190918e-01 1.300000000000000000e+01
-2.597434520721435991e+00 1.948791623115539995e+00 -6.311961412429809570e-01 1.200000000000000000e+01
-3.119864940643310991e+00 2.342460870742797852e+00 -6.179161071777343750e-01 8.000000000000000000e+00
-3.981862545013428178e+00 2.991841077804564986e+00 -6.115403771400451660e-01 9.000000000000000000e+00
-5.478738784790039062e+00 4.118041038513183594e+00 -5.996314883232116699e-01 3.000000000000000000e+00
-8.534508705139160156e+00 6.419544696807861328e+00 -5.596807003021240234e-01 2.000000000000000000e+00
-3.205084991455078125e+01 2.411698341369628906e+01 9.260334968566894531e+00 1.200000000000000000e+01
-1.902618408203125000e+00 1.436330676078795943e+00 -6.387653946876525879e-01 1.900000000000000000e+01
-2.181523323059082031e+00 1.648078322410583052e+00 -6.312126517295837402e-01 1.200000000000000000e+01
-2.578086137771606001e+00 1.948376893997191939e+00 -6.281431913375854492e-01 1.200000000000000000e+01
-3.105366945266724077e+00 2.348570585250854048e+00 -6.166646480560302734e-01 8.000000000000000000e+00
-3.222019577026367188e+01 2.437678527832030895e+01 4.960813522338867188e+00 2.300000000000000000e+01
-3.971394777297974077e+00 3.005722045898437944e+00 -6.115403771400451660e-01 9.000000000000000000e+00
-5.443680763244628906e+00 4.121505737304688388e+00 -5.973654389381408691e-01 4.000000000000000000e+00
-8.461106300354003906e+00 6.410699367523193359e+00 -5.563312172889709473e-01 2.000000000000000000e+00
-1.885291099548340066e+00 1.433608651161194070e+00 -6.346243023872375488e-01 1.900000000000000000e+01
-2.191265106201171875e+00 1.667484283447266069e+00 -6.357116699218750000e-01 1.300000000000000000e+01
-2.580641984939575195e+00 1.964499235153198020e+00 -6.304329037666320801e-01 1.300000000000000000e+01
-3.103435516357421875e+00 2.364184379577637163e+00 -6.179161071777343750e-01 8.000000000000000000e+00
-3.223595809936522727e+01 2.456611251831055043e+01 4.976412773132324219e+00 2.300000000000000000e+01
-3.967193365097045898e+00 3.024380445480347124e+00 -6.125153303146362305e-01 9.000000000000000000e+00
-5.446687698364257812e+00 4.153772830963134766e+00 -5.992828607559204102e-01 3.000000000000000000e+00
-8.246564865112304688e+00 6.293579101562500000e+00 -5.436658859252929688e-01 1.800000000000000000e+01
-1.881808996200561968e+00 1.441355466842650923e+00 -6.351419091224670410e-01 2.000000000000000000e+01
-2.176151275634766069e+00 1.668009996414185014e+00 -6.330122947692871094e-01 1.300000000000000000e+01
-2.570652961730957031e+00 1.971106171607970969e+00 -6.296696662902832031e-01 1.300000000000000000e+01
-3.085761070251464844e+00 2.367787837982178178e+00 -6.160389184951782227e-01 8.000000000000000000e+00
-3.962909936904906782e+00 3.043046236038208008e+00 -6.134902834892272949e-01 9.000000000000000000e+00
-5.422675132751464844e+00 4.165477752685546875e+00 -5.982370376586914062e-01 5.000000000000000000e+00
-8.435147285461425781e+00 6.484219074249267578e+00 -5.575872659683227539e-01 2.000000000000000000e+00
-1.883391499519347922e+00 1.451978325843811035e+00 -6.372125148773193359e-01 2.000000000000000000e+01
-2.161642789840697798e+00 1.667696118354796919e+00 -6.303128600120544434e-01 1.200000000000000000e+01
-2.567556381225585938e+00 1.981571316719054954e+00 -6.304329037666320801e-01 1.300000000000000000e+01
-3.086124181747436968e+00 2.383507490158081055e+00 -6.176032423973083496e-01 9.000000000000000000e+00
-3.943906545639038086e+00 3.048197269439696822e+00 -6.120278239250183105e-01 9.000000000000000000e+00
-5.382766246795654297e+00 4.161775588989257812e+00 -5.952737331390380859e-01 4.000000000000000000e+00
-8.335753440856933594e+00 6.449576854705811435e+00 -5.523536801338195801e-01 2.000000000000000000e+00
-1.881363272666930930e+00 1.460913419723510964e+00 -6.382477879524230957e-01 1.900000000000000000e+01
-2.160424470901488814e+00 1.678818702697753906e+00 -6.316625475883483887e-01 1.400000000000000000e+01
-2.554423570632935014e+00 1.985702037811279075e+00 -6.289064288139343262e-01 1.300000000000000000e+01
-3.073107957839965820e+00 2.390626907348632812e+00 -6.166646480560302734e-01 8.000000000000000000e+00
-3.931675910949707031e+00 3.060726165771483931e+00 -6.117841005325317383e-01 9.000000000000000000e+00
-5.377637863159179688e+00 4.187884330749511719e+00 -5.963196158409118652e-01 4.000000000000000000e+00
-8.313189506530761719e+00 6.478634834289550781e+00 -5.523536801338195801e-01 2.000000000000000000e+00
-3.552814102172852273e+01 2.769775962829589844e+01 1.040038681030273082e+01 1.300000000000000000e+01
-1.870165467262268066e+00 1.462710976600646973e+00 -6.361772418022155762e-01 1.800000000000000000e+01
-2.160689592361450195e+00 1.691154241561890093e+00 -6.334621906280517578e-01 1.300000000000000000e+01
-2.539747714996337891e+00 1.988554954528809038e+00 -6.269983649253845215e-01 1.300000000000000000e+01
-3.069409132003784180e+00 2.404994487762451172e+00 -6.176032423973083496e-01 9.000000000000000000e+00
-3.908470869064331055e+00 3.064632654190063032e+00 -6.098341941833496094e-01 9.000000000000000000e+00
-5.373960494995117188e+00 4.215238094329833984e+00 -5.975397825241088867e-01 4.000000000000000000e+00
-8.290523529052734375e+00 6.507613658905029297e+00 -5.523536801338195801e-01 2.000000000000000000e+00
-3.560596847534179688e+01 2.795880699157714844e+01 1.045167541503906072e+01 1.300000000000000000e+01
-1.865048289299011008e+00 1.469230175018310991e+00 -6.361772418022155762e-01 1.800000000000000000e+01
-2.154772996902465820e+00 1.698686122894287109e+00 -6.334621906280517578e-01 1.300000000000000000e+01
-2.537415504455565962e+00 2.001055240631103960e+00 -6.281431913375854492e-01 1.400000000000000000e+01
-3.054792642593383789e+00 2.410799026489257812e+00 -6.163517832756042480e-01 9.000000000000000000e+00
-3.900865316390991211e+00 3.080717802047729048e+00 -6.103217005729675293e-01 9.000000000000000000e+00
-5.340453624725341797e+00 4.219149589538574219e+00 -5.954480171203613281e-01 4.000000000000000000e+00
-8.220754623413085938e+00 6.499352931976318359e+00 -5.492135286331176758e-01 2.000000000000000000e+00
-1.850828289985656960e+00 1.468526959419250044e+00 -6.330713629722595215e-01 1.700000000000000000e+01
