1.672588944435120073e+00 3.965363502502440962e+00 -5.284254550933837891e-01 1.000000000000000000e+01
2.178303718566894975e+00 5.161793231964111328e+00 -4.901638925075531006e-01 9.000000000000000000e+00
3.137480974197388139e+00 7.427457809448242188e+00 -4.225605130195618231e-01 2.000000000000000000e+00
5.544858932495117188e+00 1.311374759674072088e+01 -2.485222667455672940e-01 2.000000000000000000e+00
8.718339204788208008e-01 2.053911924362183061e+00 -5.978720188140869141e-01 1.800000000000000000e+01
9.922015070915222168e-01 2.335213661193848100e+00 -5.857725739479064941e-01 1.100000000000000000e+01
1.142859458923340066e+00 2.688493490219116211e+00 -5.678475499153137207e-01 1.000000000000000000e+01
1.372834086418152078e+00 3.226363420486450195e+00 -5.553423762321472168e-01 8.000000000000000000e+00
1.689531922340393066e+00 3.966806411743164062e+00 -5.294004082679748535e-01 9.000000000000000000e+00
2.190841197967528853e+00 5.141327381134033203e+00 -4.889437258243560791e-01 9.000000000000000000e+00
3.158687114715576172e+00 7.405437946319580078e+00 -4.219324886798859198e-01 1.000000000000000000e+00
5.581178188323974609e+00 1.307224369049072088e+01 -2.481034100055695135e-01 2.000000000000000000e+00
8.805634379386901855e-01 2.056490659713745117e+00 -5.994248986244201660e-01 1.900000000000000000e+01
1.005674481391906960e+00 2.346414327621459961e+00 -5.893717408180236816e-01 1.000000000000000000e+01
1.154394865036010964e+00 2.692107200622559038e+00 -5.693740248680114746e-01 9.000000000000000000e+00
1.382184147834778054e+00 3.220219373703002930e+00 -5.550295114517211914e-01 9.000000000000000000e+00
1.703552961349487083e+00 3.965126752853393999e+00 -5.298879146575927734e-01 9.000000000000000000e+00
2.207769155502318892e+00 5.136250019073486328e+00 -4.891180396080017090e-01 9.000000000000000000e+00
3.197723627090454102e+00 7.432171344757080078e+00 -4.240259230136870783e-01 1.000000000000000000e+00
5.607981204986572266e+00 1.302158641815186080e+01 -2.474751174449920932e-01 2.000000000000000000e+00
8.839035034179687500e-01 2.044538259506226030e+00 -5.968367457389831543e-01 1.800000000000000000e+01
1.012310981750488059e+00 2.339312553405762163e+00 -5.884719491004943848e-01 1.000000000000000000e+01
1.161445021629333052e+00 2.682656288146973100e+00 -5.682291984558105469e-01 1.000000000000000000e+01
1.387918114662169966e+00 3.202687501907349077e+00 -5.528393983840942383e-01 9.000000000000000000e+00
1.715803503990172896e+00 3.955513715744018999e+00 -5.294004082679748535e-01 1.000000000000000000e+01
2.229650497436522993e+00 5.137650489807128906e+00 -4.899895787239075262e-01 8.000000000000000000e+00
3.218872547149658203e+00 7.409972667694091797e+00 -4.233978986740111750e-01 1.000000000000000000e+00
5.216438293457031250e+00 1.199698638916015980e+01 -2.283472865819931030e-01 2.000000000000000000e+00
8.972172737121582031e-01 2.055604696273804155e+00 -6.009778380393981934e-01 1.700000000000000000e+01
1.012668728828429954e+00 2.317907094955443892e+00 -5.839729309082031250e-01 1.100000000000000000e+01
1.177092552185059038e+00 2.692977190017700195e+00 -5.712821483612060547e-01 1.000000000000000000e+01
1.395921945571898970e+00 3.190584421157836914e+00 -5.515879392623901367e-01 8.000000000000000000e+00
1.729600310325623003e+00 3.949500560760498047e+00 -5.294004082679748535e-01 9.000000000000000000e+00
2.242773294448852983e+00 5.118886947631835938e+00 -4.889437258243560791e-01 8.000000000000000000e+00
3.243114233016968218e+00 7.395033359527587891e+00 -4.231885373592377264e-01 2.000000000000000000e+00
5.698751449584960938e+00 1.298211765289306996e+01 -2.474751174449920932e-01 2.000000000000000000e+00
9.067240953445434570e-01 2.057763814926147017e+00 -6.025307178497314453e-01 1.600000000000000000e+01
1.025472044944762962e+00 2.325056314468383789e+00 -5.866723656654357910e-01 1.100000000000000000e+01
1.179352402687072976e+00 2.672686576843262163e+00 -5.678475499153137207e-01 1.000000000000000000e+01
1.408646821975708008e+00 3.189306259155272993e+00 -5.522136688232421875e-01 9.000000000000000000e+00
1.738560199737549050e+00 3.932545423507689986e+00 -5.279380083084106445e-01 9.000000000000000000e+00
2.264657497406005859e+00 5.120137691497802734e+00 -4.898152649402617853e-01 9.000000000000000000e+00
3.252737283706665039e+00 7.347141742706298828e+00 -4.210951030254364014e-01 2.000000000000000000e+00
5.755374908447265625e+00 1.298774147033691051e+01 -2.479637861251831055e-01 2.000000000000000000e+00
9.107609391212463379e-01 2.047525882720946822e+00 -6.004601716995239258e-01 1.600000000000000000e+01
1.030411243438720925e+00 2.314341545104980025e+00 -5.848727226257324219e-01 1.100000000000000000e+01
1.191870093345642090e+00 2.675726890563964844e+00 -5.693740248680114746e-01 9.000000000000000000e+00
1.427010655403136985e+00 3.200607299804687944e+00 -5.550295114517211914e-01 9.000000000000000000e+00
1.758748650550842063e+00 3.940954923629761186e+00 -5.298879146575927734e-01 9.000000000000000000e+00
2.279267072677611861e+00 5.104924201965332031e+00 -4.891180396080017090e-01 9.000000000000000000e+00
3.291402339935303178e+00 7.364918231964111328e+00 -4.227698445320128839e-01 2.000000000000000000e+00
5.782711982727050781e+00 1.292741394042968928e+01 -2.471958845853806097e-01 2.000000000000000000e+00
9.115722775459289551e-01 2.030235290527344194e+00 -5.963190793991088867e-01 1.500000000000000000e+01
1.044874191284179910e+00 2.324950456619263139e+00 -5.884719491004943848e-01 1.000000000000000000e+01
1.201202750205994096e+00 2.671550273895264116e+00 -5.693740248680114746e-01 1.000000000000000000e+01
1.431688666343688965e+00 3.181195735931396040e+00 -5.525265336036682129e-01 9.000000000000000000e+00
1.770863771438599077e+00 3.931171894073485884e+00 -5.294004082679748535e-01 1.000000000000000000e+01
2.292979717254639116e+00 5.087854385375976562e+00 -4.882464706897736151e-01 8.000000000000000000e+00
3.323660850524901900e+00 7.367949008941650391e+00 -4.236072301864624023e-01 2.000000000000000000e+00
5.842613697052001953e+00 1.293995571136474965e+01 -2.478241771459578913e-01 2.000000000000000000e+00
9.222854375839233398e-01 2.036000013351439986e+00 -5.989072918891906738e-01 1.600000000000000000e+01
1.047749876976012962e+00 2.310823917388916016e+00 -5.857725739479064941e-01 1.100000000000000000e+01
1.210055351257323997e+00 2.667552232742310014e+00 -5.693740248680114746e-01 1.000000000000000000e+01
1.442229986190795898e+00 3.176430463790893999e+00 -5.525265336036682129e-01 9.000000000000000000e+00
1.788818240165710005e+00 3.936121225357056108e+00 -5.308628678321838379e-01 9.000000000000000000e+00
2.310663700103760210e+00 5.082036495208740234e+00 -4.884207844734191895e-01 9.000000000000000000e+00
3.338147878646851030e+00 7.335072517395020419e+00 -4.223511815071105957e-01 2.000000000000000000e+00
5.860623836517333984e+00 1.286591529846191051e+01 -2.467770278453826904e-01 2.000000000000000000e+00
9.293867945671081543e-01 2.032768249511719194e+00 -5.989072918891906738e-01 1.700000000000000000e+01
1.052566170692444070e+00 2.300064325332642046e+00 -5.839729309082031250e-01 1.100000000000000000e+01
1.221811294555664062e+00 2.668667316436768022e+00 -5.705189108848571777e-01 9.000000000000000000e+00
1.454954862594604048e+00 3.174968481063843218e+00 -5.531522631645202637e-01 9.000000000000000000e+00
1.795925974845886008e+00 3.915418386459351030e+00 -5.289129614830017090e-01 9.000000000000000000e+00
2.330051183700561968e+00 5.077561378479003906e+00 -4.887694120407103937e-01 9.000000000000000000e+00
3.357062578201293945e+00 7.308855533599854404e+00 -4.215137958526610773e-01 1.000000000000000000e+00
5.915522098541259766e+00 1.286718273162841975e+01 -2.471958845853806097e-01 2.000000000000000000e+00
9.437614083290100098e-01 2.045298576354980025e+00 -6.035659909248352051e-01 1.600000000000000000e+01
1.065490961074829102e+00 2.306991100311278853e+00 -5.866723656654357910e-01 1.100000000000000000e+01
1.229472279548645020e+00 2.660821676254272017e+00 -5.697556734085083008e-01 9.000000000000000000e+00
1.466028690338134988e+00 3.169870376586914062e+00 -5.531522631645202637e-01 9.000000000000000000e+00
1.811250209808350053e+00 3.912728548049927202e+00 -5.294004082679748535e-01 9.000000000000000000e+00
2.350272655487060991e+00 5.074820995330811435e+00 -4.892923533916472834e-01 1.100000000000000000e+01
3.392634391784667969e+00 7.318837165832520419e+00 -4.227698445320128839e-01 1.000000000000000000e+00
5.945251464843750000e+00 1.281380367279052912e+01 -2.465675920248031894e-01 2.000000000000000000e+00
9.460019469261169434e-01 2.031484127044678178e+00 -6.004601716995239258e-01 1.600000000000000000e+01
1.071067690849303977e+00 2.297959089279174805e+00 -5.853226184844970703e-01 1.000000000000000000e+01
1.233774542808532937e+00 2.645838022232056108e+00 -5.674659609794616699e-01 9.000000000000000000e+00
1.478755593299865945e+00 3.168313741683959961e+00 -5.537779927253723145e-01 9.000000000000000000e+00
1.824056982994080034e+00 3.904583692550659180e+00 -5.291566848754882812e-01 9.000000000000000000e+00
2.365442037582397017e+00 5.061171054840087891e+00 -4.887694120407103937e-01 9.000000000000000000e+00
3.401235580444335938e+00 7.270768165588378906e+00 -4.206764101982117254e-01 2.000000000000000000e+00
5.995031833648681641e+00 1.280383872985840021e+01 -2.467770278453826904e-01 2.000000000000000000e+00
9.506224989891052246e-01 2.022924423217772993e+00 -5.989072918891906738e-01 1.800000000000000000e+01
1.083229660987854004e+00 2.303023338317871094e+00 -5.875721573829650879e-01 1.200000000000000000e+01
1.247182250022887962e+00 2.650397300720214844e+00 -5.693740248680114746e-01 1.000000000000000000e+01
1.489806056022644043e+00 3.163132667541503906e+00 -5.537779927253723145e-01 9.000000000000000000e+00
1.839368343353271040e+00 3.901783943176269975e+00 -5.296441912651062012e-01 9.000000000000000000e+00
2.384794235229492188e+00 5.056487083435058594e+00 -4.891180396080017090e-01 9.000000000000000000e+00
3.438530921936035156e+00 7.284137248992919922e+00 -4.221418201923369806e-01 2.000000000000000000e+00
6.019186496734619141e+00 1.273944187164306996e+01 -2.459393143653869906e-01 2.000000000000000000e+00
9.593334794044494629e-01 2.023084878921508789e+00 -5.999425649642944336e-01 1.700000000000000000e+01
1.091262102127074973e+00 2.299228191375731978e+00 -5.875721573829650879e-01 1.100000000000000000e+01
1.260636806488037109e+00 2.654895067214965820e+00 -5.712821483612060547e-01 1.000000000000000000e+01
1.499142527580261008e+00 3.154344558715819868e+00 -5.531522631645202637e-01 9.000000000000000000e+00
1.851271390914916992e+00 3.891754150390625000e+00 -5.291566848754882812e-01 9.000000000000000000e+00
2.399005413055419922e+00 5.040935993194580078e+00 -4.884207844734191895e-01 9.000000000000000000e+00
3.455347299575806108e+00 7.254058837890625000e+00 -4.210951030254364014e-01 1.000000000000000000e+00
6.055012702941895419e+00 1.270030307769775035e+01 -2.455902695655823031e-01 2.000000000000000000e+00
9.705585837364196777e-01 2.028436899185181108e+00 -6.025307178497314453e-01 1.600000000000000000e+01
1.095914363861083984e+00 2.288374662399291992e+00 -5.857725739479064941e-01 1.100000000000000000e+01
1.269048213958740012e+00 2.648707866668701172e+00 -5.709004998207092285e-01 1.000000000000000000e+01
1.510144114494323953e+00 3.149092435836791992e+00 -5.531522631645202637e-01 9.000000000000000000e+00
1.865703940391540971e+00 3.887058019638061968e+00 -5.294004082679748535e-01 1.000000000000000000e+01
2.420899152755736861e+00 5.041511058807373047e+00 -4.892923533916472834e-01 9.000000000000000000e+00
3.459883213043212891e+00 7.198750019073486328e+00 -4.185829758644104004e-01 2.000000000000000000e+00
6.107976913452148438e+00 1.269710922241210938e+01 -2.459393143653869906e-01 2.000000000000000000e+00
9.767933487892150879e-01 2.023297071456909180e+00 -6.020131111145019531e-01 1.800000000000000000e+01
1.105591297149657981e+00 2.288044452667235884e+00 -5.866723656654357910e-01 1.100000000000000000e+01
1.274013757705688032e+00 2.635424137115478960e+00 -5.689924359321594238e-01 1.000000000000000000e+01
1.521127343177794966e+00 3.143801927566527876e+00 -5.531522631645202637e-01 9.000000000000000000e+00
1.874069571495055930e+00 3.869802236557006836e+00 -5.279380083084106445e-01 1.000000000000000000e+01
2.441088676452637163e+00 5.038409233093261719e+00 -4.898152649402617853e-01 9.000000000000000000e+00
3.500676870346068892e+00 7.218976497650145596e+00 -4.204670786857604980e-01 1.000000000000000000e+00
6.129559040069580078e+00 1.262893772125243963e+01 -2.450317889451980868e-01 2.000000000000000000e+00
9.825100302696228027e-01 2.016230106353760210e+00 -6.009778380393981934e-01 1.800000000000000000e+01
1.112261414527893066e+00 2.280473947525023970e+00 -5.857725739479064941e-01 1.100000000000000000e+01
1.283664584159851074e+00 2.630737066268920898e+00 -5.689924359321594238e-01 9.000000000000000000e+00
1.537840962409972922e+00 3.148855686187744141e+00 -5.550295114517211914e-01 9.000000000000000000e+00
1.889112234115601030e+00 3.864690780639647993e+00 -5.281817317008972168e-01 1.000000000000000000e+01
2.463040113449097124e+00 5.036587715148925781e+00 -4.905125200748444159e-01 9.000000000000000000e+00
3.525356054306029829e+00 7.202509880065917969e+00 -4.202577173709868830e-01 2.000000000000000000e+00
6.163488864898681641e+00 1.258124637603759943e+01 -2.445431202650069913e-01 2.000000000000000000e+00
9.861327409744262695e-01 2.005853414535522017e+00 -5.989072918891906738e-01 1.700000000000000000e+01
1.127098083496093972e+00 2.290565729141234907e+00 -5.893717408180236816e-01 1.100000000000000000e+01
1.292839765548706055e+00 2.626240015029906782e+00 -5.689924359321594238e-01 1.000000000000000000e+01
1.542711615562438965e+00 3.131064653396606001e+00 -5.528393983840942383e-01 8.000000000000000000e+00
1.906103014945984109e+00 3.865194559097290039e+00 -5.291566848754882812e-01 9.000000000000000000e+00
2.471791028976439986e+00 5.010091781616210938e+00 -4.887694120407103937e-01 9.000000000000000000e+00
3.577005147933959961e+00 7.243885040283203125e+00 -4.233978986740111750e-01 1.000000000000000000e+00
6.219771862030029297e+00 1.258475208282471058e+01 -2.450317889451980868e-01 2.000000000000000000e+00
9.967182278633117676e-01 2.011400461196898970e+00 -6.014954447746276855e-01 1.500000000000000000e+01
1.127361536026000977e+00 2.273046970367432085e+00 -5.857725739479064941e-01 1.100000000000000000e+01
1.301956534385680930e+00 2.623924255371094194e+00 -5.693740248680114746e-01 1.000000000000000000e+01
1.551661968231200950e+00 3.124433279037476030e+00 -5.525265336036682129e-01 9.000000000000000000e+00
1.920003533363342063e+00 3.862742424011230025e+00 -5.296441912651062012e-01 1.000000000000000000e+01
2.492841243743896040e+00 5.013005256652832031e+00 -4.898152649402617853e-01 9.000000000000000000e+00
3.589065790176392046e+00 7.211155414581298828e+00 -4.221418201923369806e-01 1.000000000000000000e+00
6.228961944580078125e+00 1.250429344177245916e+01 -2.438450157642365057e-01 2.000000000000000000e+00
1.003733277320862038e+00 2.007909059524536133e+00 -6.014954447746276855e-01 1.600000000000000000e+01
1.135289072990417036e+00 2.269097805023192915e+00 -5.857725739479064941e-01 1.100000000000000000e+01
1.314622879028320090e+00 2.626385927200316939e+00 -5.709004998207092285e-01 1.000000000000000000e+01
1.560789227485656960e+00 3.115465641021728960e+00 -5.519008040428161621e-01 9.000000000000000000e+00
1.933475375175476074e+00 3.856016874313354048e+00 -5.296441912651062012e-01 9.000000000000000000e+00
2.509431362152100053e+00 5.002492427825927734e+00 -4.896409511566162109e-01 9.000000000000000000e+00
3.599876880645751953e+00 7.170024394989013672e+00 -4.204670786857604980e-01 2.000000000000000000e+00
6.279755115509033203e+00 1.249676895141601918e+01 -2.441242635250092108e-01 2.000000000000000000e+00
1.011085867881774902e+00 2.004216670989989790e+00 -6.014954447746276855e-01 1.700000000000000000e+01
1.145354747772217019e+00 2.268400669097899947e+00 -5.866723656654357910e-01 1.100000000000000000e+01
1.324240207672118919e+00 2.621550083160399947e+00 -5.709004998207092285e-01 1.000000000000000000e+01
1.579327583312988059e+00 3.123827219009398970e+00 -5.544037222862243652e-01 9.000000000000000000e+00
1.943114042282104048e+00 3.840048313140869141e+00 -5.284254550933837891e-01 1.000000000000000000e+01
2.532248973846435991e+00 5.002149105072020596e+00 -4.905125200748444159e-01 9.000000000000000000e+00
3.626132249832152876e+00 7.156782150268554688e+00 -4.204670786857604980e-01 1.000000000000000000e+00
6.321897983551025391e+00 1.246653461456299006e+01 -2.439846396446228027e-01 2.000000000000000000e+00
1.015447258949280007e+00 1.995509862899780051e+00 -5.999425649642944336e-01 1.600000000000000000e+01
1.158572435379028098e+00 2.274807929992675781e+00 -5.893717408180236816e-01 1.100000000000000000e+01
1.327143907546997070e+00 2.604666709899901900e+00 -5.682291984558105469e-01 1.000000000000000000e+01
1.592017054557800071e+00 3.121814966201781782e+00 -5.550295114517211914e-01 9.000000000000000000e+00
1.958311319351196067e+00 3.836778402328491211e+00 -5.289129614830017090e-01 1.000000000000000000e+01
2.546069860458374023e+00 4.986181735992431641e+00 -4.898152649402617853e-01 9.000000000000000000e+00
3.660181045532227007e+00 7.161865234375000000e+00 -4.215137958526610773e-01 2.000000000000000000e+00
6.365375995635986328e+00 1.244439029693604049e+01 -2.439846396446228027e-01 2.000000000000000000e+00
1.023822784423827903e+00 1.995569229125977007e+00 -6.009778380393981934e-01 1.900000000000000000e+01
1.162549018859863059e+00 2.264019250869750977e+00 -5.875721573829650879e-01 1.000000000000000000e+01
1.338465332984924094e+00 2.605490207672119141e+00 -5.693740248680114746e-01 1.000000000000000000e+01
1.596037864685059038e+00 3.104220867156981978e+00 -5.528393983840942383e-01 8.000000000000000000e+00
1.968298912048340066e+00 3.824967861175537109e+00 -5.281817317008972168e-01 9.000000000000000000e+00
2.556206941604613814e+00 4.965311527252197266e+00 -4.885950982570648193e-01 9.000000000000000000e+00
3.671103239059447798e+00 7.124832153320313388e+00 -4.200483858585358221e-01 2.000000000000000000e+00
6.388277530670166016e+00 1.238766860961914062e+01 -2.432865500450134000e-01 2.000000000000000000e+00
1.026343226432800071e+00 1.983404517173767090e+00 -5.983896255493164062e-01 1.800000000000000000e+01
1.170444726943969949e+00 2.259947299957274947e+00 -5.875721573829650879e-01 1.000000000000000000e+01
1.350261569023132102e+00 2.606031894683837891e+00 -5.705189108848571777e-01 1.000000000000000000e+01
1.605954527854918990e+00 3.096877336502075195e+00 -5.525265336036682129e-01 9.000000000000000000e+00
1.988039731979369895e+00 3.830407381057738814e+00 -5.298879146575927734e-01 1.000000000000000000e+01
2.574441671371459961e+00 4.958126544952392578e+00 -4.887694120407103937e-01 9.000000000000000000e+00
3.690425157546997070e+00 7.101340770721436435e+00 -4.194203615188599188e-01 2.000000000000000000e+00
6.446243286132813388e+00 1.239367866516112926e+01 -2.438450157642365057e-01 2.000000000000000000e+00
1.037729382514954057e+00 1.988373041152954102e+00 -6.009778380393981934e-01 1.900000000000000000e+01
1.176521897315979004e+00 2.252393245697021040e+00 -5.866723656654357910e-01 1.100000000000000000e+01
1.361168622970581055e+00 2.604782581329346147e+00 -5.712821483612060547e-01 1.100000000000000000e+01
1.616754770278931108e+00 3.091252565383911133e+00 -5.525265336036682129e-01 9.000000000000000000e+00
1.994953989982604980e+00 3.811133384704589844e+00 -5.281817317008972168e-01 9.000000000000000000e+00
2.598203182220458984e+00 4.961464881896972656e+00 -4.899895787239075262e-01 9.000000000000000000e+00
3.724462747573852983e+00 7.106105804443359375e+00 -4.204670786857604980e-01 2.000000000000000000e+00
6.489465713500976562e+00 1.237110137939452947e+01 -2.438450157642365057e-01 2.000000000000000000e+00
1.047363162040710005e+00 1.989867091178894043e+00 -6.025307178497314453e-01 1.900000000000000000e+01
1.178927421569823997e+00 2.237927913665771040e+00 -5.839729309082031250e-01 1.200000000000000000e+01
1.366591453552246094e+00 2.593068122863769975e+00 -5.697556734085083008e-01 1.000000000000000000e+01
1.630300283432007058e+00 3.090831756591796875e+00 -5.534651279449462891e-01 9.000000000000000000e+00
2.011952161788939986e+00 3.811168432235718218e+00 -5.291566848754882812e-01 9.000000000000000000e+00
2.611784219741820845e+00 4.945318222045898438e+00 -4.892923533916472834e-01 9.000000000000000000e+00
3.749245166778564009e+00 7.093061923980712891e+00 -4.204670786857604980e-01 2.000000000000000000e+00
6.517648220062255859e+00 1.232009220123291016e+01 -2.432865500450134000e-01 2.000000000000000000e+00
1.050679683685302956e+00 1.979373574256896973e+00 -6.004601716995239258e-01 2.000000000000000000e+01
1.190389156341552956e+00 2.240683078765869141e+00 -5.857725739479064941e-01 1.100000000000000000e+01
1.378398776054382102e+00 2.593482971191405806e+00 -5.709004998207092285e-01 1.000000000000000000e+01
1.643862366676331010e+00 3.090354204177856001e+00 -5.544037222862243652e-01 8.000000000000000000e+00
2.017780542373656782e+00 3.790104389190673828e+00 -5.272067785263061523e-01 9.000000000000000000e+00
2.633713722229003906e+00 4.944963932037354404e+00 -4.901638925075531006e-01 8.000000000000000000e+00
3.775860548019409180e+00 7.083456039428710938e+00 -4.206764101982117254e-01 2.000000000000000000e+00
6.545553207397460938e+00 1.226903724670409979e+01 -2.427280694246292114e-01 2.000000000000000000e+00
1.055759191513061968e+00 1.972287535667418990e+00 -5.994248986244201660e-01 2.000000000000000000e+01
1.205565571784972922e+00 2.250256061553955078e+00 -5.893717408180236816e-01 1.100000000000000000e+01
1.378168940544127974e+00 2.571351766586304155e+00 -5.670843124389648438e-01 9.000000000000000000e+00
1.657441020011902078e+00 3.089819431304932085e+00 -5.553423762321472168e-01 9.000000000000000000e+00
2.041326761245727983e+00 3.802276611328125000e+00 -5.298879146575927734e-01 1.000000000000000000e+01
2.645302534103393999e+00 4.925209045410156250e+00 -4.891180396080017090e-01 9.000000000000000000e+00
3.792998313903809038e+00 7.056159019470214844e+00 -4.198390543460845947e-01 2.000000000000000000e+00
6.603498935699462891e+00 1.227429103851318004e+01 -2.432865500450134000e-01 2.000000000000000000e+00
1.063555002212523970e+00 1.970290303230286089e+00 -5.999425649642944336e-01 1.900000000000000000e+01
1.213413119316101074e+00 2.246034145355225053e+00 -5.893717408180236816e-01 1.100000000000000000e+01
1.393670558929442915e+00 2.578615427017211914e+00 -5.697556734085083008e-01 9.000000000000000000e+00
1.655998468399048074e+00 3.061427831649779829e+00 -5.512750744819641113e-01 9.000000000000000000e+00
2.057421922683715820e+00 3.800364971160889116e+00 -5.306191444396972656e-01 9.000000000000000000e+00
2.672915935516356978e+00 4.935216426849365234e+00 -4.910354614257813055e-01 9.000000000000000000e+00
3.809991598129272017e+00 7.028829097747802734e+00 -4.190016686916350763e-01 2.000000000000000000e+00
6.646304130554199219e+00 1.225116539001465021e+01 -2.432865500450134000e-01 2.000000000000000000e+00
1.075044035911560059e+00 1.975049614906311035e+00 -6.025307178497314453e-01 1.900000000000000000e+01
1.215652346611022949e+00 2.231517076492310014e+00 -5.866723656654357910e-01 1.100000000000000000e+01
1.406421065330504927e+00 2.580630302429199219e+00 -5.712821483612060547e-01 9.000000000000000000e+00
1.673296093940735085e+00 3.067768096923828125e+00 -5.534651279449462891e-01 9.000000000000000000e+00
2.064968347549438032e+00 3.782705783843994141e+00 -5.291566848754882812e-01 1.000000000000000000e+01
2.681532144546508789e+00 4.910118579864501953e+00 -4.894666373729705811e-01 9.000000000000000000e+00
3.823008537292480025e+00 6.994456291198729581e+00 -4.177455902099608820e-01 2.000000000000000000e+00
6.673673152923583984e+00 1.219982147216797053e+01 -2.427280694246292114e-01 2.000000000000000000e+00
1.081931591033935991e+00 1.971284985542296919e+00 -6.025307178497314453e-01 1.800000000000000000e+01
1.221557974815369096e+00 2.223844051361083984e+00 -5.857725739479064941e-01 1.100000000000000000e+01
1.410693049430846946e+00 2.567102432250977007e+00 -5.693740248680114746e-01 1.000000000000000000e+01
1.685898303985595925e+00 3.065370082855225053e+00 -5.540908575057983398e-01 9.000000000000000000e+00
2.076245307922362837e+00 3.771996498107910156e+00 -5.286692380905151367e-01 9.000000000000000000e+00
2.706343650817871094e+00 4.914690494537354404e+00 -4.908611476421356201e-01 9.000000000000000000e+00
3.870537042617797852e+00 7.023049831390380859e+00 -4.202577173709868830e-01 2.000000000000000000e+00
6.712354660034179688e+00 1.216944694519042969e+01 -2.425884455442428866e-01 2.000000000000000000e+00
1.088806152343750000e+00 1.967496395111083984e+00 -6.025307178497314453e-01 1.900000000000000000e+01
1.232145667076111062e+00 2.224680662155150923e+00 -5.871222615242004395e-01 1.200000000000000000e+01
1.418693780899048074e+00 2.560445070266724077e+00 -5.689924359321594238e-01 1.100000000000000000e+01
1.696588158607482910e+00 3.059466600418090820e+00 -5.540908575057983398e-01 9.000000000000000000e+00
2.093252658843994141e+00 3.771668910980225053e+00 -5.296441912651062012e-01 9.000000000000000000e+00
2.713811397552489790e+00 4.887794494628906250e+00 -4.891180396080017090e-01 9.000000000000000000e+00
3.902789354324340820e+00 7.023462772369384766e+00 -4.210951030254364014e-01 2.000000000000000000e+00
6.750905036926270419e+00 1.213895225524901988e+01 -2.424488365650177002e-01 2.000000000000000000e+00
1.087796568870543990e+00 1.950377464294434038e+00 -5.983896255493164062e-01 2.000000000000000000e+01
1.242365717887877974e+00 2.225687265396118164e+00 -5.884719491004943848e-01 1.100000000000000000e+01
1.430048346519469993e+00 2.560868740081787109e+00 -5.701372623443603516e-01 1.100000000000000000e+01
1.706724405288696067e+00 3.053823709487915039e+00 -5.540908575057983398e-01 9.000000000000000000e+00
2.103810310363769975e+00 3.761241674423218218e+00 -5.291566848754882812e-01 9.000000000000000000e+00
2.731950759887694868e+00 4.882245540618895596e+00 -4.894666373729705811e-01 9.000000000000000000e+00
3.914347648620605025e+00 6.989571094512938565e+00 -4.198390543460845947e-01 1.000000000000000000e+00
6.775479316711425781e+00 1.208858871459960938e+01 -2.418903559446335116e-01 2.000000000000000000e+00
1.098385572433471902e+00 1.953304052352905051e+00 -6.004601716995239258e-01 1.900000000000000000e+01
1.248215675354003906e+00 2.217940568923950195e+00 -5.875721573829650879e-01 1.100000000000000000e+01
1.436089158058166948e+00 2.550729274749755859e+00 -5.689924359321594238e-01 1.100000000000000000e+01
1.715434432029723899e+00 3.044405460357666016e+00 -5.534651279449462891e-01 9.000000000000000000e+00
2.126677513122559038e+00 3.771166086196898970e+00 -5.315940976142883301e-01 9.000000000000000000e+00
2.749955177307128906e+00 4.874414920806884766e+00 -4.896409511566162109e-01 9.000000000000000000e+00
3.942650079727172852e+00 6.982821464538574219e+00 -4.202577173709868830e-01 2.000000000000000000e+00
6.833375453948974609e+00 1.209271907806395951e+01 -2.424488365650177002e-01 2.000000000000000000e+00
1.109008193016052024e+00 1.956180334091186968e+00 -6.025307178497314453e-01 1.900000000000000000e+01
1.252103447914123979e+00 2.206790208816527876e+00 -5.857725739479064941e-01 1.100000000000000000e+01
1.451768159866333008e+00 2.557652473449707031e+00 -5.716637372970581055e-01 1.100000000000000000e+01
1.725075125694274902e+00 3.036681413650513139e+00 -5.531522631645202637e-01 9.000000000000000000e+00
2.133941650390625000e+00 3.753365516662598100e+00 -5.301316380500793457e-01 9.000000000000000000e+00
2.764983415603638139e+00 4.861322402954101562e+00 -4.892923533916472834e-01 8.000000000000000000e+00
3.955143928527832031e+00 6.948187351226806641e+00 -4.190016686916350763e-01 2.000000000000000000e+00
6.859707355499267578e+00 1.204099273681640980e+01 -2.418903559446335116e-01 2.000000000000000000e+00
1.117747068405150923e+00 1.955651760101317915e+00 -6.035659909248352051e-01 1.900000000000000000e+01
1.257863759994507058e+00 2.199023008346558061e+00 -5.848727226257324219e-01 1.100000000000000000e+01
1.455811738967895952e+00 2.544049263000487837e+00 -5.697556734085083008e-01 1.100000000000000000e+01
1.736646413803101030e+00 3.032355546951293945e+00 -5.534651279449462891e-01 9.000000000000000000e+00
2.139133214950561968e+00 3.732115745544434038e+00 -5.281817317008972168e-01 9.000000000000000000e+00
2.781935691833496094e+00 4.851641178131104404e+00 -4.892923533916472834e-01 8.000000000000000000e+00
3.963468074798583984e+00 6.906622409820556641e+00 -4.173269271850585938e-01 2.000000000000000000e+00
6.871819019317626953e+00 1.196495246887207031e+01 -2.408432066440581998e-01 2.000000000000000000e+00
1.122637748718261941e+00 1.948390364646912065e+00 -6.025307178497314453e-01 1.900000000000000000e+01
1.271373033523560014e+00 2.204747915267943892e+00 -5.875721573829650879e-01 1.100000000000000000e+01
1.463702201843261941e+00 2.537251472473144975e+00 -5.693740248680114746e-01 1.000000000000000000e+01
1.753146767616271973e+00 3.036539316177368164e+00 -5.553423762321472168e-01 9.000000000000000000e+00
2.152147769927978960e+00 3.724626064300537109e+00 -5.281817317008972168e-01 1.000000000000000000e+01
2.805833816528319868e+00 4.853975296020507812e+00 -4.905125200748444159e-01 9.000000000000000000e+00
3.993553400039672852e+00 6.903118133544921875e+00 -4.179549515247344971e-01 2.000000000000000000e+00
6.907531261444091797e+00 1.193050956726074041e+01 -2.406337857246398926e-01 2.000000000000000000e+00
1.125550866127013938e+00 1.937777757644653098e+00 -6.004601716995239258e-01 1.700000000000000000e+01
1.281020045280456987e+00 2.203666210174560991e+00 -5.884719491004943848e-01 1.100000000000000000e+01
1.469588994979857954e+00 2.527035236358643022e+00 -5.682291984558105469e-01 1.100000000000000000e+01
1.759760975837707964e+00 3.023572206497191939e+00 -5.540908575057983398e-01 9.000000000000000000e+00
2.173129081726074219e+00 3.730813503265380859e+00 -5.301316380500793457e-01 1.000000000000000000e+01
2.811726093292235884e+00 4.825215816497802734e+00 -4.885950982570648193e-01 9.000000000000000000e+00
4.015613079071044922e+00 6.885685443878173828e+00 -4.177455902099608820e-01 2.000000000000000000e+00
6.941070079803466797e+00 1.189250850677490057e+01 -2.403545379638671875e-01 2.000000000000000000e+00
1.133584141731261985e+00 1.937567114830017090e+00 -6.014954447746276855e-01 1.700000000000000000e+01
1.289906144142151101e+00 2.202994108200072798e+00 -5.893717408180236816e-01 1.000000000000000000e+01
1.480497598648071067e+00 2.527488231658935991e+00 -5.693740248680114746e-01 1.000000000000000000e+01
1.767253160476685014e+00 3.014620542526245117e+00 -5.534651279449462891e-01 9.000000000000000000e+00
2.190866231918334961e+00 3.734241008758544922e+00 -5.315940976142883301e-01 9.000000000000000000e+00
2.831913471221923828e+00 4.824950218200683594e+00 -4.894666373729705811e-01 9.000000000000000000e+00
4.037225246429443359e+00 6.873035907745361328e+00 -4.177455902099608820e-01 2.000000000000000000e+00
6.978397369384765625e+00 1.187064361572265980e+01 -2.403545379638671875e-01 2.000000000000000000e+00
1.140340566635132058e+00 1.933598279953002930e+00 -6.014954447746276855e-01 1.700000000000000000e+01
1.293626070022583008e+00 2.191765308380126953e+00 -5.875721573829650879e-01 1.100000000000000000e+01
1.497296690940856934e+00 2.535829305648804155e+00 -5.724269747734069824e-01 1.100000000000000000e+01
1.773745536804198997e+00 3.001630783081055132e+00 -5.522136688232421875e-01 9.000000000000000000e+00
2.197824954986571822e+00 3.716318845748900923e+00 -5.301316380500793457e-01 9.000000000000000000e+00
2.852796554565430132e+00 4.821894645690917969e+00 -4.901638925075531006e-01 9.000000000000000000e+00
4.067297458648681641e+00 6.869213104248046875e+00 -4.183736443519591730e-01 2.000000000000000000e+00
7.040179729461669922e+00 1.188061904907226918e+01 -2.410526424646378119e-01 2.000000000000000000e+00
1.142482638359070046e+00 1.921103715896606001e+00 -5.989072918891906738e-01 1.300000000000000000e+01
1.301650524139404075e+00 2.187009096145629883e+00 -5.875721573829650879e-01 1.100000000000000000e+01
1.501559019088744895e+00 2.521889925003052202e+00 -5.705189108848571777e-01 1.000000000000000000e+01
1.792824625968933105e+00 3.008685111999512163e+00 -5.547165870666503906e-01 9.000000000000000000e+00
2.205330610275268999e+00 3.698009014129639116e+00 -5.286692380905151367e-01 9.000000000000000000e+00
2.875554323196411133e+00 4.819961071014404297e+00 -4.910354614257813055e-01 9.000000000000000000e+00
4.084256172180175781e+00 6.840540885925292969e+00 -4.175362586975098211e-01 1.000000000000000000e+00
7.059059619903563565e+00 1.181353759765625000e+01 -2.402149289846420011e-01 2.000000000000000000e+00
1.146201848983765093e+00 1.912133097648621050e+00 -5.973543524742126465e-01 1.100000000000000000e+01
1.311281681060791016e+00 2.185794353485106978e+00 -5.884719491004943848e-01 1.100000000000000000e+01
1.507322072982788086e+00 2.511583089828491211e+00 -5.693740248680114746e-01 1.100000000000000000e+01
1.801281690597533958e+00 2.999021768569945845e+00 -5.540908575057983398e-01 8.000000000000000000e+00
2.226407289505004883e+00 3.703899383544921875e+00 -5.306191444396972656e-01 9.000000000000000000e+00
2.887228012084960938e+00 4.801357269287109375e+00 -4.901638925075531006e-01 9.000000000000000000e+00
4.118407726287841797e+00 6.843355178833007812e+00 -4.185829758644104004e-01 2.000000000000000000e+00
7.087872982025145596e+00 1.176826858520507990e+01 -2.397960573434829989e-01 2.000000000000000000e+00
1.152869462966918945e+00 1.908120512962341087e+00 -5.973543524742126465e-01 9.000000000000000000e+00
1.318903565406799094e+00 2.181203842163085938e+00 -5.884719491004943848e-01 1.100000000000000000e+01
1.513031482696532981e+00 2.501266717910767046e+00 -5.682291984558105469e-01 1.000000000000000000e+01
1.810716271400452104e+00 2.991025924682617188e+00 -5.537779927253723145e-01 9.000000000000000000e+00
2.233150959014893022e+00 3.685918331146239790e+00 -5.291566848754882812e-01 1.000000000000000000e+01
2.899839401245117188e+00 4.784434318542479581e+00 -4.894666373729705811e-01 9.000000000000000000e+00
4.140198707580566406e+00 6.825522422790527344e+00 -4.183736443519591730e-01 2.000000000000000000e+00
7.128908634185791016e+00 1.174345588684082031e+01 -2.397960573434829989e-01 2.000000000000000000e+00
1.157513499259948953e+00 1.900784611701965110e+00 -5.963190793991088867e-01 9.000000000000000000e+00
1.328537702560425027e+00 2.179914712905883789e+00 -5.893717408180236816e-01 1.100000000000000000e+01
1.524819374084473100e+00 2.500998735427856001e+00 -5.693740248680114746e-01 1.100000000000000000e+01
1.812914729118346946e+00 2.971197128295897993e+00 -5.512750744819641113e-01 1.000000000000000000e+01
2.254279851913452148e+00 3.691654443740845171e+00 -5.311065912246704102e-01 9.000000000000000000e+00
2.919638395309447798e+00 4.779383182525634766e+00 -4.899895787239075262e-01 9.000000000000000000e+00
4.153581142425537109e+00 6.793988227844238281e+00 -4.173269271850585938e-01 2.000000000000000000e+00
7.153159141540527344e+00 1.169120788574218928e+01 -2.392375916242598932e-01 2.000000000000000000e+00
1.165151953697205034e+00 1.898378968238831010e+00 -5.968367457389831543e-01 8.000000000000000000e+00
1.328999280929564986e+00 2.163640499114989790e+00 -5.862224698066711426e-01 1.200000000000000000e+01
1.538679361343384011e+00 2.504024505615233931e+00 -5.712821483612060547e-01 1.100000000000000000e+01
1.823275089263916016e+00 2.964850664138793945e+00 -5.512750744819641113e-01 9.000000000000000000e+00
2.262990713119506836e+00 3.677000761032104048e+00 -5.301316380500793457e-01 1.000000000000000000e+01
2.941526651382445845e+00 4.777646064758300781e+00 -4.908611476421356201e-01 9.000000000000000000e+00
4.181462287902832031e+00 6.786249637603759766e+00 -4.177455902099608820e-01 2.000000000000000000e+00
7.231710910797119141e+00 1.172744274139403942e+01 -2.404941618442535123e-01 2.000000000000000000e+00
1.170755147933959961e+00 1.892657399177551047e+00 -5.963190793991088867e-01 7.000000000000000000e+00
1.339620828628540039e+00 2.163959026336669922e+00 -5.875721573829650879e-01 1.100000000000000000e+01
1.546377062797545943e+00 2.496969223022460938e+00 -5.709004998207092285e-01 1.100000000000000000e+01
1.837775826454163042e+00 2.965184450149536133e+00 -5.525265336036682129e-01 9.000000000000000000e+00
2.269533872604370117e+00 3.658957242965697798e+00 -5.286692380905151367e-01 9.000000000000000000e+00
2.956084966659545898e+00 4.763963222503662109e+00 -4.905125200748444159e-01 9.000000000000000000e+00
4.200910568237304688e+00 6.764825344085693359e+00 -4.173269271850585938e-01 2.000000000000000000e+00
7.234604358673095703e+00 1.164098453521729049e+01 -2.392375916242598932e-01 2.000000000000000000e+00
1.177354574203490989e+00 1.888559103012084961e+00 -5.963190793991088867e-01 9.000000000000000000e+00
1.349229335784912109e+00 2.162576436996459961e+00 -5.884719491004943848e-01 1.100000000000000000e+01
1.550925612449645996e+00 2.484894037246704102e+00 -5.693740248680114746e-01 1.100000000000000000e+01
1.852301001548767090e+00 2.965452909469604048e+00 -5.537779927253723145e-01 9.000000000000000000e+00
2.290709972381591797e+00 3.664479017257689986e+00 -5.306191444396972656e-01 9.000000000000000000e+00
2.974808931350708008e+00 4.756993770599365234e+00 -4.908611476421356201e-01 9.000000000000000000e+00
4.226617813110351562e+00 6.753506660461425781e+00 -4.175362586975098211e-01 2.000000000000000000e+00
7.279440402984619141e+00 1.162243938446044922e+01 -2.393772006034851074e-01 2.000000000000000000e+00
1.175717949867248979e+00 1.871351480484009011e+00 -5.921779870986938477e-01 1.000000000000000000e+01
1.362993717193603960e+00 2.167752027511597124e+00 -5.911713838577270508e-01 1.000000000000000000e+01
1.561680674552917036e+00 2.482789039611815962e+00 -5.701372623443603516e-01 1.100000000000000000e+01
1.862641096115112083e+00 2.958969116210937944e+00 -5.537779927253723145e-01 9.000000000000000000e+00
2.303487539291381836e+00 3.656460762023925781e+00 -5.306191444396972656e-01 1.000000000000000000e+01
2.991395950317382812e+00 4.746581077575683594e+00 -4.908611476421356201e-01 9.000000000000000000e+00
4.248035430908203125e+00 6.735332965850830078e+00 -4.173269271850585938e-01 2.000000000000000000e+00
7.311427116394042969e+00 1.158343029022216975e+01 -2.390979677438735962e-01 2.000000000000000000e+00
1.186755418777466042e+00 1.875811457633971946e+00 -5.947661399841308594e-01 1.400000000000000000e+01
1.365627288818358931e+00 2.156873464584351030e+00 -5.893717408180236816e-01 1.100000000000000000e+01
1.570523381233215110e+00 2.479529142379761186e+00 -5.705189108848571777e-01 1.000000000000000000e+01
1.867697477340698020e+00 2.946429252624512163e+00 -5.525265336036682129e-01 9.000000000000000000e+00
2.314963340759276900e+00 3.649205923080443892e+00 -5.306191444396972656e-01 9.000000000000000000e+00
3.005225419998168945e+00 4.735477447509765625e+00 -4.906868338584899902e-01 8.000000000000000000e+00
4.269174098968505859e+00 6.721954345703125000e+00 -4.173269271850585938e-01 2.000000000000000000e+00
7.369235038757324219e+00 1.159415721893311080e+01 -2.397960573434829989e-01 2.000000000000000000e+00
1.206797242164612038e+00 1.892833828926085982e+00 -6.014954447746276855e-01 1.900000000000000000e+01
1.368955016136168990e+00 2.145522117614746094e+00 -5.875721573829650879e-01 1.100000000000000000e+01
1.586563110351562944e+00 2.485615968704224077e+00 -5.731902122497558594e-01 1.100000000000000000e+01
1.880097866058350053e+00 2.943221092224121094e+00 -5.531522631645202637e-01 9.000000000000000000e+00
2.329825639724731001e+00 3.644448041915893999e+00 -5.311065912246704102e-01 9.000000000000000000e+00
3.019590139389038086e+00 4.721601486206054688e+00 -4.903382062911986750e-01 9.000000000000000000e+00
4.290458679199218750e+00 6.703646659851074219e+00 -4.171175658702849787e-01 2.000000000000000000e+00
7.396718502044677734e+00 1.154815578460693004e+01 -2.393772006034851074e-01 2.000000000000000000e+00
1.212682127952575906e+00 1.886772751808166948e+00 -6.009778380393981934e-01 2.100000000000000000e+01
1.378918051719665971e+00 2.143768072128295898e+00 -5.884719491004943848e-01 1.100000000000000000e+01
1.588226199150085005e+00 2.468227148056029829e+00 -5.705189108848571777e-01 1.000000000000000000e+01
1.890872597694396973e+00 2.936310529708861861e+00 -5.531522631645202637e-01 9.000000000000000000e+00
2.333489418029785156e+00 3.620867013931273970e+00 -5.289129614830017090e-01 1.000000000000000000e+01
3.042273283004761186e+00 4.718874931335449219e+00 -4.912097752094268799e-01 9.000000000000000000e+00
4.319331169128417969e+00 6.694589138031005859e+00 -4.175362586975098211e-01 2.000000000000000000e+00
7.410792350769042969e+00 1.147729015350341975e+01 -2.384696751832962036e-01 2.000000000000000000e+00
1.214009881019592063e+00 1.874420881271362083e+00 -5.983896255493164062e-01 1.900000000000000000e+01
1.388512611389159934e+00 2.142212390899658203e+00 -5.893717408180236816e-01 1.100000000000000000e+01
1.597900390625000000e+00 2.464315414428710938e+00 -5.709004998207092285e-01 1.100000000000000000e+01
1.903261303901671919e+00 2.933006286621094194e+00 -5.537779927253723145e-01 9.000000000000000000e+00
2.348276853561400923e+00 3.616029262542725053e+00 -5.294004082679748535e-01 1.000000000000000000e+01
3.056555747985839844e+00 4.704885482788085938e+00 -4.908611476421356201e-01 9.000000000000000000e+00
4.341584682464599609e+00 6.677796840667724609e+00 -4.174315929412841797e-01 4.000000000000000000e+00
7.455172538757324219e+00 1.145805644989014027e+01 -2.386092990636826117e-01 2.000000000000000000e+00
1.219892621040344016e+00 1.870597720146178977e+00 -5.983896255493164062e-01 2.300000000000000000e+01
1.397365808486938032e+00 2.141103506088256836e+00 -5.902715921401977539e-01 1.200000000000000000e+01
1.599194645881653054e+00 2.449419975280762163e+00 -5.686107873916625977e-01 1.000000000000000000e+01
1.912466287612915039e+00 2.927012681961060014e+00 -5.537779927253723145e-01 9.000000000000000000e+00
2.362884521484375000e+00 3.613618373870850053e+00 -5.301316380500793457e-01 9.000000000000000000e+00
3.072412252426147017e+00 4.696927070617675781e+00 -4.910354614257813055e-01 9.000000000000000000e+00
4.355978488922119141e+00 6.654098033905029297e+00 -4.168035686016082764e-01 4.000000000000000000e+00
7.497707366943359375e+00 1.144461441040039062e+01 -2.388187348842621127e-01 2.000000000000000000e+00
1.226414799690247026e+00 1.866328120231627974e+00 -5.983896255493164062e-01 1.900000000000000000e+01
1.402689695358275923e+00 2.132956266403197798e+00 -5.893717408180236816e-01 1.100000000000000000e+01
1.609892964363097922e+00 2.447103023529053178e+00 -5.693740248680114746e-01 1.200000000000000000e+01
1.913981676101685014e+00 2.907119750976562944e+00 -5.512750744819641113e-01 9.000000000000000000e+00
2.377668380737305132e+00 3.608663558959960938e+00 -5.306191444396972656e-01 9.000000000000000000e+00
3.083306550979613814e+00 4.677855968475341797e+00 -4.901638925075531006e-01 9.000000000000000000e+00
4.382478237152099609e+00 6.643854141235351562e+00 -4.171175658702849787e-01 4.000000000000000000e+00
7.542017459869384766e+00 1.142504882812500000e+01 -2.389583438634871881e-01 2.000000000000000000e+00
1.235055088996886985e+00 1.865257263183593972e+00 -5.994248986244201660e-01 1.900000000000000000e+01
1.405820846557616965e+00 2.121549129486083984e+00 -5.875721573829650879e-01 1.200000000000000000e+01
1.626018285751342995e+00 2.452923297882080078e+00 -5.720453858375549316e-01 1.100000000000000000e+01
1.932853817939758079e+00 2.913589954376221147e+00 -5.537779927253723145e-01 9.000000000000000000e+00
2.388054370880126953e+00 3.597034454345703125e+00 -5.301316380500793457e-01 9.000000000000000000e+00
3.108434677124022993e+00 4.680342197418212891e+00 -4.915584027767180841e-01 9.000000000000000000e+00
4.399009704589843750e+00 6.618535518646240234e+00 -4.164895415306090753e-01 6.000000000000000000e+00
7.577422618865966797e+00 1.139199256896973012e+01 -2.388187348842621127e-01 2.000000000000000000e+00
1.240486383438109907e+00 1.859327793121337891e+00 -5.989072918891906738e-01 2.100000000000000000e+01
1.414299964904784934e+00 2.118249654769897017e+00 -5.880220532417297363e-01 1.200000000000000000e+01
1.626937627792357954e+00 2.435804367065430132e+00 -5.693740248680114746e-01 1.100000000000000000e+01
1.943012475967407005e+00 2.906825065612792969e+00 -5.537779927253723145e-01 9.000000000000000000e+00
2.398388385772705078e+00 3.585376739501953125e+00 -5.296441912651062012e-01 9.000000000000000000e+00
3.125861167907714844e+00 4.671119213104248047e+00 -4.917326867580413818e-01 9.000000000000000000e+00
4.427642822265625000e+00 6.611437320709229404e+00 -4.170129001140593927e-01 6.000000000000000000e+00
7.610462188720703125e+00 1.135550594329833984e+01 -2.386092990636826117e-01 2.000000000000000000e+00
1.251604914665221946e+00 1.861181020736693892e+00 -6.009778380393981934e-01 2.400000000000000000e+01
1.424230217933655007e+00 2.116285324096680132e+00 -5.889218449592590332e-01 1.200000000000000000e+01
1.635854363441467063e+00 2.429825067520142046e+00 -5.693740248680114746e-01 1.200000000000000000e+01
1.953653454780579057e+00 2.899684190750122070e+00 -5.537779927253723145e-01 9.000000000000000000e+00
2.411513328552246094e+00 3.576561927795410156e+00 -5.296441912651062012e-01 9.000000000000000000e+00
3.148531436920166016e+00 4.667889595031738281e+00 -4.926042556762694757e-01 9.000000000000000000e+00
4.452962398529052734e+00 6.596820354461669922e+00 -4.171175658702849787e-01 5.000000000000000000e+00
7.663224697113037109e+00 1.134410667419433949e+01 -2.389583438634871881e-01 2.000000000000000000e+00
1.250508666038512962e+00 1.845605492591857910e+00 -5.973543524742126465e-01 2.300000000000000000e+01
1.434889793395996094e+00 2.116139650344849077e+00 -5.902715921401977539e-01 1.300000000000000000e+01
1.646530270576477051e+00 2.427349567413330078e+00 -5.701372623443603516e-01 1.200000000000000000e+01
1.963763356208801047e+00 2.892847061157227007e+00 -5.537779927253723145e-01 9.000000000000000000e+00
2.426214218139647993e+00 3.571406602859497070e+00 -5.301316380500793457e-01 9.000000000000000000e+00
3.153607368469237837e+00 4.640392303466796875e+00 -4.908611476421356201e-01 9.000000000000000000e+00
4.486071586608886719e+00 6.596099853515625000e+00 -4.180596172809600830e-01 6.000000000000000000e+00
7.682523727416992188e+00 1.128753185272216975e+01 -2.383300662040709894e-01 2.000000000000000000e+00
1.258032679557800071e+00 1.842824697494507058e+00 -5.978720188140869141e-01 2.400000000000000000e+01
1.438969850540160911e+00 2.106290817260742188e+00 -5.889218449592590332e-01 1.300000000000000000e+01
1.658316493034363015e+00 2.426449775695800781e+00 -5.712821483612060547e-01 1.000000000000000000e+01
1.971618890762329102e+00 2.882713556289672852e+00 -5.531522631645202637e-01 9.000000000000000000e+00
2.452120780944824219e+00 3.582573175430297852e+00 -5.330564975738525391e-01 9.000000000000000000e+00
3.166409254074097124e+00 4.624423980712890625e+00 -4.903382062911986750e-01 6.000000000000000000e+00
4.518100738525390625e+00 6.593580722808837891e+00 -4.188970029354094904e-01 4.000000000000000000e+00
7.730925083160400391e+00 1.127383899688721058e+01 -2.386092990636826117e-01 2.000000000000000000e+00
1.265552401542664018e+00 1.840013861656188965e+00 -5.983896255493164062e-01 2.000000000000000000e+01
1.440788984298706055e+00 2.093228816986083984e+00 -5.866723656654357910e-01 1.400000000000000000e+01
1.665662884712219016e+00 2.419029474258422852e+00 -5.709004998207092285e-01 1.100000000000000000e+01
1.981669425964355025e+00 2.875813722610474077e+00 -5.531522631645202637e-01 9.000000000000000000e+00
2.457849740982056108e+00 3.564186573028564009e+00 -5.315940976142883301e-01 9.000000000000000000e+00
3.188189029693603960e+00 4.621542930603027344e+00 -4.912097752094268799e-01 8.000000000000000000e+00
4.543358325958251953e+00 6.581057071685791016e+00 -4.191063344478607178e-01 3.000000000000000000e+00
