-4.892041206359863281e+00 4.467047691345214844e+00 -5.795856714248657227e-01 4.000000000000000000e+00
-7.523947238922119141e+00 6.875125408172607422e+00 -5.341407656669616699e-01 2.000000000000000000e+00
-1.740816950798034890e+00 1.597401976585387962e+00 -6.330713629722595215e-01 2.100000000000000000e+01
-2.008100032806396040e+00 1.843956947326659934e+00 -6.294130682945251465e-01 1.500000000000000000e+01
-2.340817213058472124e+00 2.150230884552001953e+00 -6.178395152091979980e-01 1.200000000000000000e+01
-2.837343931198120117e+00 2.608157634735106978e+00 -6.104072928428649902e-01 8.000000000000000000e+00
-3.594025850296020952e+00 3.306034088134766069e+00 -5.995971560478210449e-01 9.000000000000000000e+00
-4.861658096313476562e+00 4.473656654357910156e+00 -5.780168771743774414e-01 4.000000000000000000e+00
-7.497493267059326172e+00 6.903964519500732422e+00 -5.341407656669616699e-01 2.000000000000000000e+00
-1.725298523902893066e+00 1.594291210174560991e+00 -6.294479370117187500e-01 1.900000000000000000e+01
-1.998789668083190918e+00 1.848309159278870073e+00 -6.285132169723510742e-01 1.500000000000000000e+01
-2.333297252655028853e+00 2.158388853073120117e+00 -6.178395152091979980e-01 1.200000000000000000e+01
-2.820974349975585938e+00 2.611336469650268999e+00 -6.088429093360900879e-01 9.000000000000000000e+00
-3.599939107894897017e+00 3.334747552871704102e+00 -6.025220155715942383e-01 9.000000000000000000e+00
-4.844551086425781250e+00 4.489245414733886719e+00 -5.778425931930541992e-01 5.000000000000000000e+00
-7.493851184844970703e+00 6.949106216430664062e+00 -5.356062054634094238e-01 2.000000000000000000e+00
-1.724245548248291016e+00 1.603951096534729004e+00 -6.310008168220520020e-01 1.900000000000000000e+01
-1.994075894355773926e+00 1.856255054473876953e+00 -6.289631724357604980e-01 1.300000000000000000e+01
-2.336184263229370117e+00 2.175479888916016069e+00 -6.205108761787414551e-01 1.100000000000000000e+01
-2.803628206253052202e+00 2.612596511840819868e+00 -6.069657206535339355e-01 9.000000000000000000e+00
-3.580150127410889116e+00 3.338544130325316939e+00 -6.010596156120300293e-01 9.000000000000000000e+00
-4.815068244934082031e+00 4.491695404052734375e+00 -5.760994553565979004e-01 8.000000000000000000e+00
-7.400686264038085938e+00 6.908499717712402344e+00 -5.305819511413574219e-01 2.000000000000000000e+00
-1.721455931663512962e+00 1.612601518630981001e+00 -6.320360898971557617e-01 1.900000000000000000e+01
-1.973366856575011985e+00 1.849876761436461958e+00 -6.244641542434692383e-01 1.400000000000000000e+01
-2.322847843170166016e+00 2.178249597549438032e+00 -6.189844012260437012e-01 1.100000000000000000e+01
-2.794491529464722124e+00 2.622367143630981001e+00 -6.069657206535339355e-01 9.000000000000000000e+00
-3.564133405685424805e+00 3.346944093704224077e+00 -6.003283858299255371e-01 9.000000000000000000e+00
-4.795003414154052734e+00 4.504383087158203125e+00 -5.755765438079833984e-01 5.000000000000000000e+00
-7.379436492919921875e+00 6.937026977539063388e+00 -5.307912826538085938e-01 2.000000000000000000e+00
-1.723410010337830034e+00 1.624627351760864036e+00 -6.346243023872375488e-01 1.800000000000000000e+01
-1.968963027000427024e+00 1.857404351234436035e+00 -6.249140501022338867e-01 1.500000000000000000e+01
-2.304570436477661133e+00 2.174757003784180132e+00 -6.159314513206481934e-01 1.100000000000000000e+01
-2.786239385604857954e+00 2.631133317947388139e+00 -6.069657206535339355e-01 9.000000000000000000e+00
-3.547829866409302202e+00 3.352670907974243164e+00 -5.993534326553344727e-01 9.000000000000000000e+00
-4.777933120727539062e+00 4.516687393188476562e+00 -5.752279162406921387e-01 4.000000000000000000e+00
-7.354704856872558594e+00 6.957430839538574219e+00 -5.305819511413574219e-01 2.000000000000000000e+00
-1.705118656158447044e+00 1.618662953376770020e+00 -6.299655437469482422e-01 1.900000000000000000e+01
-1.965293288230895996e+00 1.866950273513793945e+00 -6.258138418197631836e-01 1.200000000000000000e+01
-2.294118642807006836e+00 2.180083274841309038e+00 -6.151682138442993164e-01 1.200000000000000000e+01
-2.785626888275146040e+00 2.649010658264160156e+00 -6.088429093360900879e-01 9.000000000000000000e+00
-3.533229351043701172e+00 3.362297773361206055e+00 -5.988659262657165527e-01 9.000000000000000000e+00
-4.756365776062011719e+00 4.527842998504638672e+00 -5.745306611061096191e-01 5.000000000000000000e+00
-7.321697711944580078e+00 6.974795341491699219e+00 -5.299538969993591309e-01 2.000000000000000000e+00
-1.616167831420898082e+01 1.540670204162598012e+01 -3.897471427917479914e-01 3.000000000000000000e+00
-1.692193508148192915e+00 1.618225812911987083e+00 -6.273773908615112305e-01 1.600000000000000000e+01
-1.962661147117614968e+00 1.878182888031006081e+00 -6.271635293960571289e-01 1.100000000000000000e+01
-2.283276557922362837e+00 2.185761690139770952e+00 -6.144049763679504395e-01 1.100000000000000000e+01
-2.768766641616820845e+00 2.652370214462279829e+00 -6.072785854339599609e-01 9.000000000000000000e+00
-3.516583204269409180e+00 3.371104001998900923e+00 -5.981347560882568359e-01 8.000000000000000000e+00
-4.728234291076660156e+00 4.534213542938232422e+00 -5.731361508369445801e-01 5.000000000000000000e+00
-7.264380931854248047e+00 6.971160411834716797e+00 -5.276511311531066895e-01 2.000000000000000000e+00
-1.696275234222412109e+00 1.633502960205077903e+00 -6.310008168220520020e-01 1.600000000000000000e+01
-1.953286647796631081e+00 1.882318019866942915e+00 -6.262637376785278320e-01 8.000000000000000000e+00
-2.281286716461182085e+00 2.199168920516968218e+00 -6.159314513206481934e-01 1.200000000000000000e+01
-2.752382755279541016e+00 2.655161619186400923e+00 -6.057142615318298340e-01 8.000000000000000000e+00
-3.496225118637084961e+00 3.375086307525635210e+00 -5.966722965240478516e-01 9.000000000000000000e+00
-4.706645011901854581e+00 4.545154571533203125e+00 -5.724388957023620605e-01 4.000000000000000000e+00
-7.231385707855224609e+00 6.988147735595703125e+00 -5.270230770111083984e-01 2.000000000000000000e+00
-1.689176082611083984e+00 1.638069272041321023e+00 -6.304832100868225098e-01 1.500000000000000000e+01
-1.927125334739685059e+00 1.870124936103821023e+00 -6.199650764465332031e-01 7.000000000000000000e+00
-2.270778894424438032e+00 2.204383611679077148e+00 -6.151682138442993164e-01 1.100000000000000000e+01
-2.738847255706787109e+00 2.660623788833618164e+00 -6.047756671905517578e-01 8.000000000000000000e+00
-3.485846042633057085e+00 3.388653516769409180e+00 -5.969160199165344238e-01 9.000000000000000000e+00
-4.696464538574218750e+00 4.567111968994140625e+00 -5.731361508369445801e-01 5.000000000000000000e+00
-7.195497512817382812e+00 7.002203941345214844e+00 -5.261856913566589355e-01 2.000000000000000000e+00
-1.688976407051085982e+00 1.649354457855225053e+00 -6.325537562370300293e-01 1.800000000000000000e+01
-1.937310576438904031e+00 1.893184542655945046e+00 -6.253639459609985352e-01 7.000000000000000000e+00
-2.267282009124755859e+00 2.216413974761962891e+00 -6.163130402565002441e-01 1.200000000000000000e+01
-2.742251873016356978e+00 2.682600021362305132e+00 -6.075914502143859863e-01 9.000000000000000000e+00
-3.449881076812744141e+00 3.377193689346313032e+00 -5.927724838256835938e-01 9.000000000000000000e+00
-4.689034461975097656e+00 4.591842174530029297e+00 -5.741820335388183594e-01 5.000000000000000000e+00
-7.151040077209472656e+00 7.007707595825195312e+00 -5.247203111648559570e-01 2.000000000000000000e+00
-1.677987098693848100e+00 1.649529099464416948e+00 -6.304832100868225098e-01 1.700000000000000000e+01
-1.931021928787231001e+00 1.899598479270935059e+00 -6.253639459609985352e-01 8.000000000000000000e+00
-2.247325658798218218e+00 2.211526870727539062e+00 -6.128785014152526855e-01 1.100000000000000000e+01
-2.733340978622436968e+00 2.691679000854492188e+00 -6.075914502143859863e-01 9.000000000000000000e+00
-3.451388120651245117e+00 3.401155471801757812e+00 -5.949661135673522949e-01 9.000000000000000000e+00
-4.655336380004882812e+00 4.589182853698729581e+00 -5.719159841537475586e-01 6.000000000000000000e+00
-7.130606174468994141e+00 7.034188270568847656e+00 -5.249296426773071289e-01 2.000000000000000000e+00
-1.663981437683105025e+00 1.647221803665160911e+00 -6.273773908615112305e-01 1.900000000000000000e+01
-1.934070467948914018e+00 1.915927648544311968e+00 -6.285132169723510742e-01 1.000000000000000000e+01
-2.236803293228148970e+00 2.216594219207764116e+00 -6.121152639389038086e-01 1.100000000000000000e+01
-2.709902286529541016e+00 2.687294244766234907e+00 -6.044628024101257324e-01 9.000000000000000000e+00
-3.450767278671265093e+00 3.424368619918822798e+00 -5.969160199165344238e-01 9.000000000000000000e+00
-4.630805015563964844e+00 4.596982955932617188e+00 -5.708701014518737793e-01 6.000000000000000000e+00
-7.123012542724609375e+00 7.075926780700683594e+00 -5.261856913566589355e-01 2.000000000000000000e+00
-1.555184268951416016e+01 1.545982837677001953e+01 -3.827661871910095215e-01 3.000000000000000000e+00
-1.662615060806273970e+00 1.656821608543395996e+00 -6.289302706718444824e-01 1.800000000000000000e+01
-1.916667222976685014e+00 1.911322355270385964e+00 -6.249140501022338867e-01 1.500000000000000000e+01
-2.237780094146728960e+00 2.232318878173828125e+00 -6.144049763679504395e-01 1.200000000000000000e+01
-2.698179960250854048e+00 2.693474769592285156e+00 -6.038370132446289062e-01 9.000000000000000000e+00
-3.436583995819091797e+00 3.432986974716186968e+00 -5.964285731315612793e-01 9.000000000000000000e+00
-4.628219127655029297e+00 4.624989032745361328e+00 -5.724388957023620605e-01 3.000000000000000000e+00
-7.065614223480224609e+00 7.065614223480224609e+00 -5.236735939979553223e-01 2.000000000000000000e+00
-1.658185243606566939e+00 1.663983464241028054e+00 -6.294479370117187500e-01 1.900000000000000000e+01
-1.900358200073241965e+00 1.908335208892822044e+00 -6.217647194862365723e-01 1.400000000000000000e+01
-2.231359243392943892e+00 2.241507768630981001e+00 -6.147865653038024902e-01 1.200000000000000000e+01
-2.677616357803345171e+00 2.691673040390015093e+00 -6.013340950012207031e-01 9.000000000000000000e+00
-3.421780586242675781e+00 3.442146301269530806e+00 -5.959410667419433594e-01 9.000000000000000000e+00
-4.595193862915039062e+00 4.624157428741455078e+00 -5.703471899032592773e-01 3.000000000000000000e+00
-7.032463550567626953e+00 7.081731319427490234e+00 -5.230455398559570312e-01 2.000000000000000000e+00
-1.656151175498961958e+00 1.674170017242432085e+00 -6.310008168220520020e-01 1.800000000000000000e+01
-1.896091103553771973e+00 1.918059229850769043e+00 -6.226645112037658691e-01 1.400000000000000000e+01
-2.214848995208739790e+00 2.241292476654053178e+00 -6.124968528747558594e-01 1.200000000000000000e+01
-2.681612730026245117e+00 2.715524435043334961e+00 -6.044628024101257324e-01 9.000000000000000000e+00
-3.397986888885498047e+00 3.443361043930054155e+00 -5.939911603927612305e-01 9.000000000000000000e+00
-4.581013202667236328e+00 4.643805503845214844e+00 -5.706958174705505371e-01 4.000000000000000000e+00
-6.950375080108642578e+00 7.050565242767333984e+00 -5.188586711883544922e-01 2.000000000000000000e+00
-1.651650905609131081e+00 1.681318998336791992e+00 -6.315184831619262695e-01 2.200000000000000000e+01
-1.893479824066162109e+00 1.928838133811950906e+00 -6.240141987800598145e-01 1.300000000000000000e+01
-2.198761224746704102e+00 2.240602493286132812e+00 -6.102071404457092285e-01 1.200000000000000000e+01
-2.672117471694945845e+00 2.724868535995482954e+00 -6.044628024101257324e-01 9.000000000000000000e+00
-3.385946512222290039e+00 3.455201387405395952e+00 -5.939911603927612305e-01 9.000000000000000000e+00
-4.570352077484130859e+00 4.665461063385009766e+00 -5.713930726051330566e-01 6.000000000000000000e+00
-6.976019382476806641e+00 7.126163959503173828e+00 -5.226268768310546875e-01 2.000000000000000000e+00
-1.633923292160033958e+00 1.674343347549438032e+00 -6.268597245216369629e-01 1.800000000000000000e+01
-1.892515301704406960e+00 1.940687298774719016e+00 -6.258138418197631836e-01 1.300000000000000000e+01
-2.202282667160034180e+00 2.259128093719481978e+00 -6.132600903511047363e-01 1.200000000000000000e+01
-2.665823698043822798e+00 2.736544609069824219e+00 -6.050885319709777832e-01 9.000000000000000000e+00
-3.367546796798706055e+00 3.459298372268677202e+00 -5.927724838256835938e-01 8.000000000000000000e+00
-4.549297809600830078e+00 4.674879550933837891e+00 -5.706958174705505371e-01 6.000000000000000000e+00
-6.907792091369628906e+00 7.103438854217529297e+00 -5.192773342132568359e-01 2.000000000000000000e+00
-1.625379920005797896e+00 1.677261948585510032e+00 -6.258244514465332031e-01 1.800000000000000000e+01
-1.880306839942931907e+00 1.941681861877440962e+00 -6.240141987800598145e-01 1.500000000000000000e+01
-2.198479890823363814e+00 2.271033525466918945e+00 -6.144049763679504395e-01 1.200000000000000000e+01
-2.649387836456298828e+00 2.738734483718872070e+00 -6.035241484642028809e-01 8.000000000000000000e+00
-3.369248151779174805e+00 3.485304594039916992e+00 -5.952098965644836426e-01 9.000000000000000000e+00
-4.530182838439941406e+00 4.687865734100341797e+00 -5.703471899032592773e-01 6.000000000000000000e+00
-6.882954597473145419e+00 7.127508163452148438e+00 -5.192773342132568359e-01 2.000000000000000000e+00
-1.628892183303833008e+00 1.692669391632080078e+00 -6.294479370117187500e-01 1.600000000000000000e+01
-1.873517632484436035e+00 1.948233485221863015e+00 -6.240141987800598145e-01 1.500000000000000000e+01
-2.183736085891724077e+00 2.271616935729980025e+00 -6.124968528747558594e-01 1.200000000000000000e+01
-2.638443231582642046e+00 2.746541261672974077e+00 -6.032112836837768555e-01 9.000000000000000000e+00
-3.340564966201781782e+00 3.479859828948975053e+00 -5.922850370407104492e-01 8.000000000000000000e+00
-4.502755165100097656e+00 4.692150115966796875e+00 -5.689526796340942383e-01 6.000000000000000000e+00
-6.844209194183349609e+00 7.137075424194335938e+00 -5.182306170463562012e-01 2.000000000000000000e+00
-1.624308347702025923e+00 1.699741601943969949e+00 -6.299655437469482422e-01 1.800000000000000000e+01
-1.862668037414551003e+00 1.950533390045166016e+00 -6.226645112037658691e-01 1.400000000000000000e+01
-2.174437761306763139e+00 2.277805805206298828e+00 -6.121152639389038086e-01 1.200000000000000000e+01
-2.634294033050537109e+00 2.761451721191405806e+00 -6.044628024101257324e-01 9.000000000000000000e+00
-3.325658321380614790e+00 3.488625764846802202e+00 -5.917975306510925293e-01 8.000000000000000000e+00
-4.471229553222656250e+00 4.691973209381104404e+00 -5.670352578163146973e-01 6.000000000000000000e+00
-6.797216892242431641e+00 7.137780666351318359e+00 -5.165559053421020508e-01 2.000000000000000000e+00
-1.618960499763488992e+00 1.704836130142211914e+00 -6.299655437469482422e-01 1.700000000000000000e+01
-5.852850723266602273e+01 6.165462112426757812e+01 1.483873367309570090e+00 1.000000000000000000e+00
-1.857872486114501953e+00 1.957789063453674094e+00 -6.231144070625305176e-01 1.300000000000000000e+01
-2.157813072204589844e+00 2.274655342102050781e+00 -6.094439029693603516e-01 1.200000000000000000e+01
-2.626964569091796875e+00 2.771147727966309038e+00 -6.047756671905517578e-01 9.000000000000000000e+00
-3.320142745971680132e+00 3.504820823669434038e+00 -5.927724838256835938e-01 8.000000000000000000e+00
-4.445507526397705078e+00 4.694423198699951172e+00 -5.656407475471496582e-01 6.000000000000000000e+00
-6.804960727691650391e+00 7.191014289855957031e+00 -5.188586711883544922e-01 2.000000000000000000e+00
-1.601071119308471902e+00 1.697827577590941939e+00 -6.253067851066589355e-01 1.900000000000000000e+01
-1.856373190879821999e+00 1.969935297966002974e+00 -6.249140501022338867e-01 1.300000000000000000e+01
-2.151206016540526900e+00 2.283602714538574219e+00 -6.098255515098571777e-01 1.200000000000000000e+01
-2.615921497344971147e+00 2.778862237930297852e+00 -6.044628024101257324e-01 9.000000000000000000e+00
-3.313328981399536133e+00 3.522172451019287109e+00 -5.937474370002746582e-01 9.000000000000000000e+00
-4.427729129791259766e+00 4.708461284637451172e+00 -5.654664635658264160e-01 6.000000000000000000e+00
-6.777082443237304688e+00 7.211813449859619141e+00 -5.186493396759033203e-01 2.000000000000000000e+00
-1.596157789230346902e+00 1.705094814300537109e+00 -6.258244514465332031e-01 1.800000000000000000e+01
-1.846477985382080078e+00 1.973879814147948997e+00 -6.240141987800598145e-01 1.300000000000000000e+01
-2.153549194335937944e+00 2.302943706512451172e+00 -6.128785014152526855e-01 1.200000000000000000e+01
-2.594929218292235884e+00 2.776885032653809038e+00 -6.019598245620727539e-01 9.000000000000000000e+00
-3.294977903366088867e+00 3.528489351272583008e+00 -5.927724838256835938e-01 9.000000000000000000e+00
-4.394127368927001953e+00 4.707180976867675781e+00 -5.633746981620788574e-01 4.000000000000000000e+00
-6.728806495666503906e+00 7.213236808776854581e+00 -5.169745683670043945e-01 2.000000000000000000e+00
-1.595457315444946067e+00 1.716315746307373047e+00 -6.278949975967407227e-01 1.800000000000000000e+01
-1.834271430969238059e+00 1.974602103233336958e+00 -6.222146153450012207e-01 1.300000000000000000e+01
-2.136145830154418945e+00 2.300376415252685991e+00 -6.102071404457092285e-01 1.200000000000000000e+01
-2.582532882690430132e+00 2.783030271530150923e+00 -6.013340950012207031e-01 9.000000000000000000e+00
-3.282641172409058061e+00 3.539969444274901900e+00 -5.927724838256835938e-01 8.000000000000000000e+00
-4.392568588256835938e+00 4.738563060760498047e+00 -5.652921199798583984e-01 6.000000000000000000e+00
-6.703586578369140625e+00 7.236680984497070312e+00 -5.169745683670043945e-01 2.000000000000000000e+00
-1.593688845634460005e+00 1.725854873657227007e+00 -6.294479370117187500e-01 1.900000000000000000e+01
-1.823748588562011941e+00 1.976377487182616965e+00 -6.208649277687072754e-01 1.300000000000000000e+01
-2.135161638259888139e+00 2.314662933349608931e+00 -6.121152639389038086e-01 1.200000000000000000e+01
-2.578645229339600053e+00 2.797388553619385210e+00 -6.025855541229248047e-01 9.000000000000000000e+00
-3.253400087356566939e+00 3.531855106353760210e+00 -5.896039009094238281e-01 9.000000000000000000e+00
-4.378180503845214844e+00 4.754569053649902344e+00 -5.654664635658264160e-01 6.000000000000000000e+00
-6.663322925567626953e+00 7.241234302520751953e+00 -5.157185196876525879e-01 2.000000000000000000e+00
-1.583737850189208984e+00 1.727135896682739036e+00 -6.278949975967407227e-01 1.900000000000000000e+01
-1.824737906455994096e+00 1.991352081298827903e+00 -6.235643029212951660e-01 1.400000000000000000e+01
-2.123090505599976030e+00 2.317758798599243164e+00 -6.109703779220581055e-01 1.200000000000000000e+01
-2.568864822387694868e+00 2.806372642517089844e+00 -6.025855541229248047e-01 9.000000000000000000e+00
-3.247750759124755859e+00 3.550513744354248047e+00 -5.908225774765014648e-01 9.000000000000000000e+00
-4.350800991058349609e+00 4.758059978485107422e+00 -5.640719532966613770e-01 4.000000000000000000e+00
-6.629921913146972656e+00 7.255603313446044922e+00 -5.150904655456542969e-01 2.000000000000000000e+00
-1.564692854881287065e+00 1.718369603157043013e+00 -6.227186322212219238e-01 1.800000000000000000e+01
-1.821710348129272017e+00 2.002033472061156782e+00 -6.249140501022338867e-01 1.500000000000000000e+01
-2.112344980239868164e+00 2.322251081466674805e+00 -6.102071404457092285e-01 1.200000000000000000e+01
-2.559053182601929155e+00 2.815322637557982954e+00 -6.025855541229248047e-01 9.000000000000000000e+00
-3.232668161392211914e+00 3.558889865875244141e+00 -5.903350710868835449e-01 8.000000000000000000e+00
-4.334166049957275391e+00 4.773218154907226562e+00 -5.640719532966613770e-01 6.000000000000000000e+00
-6.596502304077148438e+00 7.269827365875244141e+00 -5.144624710083007812e-01 2.000000000000000000e+00
-1.565163373947143999e+00 1.730985522270203081e+00 -6.253067851066589355e-01 1.900000000000000000e+01
-1.810791373252869096e+00 2.004042387008666992e+00 -6.235643029212951660e-01 1.400000000000000000e+01
-2.105541944503784180e+00 2.331067323684691939e+00 -6.105887889862060547e-01 1.300000000000000000e+01
-2.541268825531005859e+00 2.815439939498900923e+00 -6.007083654403686523e-01 9.000000000000000000e+00
-3.214907169342041016e+00 3.564256191253662109e+00 -5.893601179122924805e-01 8.000000000000000000e+00
-4.312140941619873047e+00 4.782399177551270419e+00 -5.633746981620788574e-01 6.000000000000000000e+00
-6.560389995574951172e+00 7.280938625335693359e+00 -5.136250853538513184e-01 2.000000000000000000e+00
-1.566855549812316895e+00 1.745063185691833052e+00 -6.284126639366149902e-01 1.900000000000000000e+01
-1.786866307258605957e+00 1.991495013236999956e+00 -6.177155971527099609e-01 1.200000000000000000e+01
-2.094770431518555132e+00 2.335479736328125000e+00 -6.098255515098571777e-01 1.200000000000000000e+01
-2.523514986038208008e+00 2.815467596054077148e+00 -5.988311171531677246e-01 9.000000000000000000e+00
-3.202445983886719194e+00 3.575456619262694868e+00 -5.893601179122924805e-01 9.000000000000000000e+00
-4.294092178344726562e+00 4.795938014984130859e+00 -5.632004141807556152e-01 6.000000000000000000e+00
-6.521617412567138672e+00 7.288909912109375000e+00 -5.125783681869506836e-01 2.000000000000000000e+00
-1.559468865394592063e+00 1.749079942703247070e+00 -6.278949975967407227e-01 1.700000000000000000e+01
-1.783792853355407937e+00 2.002085208892821822e+00 -6.190652847290039062e-01 1.100000000000000000e+01
-2.081382274627685991e+00 2.336913347244263139e+00 -6.082990765571594238e-01 1.200000000000000000e+01
-2.524178266525268999e+00 2.836063861846923828e+00 -6.013340950012207031e-01 9.000000000000000000e+00
-3.176753282546997070e+00 3.571780443191527876e+00 -5.869227647781372070e-01 8.000000000000000000e+00
-4.276000976562500000e+00 4.809409141540527344e+00 -5.630260705947875977e-01 6.000000000000000000e+00
-6.498787403106688565e+00 7.314616203308104581e+00 -5.127876996994018555e-01 2.000000000000000000e+00
-1.343050956726074041e+01 1.512714672088623047e+01 -3.530970811843872070e-01 3.000000000000000000e+00
-1.550487041473388894e+00 1.751890659332274947e+00 -6.268597245216369629e-01 1.800000000000000000e+01
-1.784188985824584961e+00 2.017368078231811968e+00 -6.217647194862365723e-01 1.400000000000000000e+01
-2.074103593826293945e+00 2.345997095108031782e+00 -6.086806654930114746e-01 1.200000000000000000e+01
-2.512458562850952148e+00 2.843816041946411133e+00 -6.010212302207946777e-01 9.000000000000000000e+00
-3.166268348693848100e+00 3.586376190185546875e+00 -5.874102115631103516e-01 9.000000000000000000e+00
-4.254389762878417969e+00 4.820567607879638672e+00 -5.625031590461730957e-01 6.000000000000000000e+00
-6.442871093750000000e+00 7.305431842803955078e+00 -5.104849338531494141e-01 2.000000000000000000e+00
-1.541811823844909890e+00 1.754389882087707964e+00 -6.258244514465332031e-01 1.800000000000000000e+01
-1.782279849052428977e+00 2.029440879821776900e+00 -6.235643029212951660e-01 1.100000000000000000e+01
-2.065901756286621094e+00 2.353222846984862837e+00 -6.086806654930114746e-01 1.100000000000000000e+01
-2.496002912521361861e+00 2.845144033432006836e+00 -5.994568467140197754e-01 9.000000000000000000e+00
-3.153730392456055132e+00 3.597406625747681108e+00 -5.874102115631103516e-01 8.000000000000000000e+00
-4.213900566101074219e+00 4.808417320251464844e+00 -5.593655705451965332e-01 6.000000000000000000e+00
-6.446279525756835938e+00 7.360932826995849609e+00 -5.127876996994018555e-01 2.000000000000000000e+00
-1.535021901130676047e+00 1.757769942283629927e+00 -6.253067851066589355e-01 1.900000000000000000e+01
-5.840384674072266336e+01 6.690242767333984375e+01 1.550157666206360085e+00 1.000000000000000000e+00
-1.772051453590393066e+00 2.030625104904174805e+00 -6.222146153450012207e-01 1.500000000000000000e+01
-2.058498859405518022e+00 2.359701395034790039e+00 -6.086806654930114746e-01 1.100000000000000000e+01
-2.477966070175170898e+00 2.842548131942749023e+00 -5.972667932510375977e-01 9.000000000000000000e+00
-3.154148340225220171e+00 3.620767831802368164e+00 -5.896039009094238281e-01 9.000000000000000000e+00
-4.214474678039550781e+00 4.839662551879882812e+00 -5.614572763442993164e-01 6.000000000000000000e+00
-6.383789062500000000e+00 7.335948467254638672e+00 -5.096475481986999512e-01 2.000000000000000000e+00
-1.527611136436461958e+00 1.761657834053039995e+00 -6.247891783714294434e-01 1.700000000000000000e+01
-1.758571624755858931e+00 2.029434680938721147e+00 -6.199650764465332031e-01 1.600000000000000000e+01
-2.054105520248413086e+00 2.371324300765991211e+00 -6.098255515098571777e-01 1.100000000000000000e+01
-2.474492788314818892e+00 2.858648300170897993e+00 -5.988311171531677246e-01 9.000000000000000000e+00
-3.127204895019530806e+00 3.615241050720214844e+00 -5.869227647781372070e-01 8.000000000000000000e+00
-4.192342758178710938e+00 4.848315715789794922e+00 -5.607600212097167969e-01 4.000000000000000000e+00
-6.358143329620361328e+00 7.358187198638916016e+00 -5.096475481986999512e-01 2.000000000000000000e+00
-1.289655208587645951e+01 1.493552875518799006e+01 -3.444406986236572266e-01 3.000000000000000000e+00
-1.529965996742248979e+00 1.777494192123413086e+00 -6.284126639366149902e-01 1.600000000000000000e+01
-1.749850749969481978e+00 2.034389257431029829e+00 -6.195151805877685547e-01 1.500000000000000000e+01
-2.046680450439453125e+00 2.380325794219971147e+00 -6.102071404457092285e-01 1.100000000000000000e+01
-2.471722841262816939e+00 2.876688241958618164e+00 -6.007083654403686523e-01 9.000000000000000000e+00
-3.103588104248046875e+00 3.614629745483397993e+00 -5.849728584289550781e-01 8.000000000000000000e+00
-4.178437709808349609e+00 4.868184566497802734e+00 -5.612829923629760742e-01 4.000000000000000000e+00
-6.307725906372070312e+00 7.354153633117675781e+00 -5.077634453773498535e-01 2.000000000000000000e+00
-1.517476320266724077e+00 1.775481104850769043e+00 -6.258244514465332031e-01 1.800000000000000000e+01
-1.747801184654236062e+00 2.046412229537963867e+00 -6.213148236274719238e-01 1.500000000000000000e+01
-2.029435634613037109e+00 2.377003908157349077e+00 -6.075358390808105469e-01 1.100000000000000000e+01
-2.459102153778076172e+00 2.882293224334716797e+00 -6.000826358795166016e-01 9.000000000000000000e+00
-3.105118513107299805e+00 3.642057895660399947e+00 -5.876539945602416992e-01 9.000000000000000000e+00
-4.156249523162841797e+00 4.876674652099609375e+00 -5.605857372283935547e-01 4.000000000000000000e+00
-6.287196636199951172e+00 7.382208824157714844e+00 -5.081821084022521973e-01 2.000000000000000000e+00
-1.505019426345824973e+00 1.773402690887450950e+00 -6.232362389564514160e-01 1.900000000000000000e+01
-1.745688915252685991e+00 2.058445692062377930e+00 -6.231144070625305176e-01 1.500000000000000000e+01
-2.010969638824462891e+00 2.372093200683594194e+00 -6.044828891754150391e-01 1.100000000000000000e+01
-2.446472167968750000e+00 2.887845039367675781e+00 -5.994568467140197754e-01 9.000000000000000000e+00
-3.083408117294311968e+00 3.642268896102904829e+00 -5.859478116035461426e-01 9.000000000000000000e+00
-4.131479263305664062e+00 4.882027626037597656e+00 -5.595398545265197754e-01 4.000000000000000000e+00
-6.269127845764160156e+00 7.413260459899902344e+00 -5.088101625442504883e-01 2.000000000000000000e+00
-1.255611228942870916e+01 1.485815238952637074e+01 -3.395540118217468262e-01 3.000000000000000000e+00
-1.497575044631958008e+00 1.777168154716491921e+00 -6.227186322212219238e-01 1.600000000000000000e+01
-1.735982537269592063e+00 2.061545372009276900e+00 -6.222146153450012207e-01 1.600000000000000000e+01
-2.015320301055908203e+00 2.394117832183837891e+00 -6.082990765571594238e-01 1.200000000000000000e+01
-2.428747415542602983e+00 2.887297153472899947e+00 -5.975796580314636230e-01 9.000000000000000000e+00
-3.075784921646118164e+00 3.659088134765625000e+00 -5.869227647781372070e-01 8.000000000000000000e+00
-4.114412307739257812e+00 4.896419525146484375e+00 -5.595398545265197754e-01 6.000000000000000000e+00
-6.220094203948974609e+00 7.407567024230957031e+00 -5.069260597229003906e-01 2.000000000000000000e+00
-1.247589302062987926e+01 1.486818981170653942e+01 -3.387861251831055243e-01 3.000000000000000000e+00
-1.501906275749206987e+00 1.793713569641113059e+00 -6.268597245216369629e-01 1.700000000000000000e+01
-1.725745797157288042e+00 2.062505245208739790e+00 -6.208649277687072754e-01 1.400000000000000000e+01
-2.010308265686035156e+00 2.403449058532714844e+00 -6.090623140335083008e-01 1.100000000000000000e+01
-2.423465251922606978e+00 2.899460077285767046e+00 -5.985182523727416992e-01 9.000000000000000000e+00
-3.065546751022338867e+00 3.670256376266479048e+00 -5.871664881706237793e-01 9.000000000000000000e+00
-4.101563453674316406e+00 4.912380218505859375e+00 -5.598884820938110352e-01 4.000000000000000000e+00
-6.176319599151611328e+00 7.402534484863281250e+00 -5.052513480186462402e-01 2.000000000000000000e+00
-1.242912101745604936e+01 1.490731048583984020e+01 -3.387861251831055243e-01 3.000000000000000000e+00
-1.489460706710814986e+00 1.791517734527587891e+00 -6.242715120315551758e-01 1.600000000000000000e+01
-1.713554501533508079e+00 2.062520980834960938e+00 -6.190652847290039062e-01 1.400000000000000000e+01
-1.999397754669189009e+00 2.407431125640869141e+00 -6.082990765571594238e-01 1.100000000000000000e+01
-2.405760049819945845e+00 2.898781299591064009e+00 -5.966410636901855469e-01 8.000000000000000000e+00
-3.046380519866942915e+00 3.673294782638549805e+00 -5.859478116035461426e-01 8.000000000000000000e+00
-4.081848144531250000e+00 4.923599720001220703e+00 -5.595398545265197754e-01 4.000000000000000000e+00
-6.150442123413085938e+00 7.424048423767089844e+00 -5.052513480186462402e-01 2.000000000000000000e+00
-1.239231204986572088e+01 1.496908950805664062e+01 -3.392049670219420832e-01 3.000000000000000000e+00
-1.489032387733459029e+00 1.804414987564086914e+00 -6.268597245216369629e-01 1.700000000000000000e+01
-1.704743623733520952e+00 2.067284107208251953e+00 -6.186153888702392578e-01 1.200000000000000000e+01
-1.983067989349365012e+00 2.405653715133666992e+00 -6.060093641281127930e-01 1.100000000000000000e+01
-2.406423091888428178e+00 2.921301603317261186e+00 -5.994568467140197754e-01 9.000000000000000000e+00
-3.032896757125854048e+00 3.684435606002808061e+00 -5.859478116035461426e-01 8.000000000000000000e+00
-4.065040588378906250e+00 4.940065860748291016e+00 -5.597141981124877930e-01 4.000000000000000000e+00
-6.143486976623535156e+00 7.471224308013916016e+00 -5.069260597229003906e-01 2.000000000000000000e+00
-1.235513782501221058e+01 1.503603935241699041e+01 -3.396936357021331787e-01 3.000000000000000000e+00
-1.470480918884276900e+00 1.794658660888672097e+00 -6.216833591461181641e-01 1.800000000000000000e+01
-1.703689932823180930e+00 2.080761194229125977e+00 -6.208649277687072754e-01 1.200000000000000000e+01
-1.978389024734497070e+00 2.417119026184082031e+00 -6.071542501449584961e-01 1.200000000000000000e+01
-2.391208648681641069e+00 2.923567533493041992e+00 -5.982053875923156738e-01 9.000000000000000000e+00
-3.017504692077637163e+00 3.691926002502440962e+00 -5.854603052139282227e-01 9.000000000000000000e+00
-4.013735771179199219e+00 4.912567138671875000e+00 -5.550077557563781738e-01 6.000000000000000000e+00
-6.097159862518311435e+00 7.467869758605957031e+00 -5.052513480186462402e-01 2.000000000000000000e+00
-1.215846538543700994e+01 1.490244007110596058e+01 -3.357144892215728760e-01 3.000000000000000000e+00
-1.469987750053405984e+00 1.807530045509337935e+00 -6.242715120315551758e-01 1.600000000000000000e+01
-1.697281122207642046e+00 2.088503837585449219e+00 -6.213148236274719238e-01 1.200000000000000000e+01
-1.973230242729187012e+00 2.428925275802611861e+00 -6.082990765571594238e-01 1.100000000000000000e+01
-2.373007059097290039e+00 2.923110246658325195e+00 -5.963281989097595215e-01 9.000000000000000000e+00
-3.008955240249633789e+00 3.709127426147460938e+00 -5.864352583885192871e-01 8.000000000000000000e+00
-4.000722885131835938e+00 4.933435440063476562e+00 -5.557050108909606934e-01 6.000000000000000000e+00
-6.044598579406738281e+00 7.459132194519042969e+00 -5.031578540802001953e-01 2.000000000000000000e+00
-1.463669419288635032e+00 1.812650322914123979e+00 -6.242715120315551758e-01 1.600000000000000000e+01
-1.683861851692199929e+00 2.086832761764525923e+00 -6.190652847290039062e-01 1.300000000000000000e+01
-1.961041927337646040e+00 2.431214094161986861e+00 -6.071542501449584961e-01 1.100000000000000000e+01
-2.372706413269042969e+00 2.943679571151732954e+00 -5.988311171531677246e-01 9.000000000000000000e+00
-2.987273216247559038e+00 3.708786249160767046e+00 -5.847291350364685059e-01 9.000000000000000000e+00
-3.980978727340697798e+00 4.944266796112061435e+00 -5.553563833236694336e-01 6.000000000000000000e+00
-6.018524646759033203e+00 7.480186462402343750e+00 -5.031578540802001953e-01 2.000000000000000000e+00
-1.202144241333007990e+01 1.495165920257568004e+01 -3.348767757415770929e-01 3.000000000000000000e+00
-1.461594343185425027e+00 1.821760058403014915e+00 -6.258244514465332031e-01 1.500000000000000000e+01
-1.669983744621277078e+00 2.082989931106566939e+00 -6.163659095764160156e-01 1.400000000000000000e+01
-1.949711084365844949e+00 2.432766914367675781e+00 -6.060093641281127930e-01 1.100000000000000000e+01
-2.360977172851562944e+00 2.948035478591918945e+00 -5.982053875923156738e-01 9.000000000000000000e+00
-2.978087663650513139e+00 3.721252441406250000e+00 -5.852165818214416504e-01 9.000000000000000000e+00
-3.965426206588745117e+00 4.956748962402343750e+00 -5.553563833236694336e-01 4.000000000000000000e+00
-5.975040912628173828e+00 7.474096775054931641e+00 -5.014831423759460449e-01 2.000000000000000000e+00
-1.194196033477783025e+01 1.494873046875000000e+01 -3.339692354202271063e-01 3.000000000000000000e+00
-1.448004364967345969e+00 1.817784667015075906e+00 -6.227186322212219238e-01 1.600000000000000000e+01
-1.672411799430846946e+00 2.101004123687744141e+00 -6.199650764465332031e-01 1.400000000000000000e+01
-1.941207289695739968e+00 2.439558029174805132e+00 -6.060093641281127930e-01 1.100000000000000000e+01
-2.348213434219359907e+00 2.953166484832764116e+00 -5.975796580314636230e-01 9.000000000000000000e+00
-2.962610006332397017e+00 3.728516817092895952e+00 -5.847291350364685059e-01 9.000000000000000000e+00
-3.941903829574584961e+00 4.962759971618652344e+00 -5.544848442077636719e-01 4.000000000000000000e+00
-5.961331844329833984e+00 7.510551929473876953e+00 -5.025298595428466797e-01 2.000000000000000000e+00
-1.188970661163330078e+01 1.499032497406006037e+01 -3.339692354202271063e-01 3.000000000000000000e+00
-1.443728327751159890e+00 1.826110482215880904e+00 -6.237539052963256836e-01 1.700000000000000000e+01
-1.669532299041748047e+00 2.113236188888549805e+00 -6.217647194862365723e-01 1.300000000000000000e+01
-1.932252764701843040e+00 2.446656465530395952e+00 -6.060093641281127930e-01 1.100000000000000000e+01
-2.331254959106444868e+00 2.953999996185303178e+00 -5.960153341293334961e-01 9.000000000000000000e+00
-2.941549062728881836e+00 3.729998111724853960e+00 -5.832666754722595215e-01 9.000000000000000000e+00
-3.903952121734619141e+00 4.952139854431152344e+00 -5.516958236694335938e-01 6.000000000000000000e+00
-5.918932914733886719e+00 7.513523578643798828e+00 -5.012738108634948730e-01 2.000000000000000000e+00
-1.180252552032471058e+01 1.499294948577881037e+01 -3.330617249011992853e-01 3.000000000000000000e+00
-1.434959530830383079e+00 1.828099727630615012e+00 -6.227186322212219238e-01 1.800000000000000000e+01
-1.657334685325623003e+00 2.112917661666870117e+00 -6.199650764465332031e-01 1.400000000000000000e+01
-1.924911975860595925e+00 2.454931259155272993e+00 -6.063910126686096191e-01 1.000000000000000000e+01
-2.328239202499390093e+00 2.971449136734008789e+00 -5.978925228118896484e-01 8.000000000000000000e+00
-2.938301324844359907e+00 3.752747058868408203e+00 -5.852165818214416504e-01 9.000000000000000000e+00
-3.874362230300902876e+00 4.950047492980957031e+00 -5.499527454376220703e-01 6.000000000000000000e+00
-5.836068630218505859e+00 7.461771011352539062e+00 -4.964588880538939875e-01 2.000000000000000000e+00
-1.175011825561523082e+01 1.503405666351318004e+01 -3.330617249011992853e-01 3.000000000000000000e+00
-1.430944561958312988e+00 1.836145043373107910e+00 -6.237539052963256836e-01 1.700000000000000000e+01
-1.646357059478759988e+00 2.114077329635620117e+00 -6.186153888702392578e-01 1.500000000000000000e+01
-1.919948935508728027e+00 2.466283082962036133e+00 -6.075358390808105469e-01 1.000000000000000000e+01
-2.314214229583739790e+00 2.974880695343018022e+00 -5.969539284706115723e-01 9.000000000000000000e+00
-2.920310497283935991e+00 3.756711959838867188e+00 -5.842416286468505859e-01 9.000000000000000000e+00
-3.874175071716309038e+00 4.985566616058349609e+00 -5.523930788040161133e-01 6.000000000000000000e+00
-5.834486007690429688e+00 7.513647079467773438e+00 -4.985523223876953125e-01 2.000000000000000000e+00
-1.168530941009520951e+01 1.505918121337890980e+01 -3.327126801013947088e-01 3.000000000000000000e+00
-1.431619644165039062e+00 1.850296258926392046e+00 -6.268597245216369629e-01 1.800000000000000000e+01
-1.636583566665648970e+00 2.116728067398070845e+00 -6.177155971527099609e-01 1.500000000000000000e+01
-1.905325412750243919e+00 2.465203046798706055e+00 -6.056277751922607422e-01 1.000000000000000000e+01
-2.302608251571654829e+00 2.981377363204956055e+00 -5.966410636901855469e-01 9.000000000000000000e+00
-2.899902343750000000e+00 3.757453680038452148e+00 -5.827792286872863770e-01 9.000000000000000000e+00
-3.853097438812255859e+00 4.994327068328857422e+00 -5.518701672554016113e-01 7.000000000000000000e+00
-5.796028614044188565e+00 7.518149852752686435e+00 -4.975056052207946777e-01 2.000000000000000000e+00
-1.159850120544433949e+01 1.505552387237549006e+01 -3.317353427410125732e-01 3.000000000000000000e+00
-1.424298882484436035e+00 1.853501677513123003e+00 -6.263421177864074707e-01 1.600000000000000000e+01
-1.627181529998779075e+00 2.119052171707152876e+00 -6.168158054351806641e-01 1.600000000000000000e+01
-1.894749164581299050e+00 2.468393087387084961e+00 -6.048645377159118652e-01 1.000000000000000000e+01
-2.297518014907836914e+00 2.995266199111938032e+00 -5.978925228118896484e-01 8.000000000000000000e+00
-2.892256736755371094e+00 3.773351669311522993e+00 -5.837541818618774414e-01 9.000000000000000000e+00
-3.821973085403441939e+00 4.988098621368408203e+00 -5.497784018516540527e-01 7.000000000000000000e+00
-5.763780117034912109e+00 7.527813911437988281e+00 -4.968775808811187744e-01 2.000000000000000000e+00
-1.156552314758300959e+01 1.511613750457764027e+01 -3.322240114212036133e-01 3.000000000000000000e+00
-1.406102657318115012e+00 1.843102931976317915e+00 -6.211656928062438965e-01 1.600000000000000000e+01
-1.622137665748595969e+00 2.127818822860718218e+00 -6.177155971527099609e-01 1.500000000000000000e+01
-1.878981471061706987e+00 2.465622901916503906e+00 -6.025748252868652344e-01 1.000000000000000000e+01
-2.283458232879639116e+00 2.998553037643433061e+00 -5.969539284706115723e-01 9.000000000000000000e+00
-2.870652914047241211e+00 3.772366523742675781e+00 -5.820479989051818848e-01 9.000000000000000000e+00
-3.791269302368164062e+00 4.983966350555419922e+00 -5.478609800338745117e-01 9.000000000000000000e+00
-5.737468242645263672e+00 7.547887802124023438e+00 -4.968775808811187744e-01 2.000000000000000000e+00
-1.145220851898193004e+01 1.507679653167724965e+01 -3.304787576198577881e-01 3.000000000000000000e+00
-1.404326081275939941e+00 1.854159951210021973e+00 -6.232362389564514160e-01 1.600000000000000000e+01
-1.615876317024230957e+00 2.135021924972534180e+00 -6.181654930114746094e-01 1.600000000000000000e+01
-1.879839539527893066e+00 2.484691858291625977e+00 -6.056277751922607422e-01 1.000000000000000000e+01
-2.263447284698485884e+00 2.993899583816527876e+00 -5.944509506225585938e-01 9.000000000000000000e+00
-2.857467412948607954e+00 3.782363891601562944e+00 -5.820479989051818848e-01 9.000000000000000000e+00
-3.767845153808594194e+00 4.989220619201660156e+00 -5.469894409179687500e-01 6.000000000000000000e+00
-5.687024593353270596e+00 7.535984039306640625e+00 -4.947841167449951172e-01 2.000000000000000000e+00
-1.139951133728026988e+01 1.511668014526367010e+01 -3.304787576198577881e-01 3.000000000000000000e+00
-1.396684288978577104e+00 1.857506513595581055e+00 -6.227186322212219238e-01 1.700000000000000000e+01
-1.603731393814086914e+00 2.134417533874512163e+00 -6.163659095764160156e-01 1.700000000000000000e+01
-1.868796825408935991e+00 2.488099098205565962e+00 -6.048645377159118652e-01 1.000000000000000000e+01
-2.255354404449462891e+00 3.004941940307617188e+00 -5.950766801834106445e-01 9.000000000000000000e+00
-2.849011182785034180e+00 3.798667430877685991e+00 -5.830229520797729492e-01 9.000000000000000000e+00
-3.757577657699584961e+00 5.011907100677490234e+00 -5.480353236198425293e-01 7.000000000000000000e+00
-5.677449703216552734e+00 7.578167915344238281e+00 -4.962495267391204834e-01 2.000000000000000000e+00
-1.395969867706299050e+00 1.870111107826232910e+00 -6.253067851066589355e-01 1.600000000000000000e+01
-1.590445399284363015e+00 2.132192373275756836e+00 -6.141163706779479980e-01 1.600000000000000000e+01
-1.857753276824950950e+00 2.491459608078002930e+00 -6.041013002395629883e-01 1.100000000000000000e+01
-2.244851350784302202e+00 3.012796401977539062e+00 -5.950766801834106445e-01 9.000000000000000000e+00
-2.825064420700072798e+00 3.794259309768677202e+00 -5.808292627334594727e-01 1.100000000000000000e+01
-3.746007919311522993e+00 5.032984256744384766e+00 -5.489068627357482910e-01 7.000000000000000000e+00
-5.634274959564208984e+00 7.575503349304199219e+00 -4.947841167449951172e-01 2.000000000000000000e+00
-1.121735858917235973e+01 1.509317684173583984e+01 -3.282448649406433105e-01 3.000000000000000000e+00
-1.388283252716064009e+00 1.873420476913451926e+00 -6.247891783714294434e-01 1.200000000000000000e+01
-1.594589948654175027e+00 2.153392076492310014e+00 -6.186153888702392578e-01 1.600000000000000000e+01
-1.847877025604248047e+00 2.496351242065430132e+00 -6.037196516990661621e-01 1.200000000000000000e+01
-2.243718862533568892e+00 3.033318996429442915e+00 -5.975796580314636230e-01 9.000000000000000000e+00
-2.808263063430786133e+00 3.799308538436890093e+00 -5.800980925559997559e-01 9.000000000000000000e+00
-3.715392589569091797e+00 5.028402805328369141e+00 -5.469894409179687500e-01 9.000000000000000000e+00
-5.619660854339599609e+00 7.611191749572753906e+00 -4.958308637142180841e-01 2.000000000000000000e+00
-1.116460514068604049e+01 1.513224029541015980e+01 -3.282448649406433105e-01 3.000000000000000000e+00
-1.375192880630492942e+00 1.868678212165832964e+00 -6.216833591461181641e-01 1.100000000000000000e+01
-1.589749217033386008e+00 2.161808013916016069e+00 -6.195151805877685547e-01 1.600000000000000000e+01
-1.841914296150207964e+00 2.505628824234008789e+00 -6.044828891754150391e-01 1.100000000000000000e+01
-2.226630926132202148e+00 3.031190633773804155e+00 -5.957024693489074707e-01 9.000000000000000000e+00
-2.800347089767456055e+00 3.815001249313354048e+00 -5.810730457305908203e-01 9.000000000000000000e+00
-3.690446615219116211e+00 5.029451370239257812e+00 -5.457692742347717285e-01 8.000000000000000000e+00
-5.582580089569091797e+00 7.613678455352783203e+00 -4.947841167449951172e-01 2.000000000000000000e+00
-1.107181644439697088e+01 1.511111068725585938e+01 -3.269882798194885254e-01 3.000000000000000000e+00
-1.370940804481505904e+00 1.876587033271789995e+00 -6.227186322212219238e-01 9.000000000000000000e+00
-1.568405270576477051e+00 2.148456573486328125e+00 -6.141163706779479980e-01 1.600000000000000000e+01
-1.833156824111938032e+00 2.512042999267578125e+00 -6.044828891754150391e-01 1.200000000000000000e+01
-2.209053277969359907e+00 3.029368162155150923e+00 -5.938252210617065430e-01 9.000000000000000000e+00
-2.787013292312622070e+00 3.824753046035767046e+00 -5.810730457305908203e-01 9.000000000000000000e+00
-3.677560329437255859e+00 5.048744678497313565e+00 -5.464665293693542480e-01 9.000000000000000000e+00
-5.537163734436035156e+00 7.607282638549804688e+00 -4.931093752384185791e-01 1.000000000000000000e+00
-1.101900100708007990e+01 1.514966678619384943e+01 -3.269882798194885254e-01 3.000000000000000000e+00
-1.366321325302124023e+00 1.884727358818053977e+00 -6.237539052963256836e-01 7.000000000000000000e+00
-1.561663508415221946e+00 2.155768871307373047e+00 -6.145662665367126465e-01 1.600000000000000000e+01
-1.828543305397033913e+00 2.525105476379394975e+00 -6.060093641281127930e-01 1.100000000000000000e+01
-2.200251340866088867e+00 3.040645122528076172e+00 -5.944509506225585938e-01 9.000000000000000000e+00
-2.769486665725708008e+00 3.830116271972655806e+00 -5.803418159484863281e-01 1.100000000000000000e+01
-3.654362440109252930e+00 5.055730819702148438e+00 -5.457692742347717285e-01 8.000000000000000000e+00
-5.527955532073974609e+00 7.653431415557861328e+00 -4.947841167449951172e-01 2.000000000000000000e+00
-1.096340084075927912e+01 1.518995094299316051e+01 -3.269882798194885254e-01 3.000000000000000000e+00
-1.372146606445312944e+00 1.906733632087707964e+00 -6.294479370117187500e-01 6.000000000000000000e+00
-1.556404352188109907e+00 2.164371252059936968e+00 -6.154660582542419434e-01 1.700000000000000000e+01
-1.813988327980041948e+00 2.523502349853516069e+00 -6.041013002395629883e-01 1.100000000000000000e+01
-2.196538686752318892e+00 3.057933092117310014e+00 -5.963281989097595215e-01 9.000000000000000000e+00
-2.753785133361815962e+00 3.836534976959228960e+00 -5.798543095588684082e-01 1.100000000000000000e+01
-3.637853860855102983e+00 5.070075035095214844e+00 -5.459435582160949707e-01 8.000000000000000000e+00
-5.477930545806884766e+00 7.640217781066895419e+00 -4.926906824111937921e-01 1.000000000000000000e+00
-1.091031074523925959e+01 1.522812843322754084e+01 -3.269882798194885254e-01 3.000000000000000000e+00
-1.359076857566833052e+00 1.901842713356018066e+00 -6.263421177864074707e-01 9.000000000000000000e+00
-1.543556213378906028e+00 2.161591053009033203e+00 -6.132165789604187012e-01 1.600000000000000000e+01
-1.799906969070435014e+00 2.521514177322388139e+00 -6.021931767463684082e-01 1.200000000000000000e+01
-2.188680410385131836e+00 3.068416595458983931e+00 -5.969539284706115723e-01 9.000000000000000000e+00
-2.734134435653686968e+00 3.835946798324584961e+00 -5.783919095993041992e-01 1.000000000000000000e+01
-3.619864702224731001e+00 5.080488204956054688e+00 -5.457692742347717285e-01 9.000000000000000000e+00
-5.447930812835693359e+00 7.651833057403563565e+00 -4.922719895839691162e-01 1.000000000000000000e+00
-1.080179119110107067e+01 1.518275451660156072e+01 -3.252430558204650879e-01 3.000000000000000000e+00
-1.345723628997802956e+00 1.897121071815490945e+00 -6.232362389564514160e-01 9.000000000000000000e+00
-1.543889880180359109e+00 2.178094863891602007e+00 -6.163659095764160156e-01 1.600000000000000000e+01
-1.795634388923645020e+00 2.534189224243164062e+00 -6.037196516990661621e-01 1.100000000000000000e+01
-2.171107292175292969e+00 3.066364765167235884e+00 -5.950766801834106445e-01 9.000000000000000000e+00
-2.728753566741942915e+00 3.856810808181763139e+00 -5.800980925559997559e-01 9.000000000000000000e+00
-3.591754436492919922e+00 5.078452587127686435e+00 -5.442004799842834473e-01 9.000000000000000000e+00
-5.448853015899658203e+00 7.709948539733886719e+00 -4.947841167449951172e-01 2.000000000000000000e+00
-1.073257732391357067e+01 1.519749927520751953e+01 -3.247543871402739923e-01 3.000000000000000000e+00
-1.340205430984497070e+00 1.903386592864990012e+00 -6.237539052963256836e-01 1.500000000000000000e+01
-1.534034848213196023e+00 2.180283069610596147e+00 -6.154660582542419434e-01 1.700000000000000000e+01
-1.783389210700988992e+00 2.535624265670775923e+00 -6.025748252868652344e-01 1.000000000000000000e+01
-2.155847072601317915e+00 3.067460060119628906e+00 -5.938252210617065430e-01 9.000000000000000000e+00
