-1.110480904579163042e+00 -6.226631999015808105e-01 1.113850399851799011e-01 6.900000000000000000e+01
-4.137334346771240234e+00 -2.318916082382202148e+00 -7.511982917785644531e-01 1.200000000000000000e+01
-1.122216582298279031e+00 -6.287288069725036621e-01 1.579426676034927091e-01 7.400000000000000000e+01
-5.590847969055175781e+00 -3.131025314331055132e+00 -7.867884635925292969e-01 1.000000000000000000e+01
-1.099598288536071999e+00 -6.158046126365661621e-01 1.996103823184967041e-01 7.700000000000000000e+01
-8.104988098144531250e+00 -4.537153244018554688e+00 -8.126401305198669434e-01 1.000000000000000000e+01
-1.108483314514159934e+00 -6.202722787857055664e-01 2.469068467617034912e-01 9.600000000000000000e+01
-1.054930973052979049e+01 -5.900643348693847656e+00 -6.334744095802307129e-01 2.200000000000000000e+01
-1.110708832740783913e+00 -6.210085749626159668e-01 2.937860786914824884e-01 5.600000000000000000e+01
-4.602391815185546875e+01 -2.572189712524414062e+01 -9.203003048896789551e-01 1.400000000000000000e+01
-1.096131324768065962e+00 -6.126071214675903320e-01 3.364647626876831055e-01 6.600000000000000000e+01
-2.352612257003784180e+00 -1.310523033142090066e+00 -7.215874791145324707e-01 2.000000000000000000e+01
-2.755057573318481001e+00 -1.533445358276366965e+00 -7.279416322708129883e-01 1.300000000000000000e+01
-1.141438603401184082e+00 -6.350556612014770508e-01 6.845542788505554199e-02 4.700000000000000000e+01
-3.307683944702147993e+00 -1.840277194976807085e+00 -7.357594966888427734e-01 1.400000000000000000e+01
-1.109165191650391069e+00 -6.168463826179504395e-01 1.110364198684691966e-01 5.400000000000000000e+01
-4.133317947387695312e+00 -2.297741413116455078e+00 -7.490082383155822754e-01 1.200000000000000000e+01
-1.119198918342590110e+00 -6.219151020050048828e-01 1.572114527225494107e-01 7.200000000000000000e+01
-5.613890647888183594e+00 -3.118237733840941939e+00 -7.884946465492248535e-01 1.000000000000000000e+01
-1.113937139511107954e+00 -6.184824705123901367e-01 2.018004655838012973e-01 8.200000000000000000e+01
-8.162582397460937500e+00 -4.532045364379882812e+00 -8.168236017227172852e-01 1.000000000000000000e+01
-1.100342154502869096e+00 -6.106829643249511719e-01 2.446171343326568881e-01 9.900000000000000000e+01
-1.061350536346436080e+01 -5.888006210327148438e+00 -6.360912322998046875e-01 2.200000000000000000e+01
-1.114573955535888894e+00 -6.180728077888488770e-01 2.942359745502471924e-01 5.300000000000000000e+01
-4.614140701293945312e+01 -2.557659912109375000e+01 -9.208588004112243652e-01 1.400000000000000000e+01
-1.089920282363892046e+00 -6.039040684700012207e-01 3.338765799999237061e-01 7.000000000000000000e+01
-2.357626914978026900e+00 -1.301480054855346902e+00 -7.215874791145324707e-01 1.900000000000000000e+01
-2.759218931198120117e+00 -1.521914243698119895e+00 -7.274917364120483398e-01 1.400000000000000000e+01
-1.143758535385132058e+00 -6.308678388595581055e-01 6.845542788505554199e-02 3.700000000000000000e+01
-3.307848691940308061e+00 -1.823771476745605025e+00 -7.342330217361450195e-01 1.300000000000000000e+01
-1.120250225067138894e+00 -6.173913478851318359e-01 1.119079738855361938e-01 4.900000000000000000e+01
-4.149030685424804688e+00 -2.285666227340697798e+00 -7.502596974372863770e-01 1.200000000000000000e+01
-1.111145377159119096e+00 -6.118679046630859375e-01 1.557490229606627863e-01 7.900000000000000000e+01
-5.608431816101074219e+00 -3.087086677551269975e+00 -7.860572934150695801e-01 1.000000000000000000e+01
-1.114573001861572044e+00 -6.132484674453735352e-01 2.014875859022141058e-01 7.700000000000000000e+01
-8.244511604309082031e+00 -4.536206722259520596e+00 -8.232731223106384277e-01 9.000000000000000000e+00
-1.106119394302367942e+00 -6.083456873893737793e-01 2.453803718090057095e-01 9.600000000000000000e+01
-1.063078403472900035e+01 -5.844323158264160156e+00 -6.357771754264831543e-01 2.200000000000000000e+01
-1.122062563896178977e+00 -6.166041493415832520e-01 2.955856919288635254e-01 6.100000000000000000e+01
-4.627432632446289062e+01 -2.541849517822265980e+01 -9.215568900108337402e-01 1.400000000000000000e+01
-1.109058618545532005e+00 -6.092060804367065430e-01 3.390529453754425049e-01 7.200000000000000000e+01
-2.368933677673339844e+00 -1.296953320503235085e+00 -7.236580252647399902e-01 1.800000000000000000e+01
-2.757675886154174805e+00 -1.508532524108886941e+00 -7.256920933723449707e-01 1.200000000000000000e+01
-3.309027194976807085e+00 -1.809388160705565962e+00 -7.330881357192993164e-01 1.200000000000000000e+01
-1.143377900123595969e+00 -6.249440312385559082e-01 1.139997094869614064e-01 4.400000000000000000e+01
-4.151783466339111328e+00 -2.268328189849853960e+00 -7.493211030960083008e-01 1.200000000000000000e+01
-1.116758823394774947e+00 -6.098884344100952148e-01 1.562364995479584018e-01 6.600000000000000000e+01
-5.596522808074951172e+00 -3.055125713348389116e+00 -7.828886508941650391e-01 8.000000000000000000e+00
-1.116706848144531028e+00 -6.093541383743286133e-01 2.014875859022141058e-01 7.700000000000000000e+01
-8.302269935607910156e+00 -4.530304908752441406e+00 -8.274565935134887695e-01 9.000000000000000000e+00
-1.113406777381896973e+00 -6.073011755943298340e-01 2.465252280235291082e-01 9.900000000000000000e+01
-1.070898723602294922e+01 -5.838729381561279297e+00 -6.392313838005065918e-01 1.100000000000000000e+01
-1.117363572120666948e+00 -6.089534759521484375e-01 2.937860786914824884e-01 6.100000000000000000e+01
-4.634872436523438211e+01 -2.524916076660155895e+01 -9.212776422500610352e-01 1.400000000000000000e+01
-1.112874865531920943e+00 -6.062552332878112793e-01 3.395705819129943848e-01 7.000000000000000000e+01
-2.369601726531981978e+00 -1.287659883499145952e+00 -7.226227521896362305e-01 1.900000000000000000e+01
-2.770964384078979048e+00 -1.504510879516602007e+00 -7.279416322708129883e-01 1.300000000000000000e+01
-3.302616596221923828e+00 -1.792428255081176980e+00 -7.304168343544006348e-01 1.100000000000000000e+01
-1.136579155921936035e+00 -6.165985465049743652e-01 1.131281554698943953e-01 1.700000000000000000e+01
-4.167571544647216797e+00 -2.259982109069824219e+00 -7.508854269981384277e-01 1.200000000000000000e+01
-1.125650048255919966e+00 -6.101610064506530762e-01 1.572114527225494107e-01 4.100000000000000000e+01
-5.620056152343750000e+00 -3.045094251632689986e+00 -7.848385572433471680e-01 8.000000000000000000e+00
-1.123720407485961914e+00 -6.088612675666809082e-01 2.024261951446532926e-01 6.600000000000000000e+01
-8.369019508361816406e+00 -4.532665729522705078e+00 -8.326859474182128906e-01 9.000000000000000000e+00
-1.130847454071044922e+00 -6.122124195098876953e-01 2.499597817659378052e-01 9.600000000000000000e+01
-1.093455123901367010e+01 -5.917223453521729404e+00 -6.515826582908630371e-01 7.000000000000000000e+00
-1.126127362251281960e+00 -6.091488003730773926e-01 2.955856919288635254e-01 6.600000000000000000e+01
-4.642429733276367188e+01 -2.510152435302734020e+01 -9.212078452110290527e-01 1.400000000000000000e+01
-1.116578698158263938e+00 -6.034799814224243164e-01 3.400882184505463202e-01 5.400000000000000000e+01
-2.363878250122069868e+00 -1.273881912231445090e+00 -7.195169329643249512e-01 1.800000000000000000e+01
-2.777915000915526900e+00 -1.495753169059752974e+00 -7.283915281295776367e-01 1.300000000000000000e+01
-3.319225788116455078e+00 -1.786471724510193093e+00 -7.327065467834472656e-01 1.100000000000000000e+01
-1.158025026321410911e+00 -6.230108737945556641e-01 1.150455772876740057e-01 1.000000000000000000e+00
-4.170215606689453125e+00 -2.242614030838013139e+00 -7.499468326568603516e-01 1.200000000000000000e+01
-1.152251839637755904e+00 -6.193864345550537109e-01 1.606237888336181918e-01 3.100000000000000000e+01
-5.634148597717285156e+00 -3.027337074279785156e+00 -7.853260636329650879e-01 8.000000000000000000e+00
-1.134645700454711914e+00 -6.094119548797607422e-01 2.039905488491058072e-01 4.600000000000000000e+01
-8.381279945373535156e+00 -4.501539230346679688e+00 -8.323373198509216309e-01 9.000000000000000000e+00
-1.122599244117737038e+00 -6.026894450187683105e-01 2.476700693368912021e-01 8.400000000000000000e+01
-1.104489231109618963e+01 -5.927184104919433594e+00 -6.569209098815917969e-01 1.100000000000000000e+01
-1.133398652076720969e+00 -6.079777479171752930e-01 2.969353795051575262e-01 6.300000000000000000e+01
-4.646581649780272727e+01 -2.491475105285644887e+01 -9.203003048896789551e-01 1.400000000000000000e+01
-1.111867547035217063e+00 -5.959283113479614258e-01 3.380176723003386896e-01 5.500000000000000000e+01
-2.368531465530395952e+00 -1.265209317207335982e+00 -7.195169329643249512e-01 1.800000000000000000e+01
-2.776501893997191939e+00 -1.481891274452209029e+00 -7.265918850898742676e-01 1.200000000000000000e+01
-3.330947637557982954e+00 -1.777066469192505105e+00 -7.338513731956481934e-01 1.300000000000000000e+01
-4.171434402465820312e+00 -2.223597526550292969e+00 -7.486953735351562500e-01 1.200000000000000000e+01
-1.165025830268860085e+00 -6.207599043846130371e-01 1.620862334966660101e-01 7.000000000000000000e+00
-5.650462627410888672e+00 -3.009466171264647993e+00 -7.860572934150695801e-01 1.000000000000000000e+01
-1.169892668724060059e+00 -6.230909824371337891e-01 2.099350541830062866e-01 3.000000000000000000e+01
-8.441690444946289062e+00 -4.494197368621826172e+00 -8.366951346397399902e-01 9.000000000000000000e+00
-1.110935568809509055e+00 -5.911924839019775391e-01 2.446171343326568881e-01 6.300000000000000000e+01
-1.111238861083984020e+01 -5.911049842834472656e+00 -6.596423983573913574e-01 1.500000000000000000e+01
-1.135619401931762917e+00 -6.038195490837097168e-01 2.969353795051575262e-01 6.500000000000000000e+01
-4.653210067749022727e+01 -2.473114013671875000e+01 -9.198116064071655273e-01 1.400000000000000000e+01
-1.119162440299988015e+00 -5.945681929588317871e-01 3.395705819129943848e-01 6.100000000000000000e+01
-2.376347541809082031e+00 -1.258742332458496094e+00 -7.205522060394287109e-01 1.900000000000000000e+01
-2.774768114089965820e+00 -1.468544125556946023e+00 -7.247923016548156738e-01 1.200000000000000000e+01
-3.344072103500366211e+00 -1.769100785255431907e+00 -7.353778481483459473e-01 1.200000000000000000e+01
-4.186156749725341797e+00 -2.212715387344359907e+00 -7.499468326568603516e-01 1.200000000000000000e+01
-5.648645877838134766e+00 -2.983234643936156782e+00 -7.843511104583740234e-01 8.000000000000000000e+00
-1.203501820564270020e+00 -6.356086730957031250e-01 2.155666947364807129e-01 1.200000000000000000e+01
-8.489041328430175781e+00 -4.481445789337158203e+00 -8.398327231407165527e-01 9.000000000000000000e+00
-1.158137321472167969e+00 -6.111332774162292480e-01 2.545391917228698730e-01 3.700000000000000000e+01
-1.113295459747313920e+01 -5.872224330902099609e+00 -6.596423983573913574e-01 2.300000000000000000e+01
-1.141167759895324929e+00 -6.016695499420166016e-01 2.978352010250092108e-01 6.300000000000000000e+01
-4.658983993530272727e+01 -2.455364418029785156e+01 -9.192531704902648926e-01 1.400000000000000000e+01
-1.141741394996643066e+00 -6.014626622200012207e-01 3.457822501659392755e-01 6.200000000000000000e+01
-2.387349367141724077e+00 -1.254449605941772017e+00 -7.226227521896362305e-01 1.800000000000000000e+01
-2.786524295806885210e+00 -1.462957978248595969e+00 -7.265918850898742676e-01 1.100000000000000000e+01
-3.329059362411499023e+00 -1.747054100036621094e+00 -7.307984232902526855e-01 1.200000000000000000e+01
-4.189972400665283203e+00 -2.196986675262451172e+00 -7.493211030960083008e-01 1.200000000000000000e+01
-5.646198749542236328e+00 -2.958038091659545898e+00 -7.826449275016784668e-01 8.000000000000000000e+00
-8.517975807189941406e+00 -4.460664749145507812e+00 -8.412272334098815918e-01 8.000000000000000000e+00
-1.212338447570801003e+00 -6.346037387847900391e-01 2.659877538681030273e-01 1.500000000000000000e+01
-1.115944480895995916e+01 -5.838977813720703125e+00 -6.600610613822937012e-01 2.300000000000000000e+01
-1.144883513450623003e+00 -5.987851023674011230e-01 2.982850968837738037e-01 4.600000000000000000e+01
-4.662493133544921875e+01 -2.437492370605469105e+01 -9.183456301689147949e-01 1.400000000000000000e+01
-1.152185320854187012e+00 -6.023479104042053223e-01 3.483704328536986750e-01 6.500000000000000000e+01
-2.386573791503905806e+00 -1.243430733680725098e+00 -7.210698723793029785e-01 1.900000000000000000e+01
-2.795071125030518022e+00 -1.455021977424622026e+00 -7.274917364120483398e-01 1.400000000000000000e+01
-3.329912662506103960e+00 -1.732704162597656028e+00 -7.296535968780517578e-01 1.200000000000000000e+01
-4.211637020111083984e+00 -2.189637422561645952e+00 -7.518240213394165039e-01 1.200000000000000000e+01
-5.656489849090576172e+00 -2.938311338424683061e+00 -7.826449275016784668e-01 8.000000000000000000e+00
-8.561786651611328125e+00 -4.445594310760498047e+00 -8.440161943435668945e-01 9.000000000000000000e+00
-1.117621231079101918e+01 -5.798148632049561435e+00 -6.598517298698425293e-01 2.300000000000000000e+01
-1.148696660995482954e+00 -5.956822037696838379e-01 2.987349927425385077e-01 1.000000000000000000e+01
-1.152670025825500044e+00 -5.972321629524230957e-01 3.478527963161469061e-01 6.100000000000000000e+01
-2.385965585708618164e+00 -1.232016086578368919e+00 -7.195169329643249512e-01 1.900000000000000000e+01
-2.800385236740111861e+00 -1.444767713546752930e+00 -7.274917364120483398e-01 1.200000000000000000e+01
-3.346710205078125000e+00 -1.725886821746825950e+00 -7.319433093070983887e-01 1.100000000000000000e+01
-4.209097862243652344e+00 -2.168757438659667969e+00 -7.499468326568603516e-01 1.200000000000000000e+01
-5.672516345977783203e+00 -2.920285224914550781e+00 -7.833761572837829590e-01 8.000000000000000000e+00
-8.616997718811035156e+00 -4.434240341186523438e+00 -8.478510379791259766e-01 9.000000000000000000e+00
-1.127021503448485973e+01 -5.794590473175048828e+00 -6.641432642936706543e-01 2.300000000000000000e+01
-4.663095855712891336e+01 -2.395476913452148082e+01 -9.150645732879638672e-01 1.400000000000000000e+01
-1.153029322624206987e+00 -5.923222303390502930e-01 3.473351597785950262e-01 4.900000000000000000e+01
-2.395410299301147017e+00 -1.226320981979369895e+00 -7.210698723793029785e-01 1.900000000000000000e+01
-2.803676605224608931e+00 -1.434096336364746094e+00 -7.270417809486389160e-01 1.300000000000000000e+01
-3.349218368530272993e+00 -1.712406635284424050e+00 -7.311800718307495117e-01 1.100000000000000000e+01
-4.202569961547851562e+00 -2.146862745285034180e+00 -7.474438548088073730e-01 1.200000000000000000e+01
-5.686211585998535156e+00 -2.902271509170531782e+00 -7.838636040687561035e-01 8.000000000000000000e+00
-8.657270431518554688e+00 -4.416810512542724609e+00 -8.502914309501647949e-01 8.000000000000000000e+00
-1.137756443023681996e+01 -5.799659729003906250e+00 -6.692721843719482422e-01 1.100000000000000000e+01
-4.664657974243164062e+01 -2.375736618041991832e+01 -9.137381911277770996e-01 1.400000000000000000e+01
-1.151749372482300027e+00 -5.863392949104309082e-01 3.462998867034912109e-01 1.000000000000000000e+01
-2.397953748703002930e+00 -1.217077732086182085e+00 -7.205522060394287109e-01 1.800000000000000000e+01
-2.805189371109008789e+00 -1.422538161277770996e+00 -7.261419892311096191e-01 1.200000000000000000e+01
-3.369184494018555132e+00 -1.707806348800658958e+00 -7.342330217361450195e-01 1.200000000000000000e+01
-4.206513404846191406e+00 -2.130394935607910156e+00 -7.468181252479553223e-01 1.200000000000000000e+01
-5.699850082397460938e+00 -2.884197950363159180e+00 -7.843511104583740234e-01 8.000000000000000000e+00
-8.722415924072265625e+00 -4.411743164062500000e+00 -8.551721572875976562e-01 7.000000000000000000e+00
-1.156886577606200994e+01 -5.846389293670654297e+00 -6.793206930160522461e-01 1.100000000000000000e+01
-4.671137237548828125e+01 -2.358538055419921875e+01 -9.133891463279724121e-01 1.400000000000000000e+01
-1.198524236679076926e+00 -6.051556468009948730e-01 3.597584664821624756e-01 1.000000000000000000e+00
-2.405638933181763139e+00 -1.210436463356018066e+00 -7.215874791145324707e-01 1.800000000000000000e+01
-2.810137748718262163e+00 -1.412737607955933061e+00 -7.261419892311096191e-01 1.200000000000000000e+01
-3.368108272552489790e+00 -1.692509174346924050e+00 -7.327065467834472656e-01 1.100000000000000000e+01
-4.222751140594482422e+00 -2.120130062103271040e+00 -7.483825087547302246e-01 1.100000000000000000e+01
-5.681493282318115234e+00 -2.850042819976807085e+00 -7.804512977600097656e-01 1.000000000000000000e+01
-8.773384094238281250e+00 -4.399130344390869141e+00 -8.586583733558654785e-01 5.000000000000000000e+00
-1.160884571075438920e+01 -5.815811157226563388e+00 -6.804720759391784668e-01 8.000000000000000000e+00
-4.673977279663085938e+01 -2.339533233642578125e+01 -9.123420119285583496e-01 1.400000000000000000e+01
-2.402934551239014116e+00 -1.198582649230957031e+00 -7.195169329643249512e-01 1.900000000000000000e+01
-2.816796064376831055e+00 -1.403789043426513894e+00 -7.265918850898742676e-01 1.100000000000000000e+01
-3.366966724395751953e+00 -1.677240490913390891e+00 -7.311800718307495117e-01 1.100000000000000000e+01
-4.240736961364746094e+00 -2.110658168792725053e+00 -7.502596974372863770e-01 1.200000000000000000e+01
-5.696739673614501953e+00 -2.832844972610474077e+00 -7.811824679374694824e-01 7.000000000000000000e+00
-8.767276763916015625e+00 -4.357837200164794922e+00 -8.565666675567626953e-01 5.000000000000000000e+00
-1.162013149261474965e+01 -5.770811557769775391e+00 -6.799487471580505371e-01 1.100000000000000000e+01
-4.684622955322266336e+01 -2.324448013305664062e+01 -9.128306508064270020e-01 1.400000000000000000e+01
-2.400177001953125000e+00 -1.186762571334839089e+00 -7.174463868141174316e-01 2.000000000000000000e+01
-2.818184852600098100e+00 -1.392221689224242942e+00 -7.256920933723449707e-01 1.200000000000000000e+01
-3.378081798553466797e+00 -1.668085098266602007e+00 -7.323248982429504395e-01 1.000000000000000000e+01
-4.233906269073486328e+00 -2.088850259780883789e+00 -7.477567195892333984e-01 1.100000000000000000e+01
-5.704813003540039062e+00 -2.812064647674560991e+00 -7.809387445449829102e-01 8.000000000000000000e+00
-8.760988235473632812e+00 -4.316639900207520419e+00 -8.544749021530151367e-01 3.000000000000000000e+00
-1.171188163757324041e+01 -5.765499114990234375e+00 -6.841356158256530762e-01 1.600000000000000000e+01
-4.686248397827147727e+01 -2.304904365539551137e+01 -9.115740656852722168e-01 1.400000000000000000e+01
-2.411037445068358931e+00 -1.182198762893676980e+00 -7.195169329643249512e-01 2.000000000000000000e+01
-2.822786092758179155e+00 -1.382868647575377974e+00 -7.256920933723449707e-01 1.100000000000000000e+01
-3.387121200561522993e+00 -1.658600568771362083e+00 -7.330881357192993164e-01 1.000000000000000000e+01
-4.235486984252929688e+00 -2.072194337844849077e+00 -7.468181252479553223e-01 1.200000000000000000e+01
-5.728374004364013672e+00 -2.800105571746826172e+00 -7.828886508941650391e-01 8.000000000000000000e+00
-8.775254249572753906e+00 -4.287563800811767578e+00 -8.544749021530151367e-01 3.000000000000000000e+00
-1.185118865966797053e+01 -5.785332679748535156e+00 -6.911486387252807617e-01 8.000000000000000000e+00
-4.694585037231445312e+01 -2.289702033996582031e+01 -9.117137193679809570e-01 1.400000000000000000e+01
-2.409936904907227007e+00 -1.171242237091064009e+00 -7.179640531539916992e-01 1.900000000000000000e+01
-2.824090003967285156e+00 -1.371304392814636008e+00 -7.247923016548156738e-01 1.300000000000000000e+01
-3.398188829421997070e+00 -1.649338960647583008e+00 -7.342330217361450195e-01 1.100000000000000000e+01
-4.237361907958984375e+00 -2.054811477661132812e+00 -7.458795309066772461e-01 1.200000000000000000e+01
-5.727394580841063565e+00 -2.774899482727050781e+00 -7.814262509346008301e-01 8.000000000000000000e+00
-8.800926208496093750e+00 -4.262116432189941406e+00 -8.555207848548889160e-01 1.000000000000000000e+00
-1.196300220489501953e+01 -5.788293838500976562e+00 -6.964868903160095215e-01 1.200000000000000000e+01
-4.694987487792968750e+01 -2.269645500183105113e+01 -9.102476835250854492e-01 1.400000000000000000e+01
-2.427934169769287109e+00 -1.169529795646667036e+00 -7.221051454544067383e-01 1.900000000000000000e+01
-2.821835756301879883e+00 -1.358057856559752974e+00 -7.229927182197570801e-01 1.200000000000000000e+01
-3.384464263916016069e+00 -1.628105163574218972e+00 -7.300352454185485840e-01 1.000000000000000000e+01
-4.255191326141357422e+00 -2.045141935348511186e+00 -7.477567195892333984e-01 1.100000000000000000e+01
-5.722730159759520596e+00 -2.748015880584716797e+00 -7.794763445854187012e-01 9.000000000000000000e+00
-8.794196128845214844e+00 -4.221024036407470703e+00 -8.534290194511413574e-01 1.000000000000000000e+00
-1.200834655761718928e+01 -5.758590698242188388e+00 -6.979523301124572754e-01 1.600000000000000000e+01
-4.700717163085938211e+01 -2.252206420898437855e+01 -9.098288416862487793e-01 1.400000000000000000e+01
-2.418054819107056108e+00 -1.154389262199402078e+00 -7.179640531539916992e-01 2.200000000000000000e+01
-2.838871240615845171e+00 -1.354072213172913042e+00 -7.261419892311096191e-01 1.200000000000000000e+01
-3.388354539871215820e+00 -1.615436434745789018e+00 -7.296535968780517578e-01 1.100000000000000000e+01
-4.262304306030273438e+00 -2.030276060104370117e+00 -7.477567195892333984e-01 1.200000000000000000e+01
-5.735872745513916016e+00 -2.729729175567626953e+00 -7.799637913703918457e-01 9.000000000000000000e+00
-8.819671630859375000e+00 -4.195436000823974609e+00 -8.544749021530151367e-01 1.000000000000000000e+00
-1.206084537506104049e+01 -5.732070446014404297e+00 -6.998364329338073730e-01 1.200000000000000000e+01
-4.703853607177733664e+01 -2.233553886413573863e+01 -9.089213013648986816e-01 1.400000000000000000e+01
-2.416830778121947798e+00 -1.143463015556335005e+00 -7.164111137390136719e-01 2.000000000000000000e+01
-2.848865985870360884e+00 -1.346652865409851074e+00 -7.274917364120483398e-01 1.100000000000000000e+01
-3.401073217391968218e+00 -1.606953740119934082e+00 -7.311800718307495117e-01 1.200000000000000000e+01
-4.262219905853270596e+00 -2.012012481689453125e+00 -7.465052604675292969e-01 1.100000000000000000e+01
-5.745366096496582031e+00 -2.709690570831298828e+00 -7.799637913703918457e-01 9.000000000000000000e+00
-8.816241264343261719e+00 -4.156128406524658203e+00 -8.527317643165588379e-01 1.000000000000000000e+00
-1.221448898315430043e+01 -5.752911090850830078e+00 -7.075821161270141602e-01 1.200000000000000000e+01
-4.702936553955078125e+01 -2.213033866882323863e+01 -9.072458744049072266e-01 1.400000000000000000e+01
-2.424305915832519975e+00 -1.136659979820251021e+00 -7.174463868141174316e-01 1.900000000000000000e+01
-2.842961072921752930e+00 -1.331740260124206987e+00 -7.247923016548156738e-01 1.200000000000000000e+01
-3.408439874649047852e+00 -1.595904588699341042e+00 -7.315616607666015625e-01 1.200000000000000000e+01
-4.263849258422851562e+00 -1.994611263275146040e+00 -7.455666661262512207e-01 1.200000000000000000e+01
-5.747596263885498047e+00 -2.686257123947143999e+00 -7.789888381958007812e-01 9.000000000000000000e+00
-8.812643051147460938e+00 -4.116895675659179688e+00 -8.509886860847473145e-01 1.000000000000000000e+00
-1.225259399414063033e+01 -5.718686580657958984e+00 -7.086288332939147949e-01 1.200000000000000000e+01
-4.707733154296875000e+01 -2.195252037048339844e+01 -9.066874384880065918e-01 1.400000000000000000e+01
-2.435464143753052202e+00 -1.131021499633789062e+00 -7.195169329643249512e-01 2.000000000000000000e+01
-2.838984489440917969e+00 -1.317210435867310014e+00 -7.225427627563476562e-01 1.200000000000000000e+01
-3.408923149108887163e+00 -1.580923318862915039e+00 -7.304168343544006348e-01 1.200000000000000000e+01
-4.269339084625244141e+00 -1.978139638900757058e+00 -7.452538013458251953e-01 1.100000000000000000e+01
-5.742991924285888672e+00 -2.658501625061035156e+00 -7.770389318466186523e-01 9.000000000000000000e+00
-8.827672958374023438e+00 -4.084568023681640625e+00 -8.509886860847473145e-01 1.000000000000000000e+00
-1.243119621276854936e+01 -5.746652126312255859e+00 -7.177352905273437500e-01 8.000000000000000000e+00
-4.711390304565429688e+01 -2.175970268249512074e+01 -9.058496952056884766e-01 1.400000000000000000e+01
-2.442907333374022993e+00 -1.124128460884094016e+00 -7.205522060394287109e-01 2.000000000000000000e+01
-2.847106218338013139e+00 -1.308920502662658913e+00 -7.234426140785217285e-01 1.100000000000000000e+01
-3.410852909088135210e+00 -1.567374825477600098e+00 -7.296535968780517578e-01 1.200000000000000000e+01
-4.276217937469482422e+00 -1.963224768638611062e+00 -7.452538013458251953e-01 1.100000000000000000e+01
-5.752236843109130859e+00 -2.638438701629639116e+00 -7.770389318466186523e-01 9.000000000000000000e+00
-8.827388763427734375e+00 -4.047086238861083984e+00 -8.495941758155822754e-01 1.000000000000000000e+00
-1.249112892150879084e+01 -5.721522331237792969e+00 -7.200380563735961914e-01 8.000000000000000000e+00
-4.707683563232421875e+01 -2.154351997375487926e+01 -9.036856293678283691e-01 1.400000000000000000e+01
-2.428851842880249023e+00 -1.108427762985229048e+00 -7.153758406639099121e-01 2.000000000000000000e+01
-2.854750633239746094e+00 -1.301586508750915971e+00 -7.243424057960510254e-01 1.100000000000000000e+01
-3.415760040283203125e+00 -1.556651592254638894e+00 -7.296535968780517578e-01 1.200000000000000000e+01
-4.285960197448729581e+00 -1.951418042182921919e+00 -7.458795309066772461e-01 1.100000000000000000e+01
-5.767724990844726562e+00 -2.623642444610596147e+00 -7.780138850212097168e-01 9.000000000000000000e+00
-8.854568481445312500e+00 -4.025931358337402344e+00 -8.509886860847473145e-01 1.000000000000000000e+00
-1.259996318817139027e+01 -5.723553657531738281e+00 -7.252717018127441406e-01 8.000000000000000000e+00
-4.712971878051757812e+01 -2.138890647888183949e+01 -9.034063816070556641e-01 1.400000000000000000e+01
-2.436226844787598100e+00 -1.101534605026244895e+00 -7.164111137390136719e-01 2.000000000000000000e+01
-2.866380214691162109e+00 -1.294822692871093972e+00 -7.261419892311096191e-01 1.200000000000000000e+01
-3.414015769958496094e+00 -1.541487216949462891e+00 -7.281271219253540039e-01 1.100000000000000000e+01
-4.283742427825927734e+00 -1.932384133338928001e+00 -7.443152070045471191e-01 1.100000000000000000e+01
-5.769608974456787109e+00 -2.600230693817139116e+00 -7.770389318466186523e-01 9.000000000000000000e+00
-8.839502334594726562e+00 -3.981905698776245117e+00 -8.481996655464172363e-01 1.000000000000000000e+00
-1.263625717163085938e+01 -5.686913967132568359e+00 -7.262137532234191895e-01 1.200000000000000000e+01
-4.714937591552733664e+01 -2.119966125488280895e+01 -9.023592472076416016e-01 1.400000000000000000e+01
-2.443583011627196822e+00 -1.094603300094604048e+00 -7.174463868141174316e-01 1.900000000000000000e+01
-2.863767623901367188e+00 -1.281625032424926980e+00 -7.243424057960510254e-01 1.100000000000000000e+01
-3.426544427871704102e+00 -1.532767295837401900e+00 -7.296535968780517578e-01 1.200000000000000000e+01
-4.283247947692871094e+00 -1.914195299148560014e+00 -7.430636882781982422e-01 1.100000000000000000e+01
-5.778650283813476562e+00 -2.580075263977050781e+00 -7.770389318466186523e-01 9.000000000000000000e+00
-8.835153579711914062e+00 -3.942906141281127930e+00 -8.464565873146057129e-01 3.000000000000000000e+00
-1.268704223632813033e+01 -5.656596660614013672e+00 -7.279931306838989258e-01 8.000000000000000000e+00
-4.722309112548828125e+01 -2.103495025634765980e+01 -9.023592472076416016e-01 1.400000000000000000e+01
-2.449154853820800781e+00 -1.086850643157958984e+00 -7.179640531539916992e-01 2.100000000000000000e+01
-2.855753421783446822e+00 -1.266092061996459961e+00 -7.211930751800537109e-01 1.200000000000000000e+01
-3.424694061279296875e+00 -1.517615556716918945e+00 -7.281271219253540039e-01 1.200000000000000000e+01
-4.293516159057617188e+00 -1.900831699371337891e+00 -7.436894178390502930e-01 1.100000000000000000e+01
-5.782175064086914062e+00 -2.557479381561278853e+00 -7.763077020645141602e-01 9.000000000000000000e+00
-8.859797477722167969e+00 -3.916875362396239790e+00 -8.475024700164794922e-01 1.000000000000000000e+00
-1.275055789947509943e+01 -5.631642818450927734e+00 -7.305052876472473145e-01 1.200000000000000000e+01
-4.718280029296875000e+01 -2.081993103027344105e+01 -9.001951217651367188e-01 1.400000000000000000e+01
-5.144105911254882812e+01 -2.269893455505371094e+01 1.506585693359375000e+01 1.900000000000000000e+01
-2.454702138900756836e+00 -1.079072237014770952e+00 -7.184816598892211914e-01 1.800000000000000000e+01
-2.863723993301392046e+00 -1.257683157920836958e+00 -7.220928668975830078e-01 1.300000000000000000e+01
-3.438959121704102007e+00 -1.509597539901732954e+00 -7.300352454185485840e-01 1.200000000000000000e+01
-4.294697761535645419e+00 -1.883452892303467019e+00 -7.427508234977722168e-01 1.200000000000000000e+01
-5.772884368896484375e+00 -2.529313802719116211e+00 -7.738703489303588867e-01 9.000000000000000000e+00
-8.855164527893066406e+00 -3.877932548522949219e+00 -8.457593321800231934e-01 1.000000000000000000e+00
-1.286162757873534979e+01 -5.627128601074218750e+00 -7.357388734817504883e-01 1.200000000000000000e+01
-5.154515075683593750e+01 -2.251952362060546875e+01 1.507206821441650035e+01 1.900000000000000000e+01
-2.456682682037353960e+00 -1.069725871086121050e+00 -7.179640531539916992e-01 1.900000000000000000e+01
-2.866309642791748047e+00 -1.246901869773864968e+00 -7.216429710388183594e-01 1.100000000000000000e+01
-3.431604623794556108e+00 -1.492104172706604004e+00 -7.273638844490051270e-01 1.200000000000000000e+01
-4.308493614196777344e+00 -1.871598243713378906e+00 -7.440023422241210938e-01 1.200000000000000000e+01
-5.788962364196777344e+00 -2.512308359146118164e+00 -7.748453021049499512e-01 9.000000000000000000e+00
-8.879614830017089844e+00 -3.851755857467650923e+00 -8.468052148818969727e-01 1.000000000000000000e+00
-1.293433666229248047e+01 -5.605229854583740234e+00 -7.387743592262268066e-01 1.200000000000000000e+01
-5.270704650878906250e+01 -2.283022308349609020e+01 1.326086425781250000e+01 1.900000000000000000e+01
-4.725726318359375000e+01 -2.045983695983887074e+01 -8.988687396049499512e-01 1.400000000000000000e+01
-2.446578741073607954e+00 -1.054169535636902078e+00 -7.138229012489318848e-01 1.900000000000000000e+01
-2.876446247100830078e+00 -1.238198280334473100e+00 -7.229927182197570801e-01 1.200000000000000000e+01
-3.433701753616333008e+00 -1.477364897727966087e+00 -7.266006469726562500e-01 1.200000000000000000e+01
-4.312018394470214844e+00 -1.853480935096740945e+00 -7.433765530586242676e-01 1.200000000000000000e+01
-5.035929870605468750e+01 -2.163606262207030895e+01 6.729868888854979581e+00 5.800000000000000000e+01
-5.800390243530273438e+00 -2.490845203399658203e+00 -7.750890254974365234e-01 1.100000000000000000e+01
-8.898000717163085938e+00 -3.819203853607178178e+00 -8.471538424491882324e-01 1.000000000000000000e+00
-1.293740749359131037e+01 -5.547653198242188388e+00 -7.377276420593261719e-01 1.200000000000000000e+01
-5.279431915283203125e+01 -2.262767410278319957e+01 1.326086425781250000e+01 1.900000000000000000e+01
-4.733547592163085938e+01 -2.027823257446289062e+01 -8.988687396049499512e-01 1.400000000000000000e+01
-5.062199020385742188e+01 -2.167569923400878906e+01 1.475527381896973012e+01 1.900000000000000000e+01
-2.455574035644530806e+00 -1.047897696495055930e+00 -7.153758406639099121e-01 1.900000000000000000e+01
-2.878958225250244141e+00 -1.227385878562927024e+00 -7.225427627563476562e-01 1.100000000000000000e+01
-3.435225725173950195e+00 -1.463830828666687012e+00 -7.258374094963073730e-01 1.100000000000000000e+01
-4.313009262084960938e+00 -1.836096644401550071e+00 -7.424379587173461914e-01 1.100000000000000000e+01
-5.805396080017089844e+00 -2.469028949737548828e+00 -7.746015191078186035e-01 1.100000000000000000e+01
-8.881939888000488281e+00 -3.775649547576903853e+00 -8.443648219108581543e-01 1.000000000000000000e+00
-1.298610782623291016e+01 -5.514950752258300781e+00 -7.394024133682250977e-01 1.700000000000000000e+01
-5.091788482666016336e+01 -2.159238624572753906e+01 1.481946086883544922e+01 1.900000000000000000e+01
-2.465970754623413086e+00 -1.043188691139220969e+00 -7.174463868141174316e-01 1.600000000000000000e+01
-2.873824834823607954e+00 -1.214542269706726074e+00 -7.202932834625244141e-01 1.300000000000000000e+01
-3.450658559799193892e+00 -1.457615256309509055e+00 -7.281271219253540039e-01 1.100000000000000000e+01
-4.315116405487061435e+00 -1.821001887321471946e+00 -7.418122291564941406e-01 1.100000000000000000e+01
-5.805807590484619141e+00 -2.447694063186645952e+00 -7.736265659332275391e-01 1.100000000000000000e+01
-8.886413574218750000e+00 -3.744632959365845171e+00 -8.436675667762756348e-01 1.000000000000000000e+00
-1.304202556610107067e+01 -5.490399837493895596e+00 -7.416005134582519531e-01 1.700000000000000000e+01
-2.473160743713378906e+00 -1.036067485809325950e+00 -7.184816598892211914e-01 1.300000000000000000e+01
-2.881642103195189986e+00 -1.206007957458496094e+00 -7.211930751800537109e-01 1.200000000000000000e+01
-3.452103137969971147e+00 -1.444046020507812944e+00 -7.273638844490051270e-01 1.100000000000000000e+01
-4.321446895599365234e+00 -1.805928111076354980e+00 -7.418122291564941406e-01 1.100000000000000000e+01
-5.812484264373779297e+00 -2.426648378372191939e+00 -7.733828425407409668e-01 1.100000000000000000e+01
-8.873688697814941406e+00 -3.702848911285399947e+00 -8.412272334098815918e-01 1.000000000000000000e+00
-1.312378978729248047e+01 -5.470970630645751953e+00 -7.451593279838562012e-01 2.500000000000000000e+01
-5.122183609008789062e+01 -2.134257316589355113e+01 1.281096267700194957e+01 1.800000000000000000e+01
-2.476762294769287109e+00 -1.027428150177001953e+00 -7.184816598892211914e-01 1.400000000000000000e+01
-2.887634515762329102e+00 -1.196687936782836914e+00 -7.216429710388183594e-01 1.200000000000000000e+01
-3.453495264053345171e+00 -1.430484533309936968e+00 -7.266006469726562500e-01 1.100000000000000000e+01
-4.331374645233154297e+00 -1.792343139648437944e+00 -7.424379587173461914e-01 1.100000000000000000e+01
-5.822753906250000000e+00 -2.407102584838867188e+00 -7.736265659332275391e-01 1.100000000000000000e+01
-5.194749069213867188e+01 -2.147488021850585938e+01 8.902997970581054688e+00 2.800000000000000000e+01
-8.875511169433593750e+00 -3.667286396026610884e+00 -8.401813507080078125e-01 1.000000000000000000e+00
-1.311696147918700994e+01 -5.414457798004150391e+00 -7.436939477920532227e-01 1.700000000000000000e+01
-5.139091873168945312e+01 -2.119230270385741832e+01 1.489503574371338068e+01 1.900000000000000000e+01
-2.476759672164916992e+00 -1.017308473587035911e+00 -7.174463868141174316e-01 1.400000000000000000e+01
-2.895400047302246094e+00 -1.188080430030822976e+00 -7.225427627563476562e-01 1.100000000000000000e+01
-3.465733289718627930e+00 -1.421400785446166992e+00 -7.281271219253540039e-01 1.200000000000000000e+01
-4.335776805877686435e+00 -1.776463985443115012e+00 -7.421250939369201660e-01 1.200000000000000000e+01
-5.821935176849365234e+00 -2.383002758026123047e+00 -7.724078893661499023e-01 9.000000000000000000e+00
-5.202585220336914062e+01 -2.128433799743651988e+01 8.902997970581054688e+00 2.800000000000000000e+01
-8.880882263183593750e+00 -3.633265018463135210e+00 -8.394840955734252930e-01 1.000000000000000000e+00
-1.320788478851318004e+01 -5.398107051849365234e+00 -7.477761507034301758e-01 1.200000000000000000e+01
-2.480295658111571822e+00 -1.008656740188599077e+00 -7.174463868141174316e-01 1.400000000000000000e+01
-2.890502214431763139e+00 -1.174299001693726030e+00 -7.202932834625244141e-01 1.200000000000000000e+01
-3.463397741317749023e+00 -1.406340003013611062e+00 -7.266006469726562500e-01 1.100000000000000000e+01
-4.338290691375732422e+00 -1.759833335876465066e+00 -7.414993643760681152e-01 1.200000000000000000e+01
-5.830217838287354404e+00 -2.362665891647338867e+00 -7.724078893661499023e-01 1.100000000000000000e+01
-8.886124610900878906e+00 -3.599250793457030806e+00 -8.387868404388427734e-01 1.000000000000000000e+00
-1.322479534149169922e+01 -5.351220607757568359e+00 -7.476714849472045898e-01 8.000000000000000000e+00
-2.487385511398314986e+00 -1.001435756683350053e+00 -7.184816598892211914e-01 1.000000000000000000e+01
-2.883735895156859907e+00 -1.159839034080504927e+00 -7.175938487052917480e-01 1.200000000000000000e+01
-3.464642524719237837e+00 -1.392777323722838911e+00 -7.258374094963073730e-01 1.200000000000000000e+01
-4.337074756622313565e+00 -1.741734504699707031e+00 -7.402479052543640137e-01 1.200000000000000000e+01
-5.832902431488037109e+00 -2.340082883834838867e+00 -7.716766595840454102e-01 1.100000000000000000e+01
-8.935619354248046875e+00 -3.583041191101074219e+00 -8.422731161117553711e-01 1.000000000000000000e+00
-1.331384754180908025e+01 -5.333247184753417969e+00 -7.516490221023559570e-01 4.000000000000000000e+00
-5.103964614868164062e+01 -2.041440200805664062e+01 1.472939205169677912e+01 1.900000000000000000e+01
-2.507365703582764116e+00 -9.983089566230773926e-01 -7.231404185295104980e-01 1.100000000000000000e+01
-2.891789674758911133e+00 -1.150198221206665039e+00 -7.184936404228210449e-01 1.100000000000000000e+01
-3.471789121627808061e+00 -1.380189061164855957e+00 -7.262190580368041992e-01 1.200000000000000000e+01
-4.347402572631835938e+00 -1.726526856422424094e+00 -7.408736348152160645e-01 1.200000000000000000e+01
-5.830773830413818359e+00 -2.313276767730712891e+00 -7.702142596244812012e-01 1.100000000000000000e+01
-5.224950408935546875e+01 -2.072924804687500000e+01 8.902997970581054688e+00 2.800000000000000000e+01
-8.912269592285156250e+00 -3.534016132354735884e+00 -8.387868404388427734e-01 1.000000000000000000e+00
-1.340107536315917969e+01 -5.308567047119140625e+00 -7.554171681404113770e-01 8.000000000000000000e+00
-5.123268127441406250e+01 -2.027411079406737926e+01 1.476355552673340021e+01 1.900000000000000000e+01
-2.500051498413085938e+00 -9.853005409240722656e-01 -7.200345993041992188e-01 1.100000000000000000e+01
-2.901226758956909180e+00 -1.142238736152648926e+00 -7.198433876037597656e-01 1.200000000000000000e+01
-3.463797569274901900e+00 -1.363029599189758079e+00 -7.235476970672607422e-01 1.100000000000000000e+01
-4.358917713165283203e+00 -1.713509082794189009e+00 -7.418122291564941406e-01 1.100000000000000000e+01
-5.831421852111816406e+00 -2.290006875991820845e+00 -7.692393064498901367e-01 1.100000000000000000e+01
-8.917132377624511719e+00 -3.499973058700561968e+00 -8.380896449089050293e-01 1.000000000000000000e+00
-1.358315372467041016e+01 -5.325914859771729404e+00 -7.646282911300659180e-01 8.000000000000000000e+00
-4.841456222534179688e+01 -1.896371269226073863e+01 -9.075949192047119141e-01 1.400000000000000000e+01
-2.495936393737792969e+00 -9.746307730674743652e-01 -7.179640531539916992e-01 1.100000000000000000e+01
-2.910247325897216797e+00 -1.135243177413939986e+00 -7.211930751800537109e-01 1.100000000000000000e+01
-3.473549842834473100e+00 -1.354280471801758035e+00 -7.246925830841064453e-01 1.100000000000000000e+01
-4.358757495880126953e+00 -1.697656035423279031e+00 -7.408736348152160645e-01 1.200000000000000000e+01
-5.807137489318847656e+00 -2.259439229965209961e+00 -7.650957107543945312e-01 1.300000000000000000e+01
-8.928083419799804688e+00 -3.471941947937012163e+00 -8.380896449089050293e-01 1.000000000000000000e+00
-1.365380859375000000e+01 -5.304189682006835938e+00 -7.676637768745422363e-01 1.300000000000000000e+01
-4.866032409667968750e+01 -1.888386726379394887e+01 -9.110854268074035645e-01 1.400000000000000000e+01
-5.194233322143554688e+01 -2.015753364562987926e+01 1.492920017242431996e+01 1.900000000000000000e+01
-2.501125335693358931e+00 -9.666088223457336426e-01 -7.184816598892211914e-01 1.200000000000000000e+01
-2.910556316375731978e+00 -1.123673915863037109e+00 -7.202932834625244141e-01 1.100000000000000000e+01
-3.478255987167357954e+00 -1.342147350311279075e+00 -7.246925830841064453e-01 1.100000000000000000e+01
-4.355441093444824219e+00 -1.678878307342529075e+00 -7.393093109130859375e-01 1.100000000000000000e+01
-5.861301422119140625e+00 -2.256988048553466797e+00 -7.711892127990722656e-01 1.100000000000000000e+01
-8.940148353576660156e+00 -3.440755844116210938e+00 -8.380896449089050293e-01 1.000000000000000000e+00
-1.378036594390868963e+01 -5.298067092895507812e+00 -7.737347483634948730e-01 1.700000000000000000e+01
-5.434447097778320312e+01 -2.088265609741210938e+01 1.344082546234131037e+01 1.900000000000000000e+01
-4.881928253173828125e+01 -1.874974250793457031e+01 -9.128306508064270020e-01 1.400000000000000000e+01
-5.128002166748046875e+01 -1.968455505371094105e+01 1.471800422668457031e+01 1.900000000000000000e+01
-2.504484176635742188e+00 -9.578723311424255371e-01 -7.184816598892211914e-01 1.300000000000000000e+01
-2.907179355621337891e+00 -1.110725283622741921e+00 -7.184936404228210449e-01 1.200000000000000000e+01
-3.484753847122191939e+00 -1.330698132514954057e+00 -7.250741720199584961e-01 1.100000000000000000e+01
-4.366811752319335938e+00 -1.665776848793030007e+00 -7.402479052543640137e-01 1.200000000000000000e+01
-5.854304313659667969e+00 -2.230859756469727007e+00 -7.692393064498901367e-01 1.100000000000000000e+01
-8.914866447448730469e+00 -3.395345211029053178e+00 -8.346033692359924316e-01 1.000000000000000000e+00
-1.380624198913574041e+01 -5.252773284912109375e+00 -7.741534709930419922e-01 2.600000000000000000e+01
-4.890686416625977273e+01 -1.858774375915526988e+01 -9.132495522499084473e-01 1.400000000000000000e+01
-2.515039682388306108e+00 -9.518594741821289062e-01 -7.205522060394287109e-01 2.500000000000000000e+01
-2.900101900100708008e+00 -1.096435666084289995e+00 -7.157942652702331543e-01 1.200000000000000000e+01
-3.476522207260131836e+00 -1.313668251037598100e+00 -7.224028706550598145e-01 1.000000000000000000e+01
-4.374447822570800781e+00 -1.651221275329590066e+00 -7.405607700347900391e-01 1.100000000000000000e+01
-5.839766502380371094e+00 -2.202006101608275923e+00 -7.663144469261169434e-01 1.100000000000000000e+01
-8.952765464782714844e+00 -3.374042749404906782e+00 -8.370437622070312500e-01 1.000000000000000000e+00
-1.385066223144531072e+01 -5.214400291442871094e+00 -7.756188511848449707e-01 1.700000000000000000e+01
-4.922974395751953125e+01 -1.851405143737792969e+01 -9.180663824081420898e-01 1.400000000000000000e+01
-2.507655858993529829e+00 -9.385719299316406250e-01 -7.174463868141174316e-01 1.500000000000000000e+01
-2.909577131271361861e+00 -1.087846279144287109e+00 -7.171439528465270996e-01 1.200000000000000000e+01
-3.483152627944945845e+00 -1.301604509353637917e+00 -7.227844595909118652e-01 1.100000000000000000e+01
-4.369366645812988281e+00 -1.631032109260559082e+00 -7.386835217475891113e-01 1.100000000000000000e+01
-5.860817909240722656e+00 -2.185442447662353960e+00 -7.680206298828125000e-01 9.000000000000000000e+00
-8.957604408264160156e+00 -3.338423490524291992e+00 -8.363465070724487305e-01 1.000000000000000000e+00
-1.381540012359618963e+01 -5.143391609191895419e+00 -7.725833654403686523e-01 2.100000000000000000e+01
-4.939098739624022727e+01 -1.836834335327148082e+01 -9.198116064071655273e-01 1.400000000000000000e+01
-5.125519561767578125e+01 -1.906163597106933949e+01 1.465278148651123047e+01 1.800000000000000000e+01
-2.490988731384276900e+00 -9.224333763122558594e-01 -7.117523550987243652e-01 1.200000000000000000e+01
-2.927978277206420898e+00 -1.083092093467711958e+00 -7.207431793212890625e-01 1.300000000000000000e+01
-3.489516258239746094e+00 -1.290118932723999023e+00 -7.231661081314086914e-01 1.100000000000000000e+01
-4.371327400207520419e+00 -1.614401578903198020e+00 -7.380577921867370605e-01 1.100000000000000000e+01
-5.870273590087890625e+00 -2.165658235549927202e+00 -7.682643532752990723e-01 1.100000000000000000e+01
-8.928076744079589844e+00 -3.291971206665039062e+00 -8.325116634368896484e-01 1.000000000000000000e+00
-1.397758102416992010e+01 -5.148288726806640625e+00 -7.806431055068969727e-01 1.300000000000000000e+01
-5.142625045776367188e+01 -1.891098594665526988e+01 1.468176937103270951e+01 1.900000000000000000e+01
-2.496007442474364790e+00 -9.143971204757690430e-01 -7.122700214385986328e-01 1.500000000000000000e+01
-2.933571100234984907e+00 -1.073534607887268066e+00 -7.211930751800537109e-01 1.100000000000000000e+01
-3.492154598236083984e+00 -1.277256011962891069e+00 -7.227844595909118652e-01 1.100000000000000000e+01
-4.376935958862304688e+00 -1.599132895469665971e+00 -7.380577921867370605e-01 1.200000000000000000e+01
-5.881526947021484375e+00 -2.146515130996704102e+00 -7.687518000602722168e-01 1.100000000000000000e+01
-8.920795440673828125e+00 -3.253958940505981001e+00 -8.307685256004333496e-01 1.000000000000000000e+00
-1.410993766784667969e+01 -5.141175746917724609e+00 -7.870281338691711426e-01 9.000000000000000000e+00
-5.120544815063477273e+01 -1.863725852966308949e+01 -9.511561393737792969e-01 1.400000000000000000e+01
-2.501000404357910156e+00 -9.063370227813720703e-01 -7.127876281738281250e-01 1.800000000000000000e+01
-2.913479804992675781e+00 -1.054664969444274902e+00 -7.153443694114685059e-01 1.300000000000000000e+01
-3.498437881469727007e+00 -1.265726327896117942e+00 -7.231661081314086914e-01 1.000000000000000000e+01
-4.386207103729248047e+00 -1.585187673568726030e+00 -7.386835217475891113e-01 1.100000000000000000e+01
-5.874046325683593750e+00 -2.120579242706298828e+00 -7.668018937110900879e-01 1.100000000000000000e+01
-8.890869140625000000e+00 -3.207923173904418945e+00 -8.269336819648742676e-01 1.000000000000000000e+00
-1.418416595458984020e+01 -5.112207889556884766e+00 -7.901682853698730469e-01 9.000000000000000000e+00
-5.147684478759766336e+01 -1.854295349121094105e+01 1.263190174102783025e+01 1.700000000000000000e+01
-5.256075668334960938e+01 -1.892303657531737926e+01 1.496854019165039062e+01 1.900000000000000000e+01
-2.505653619766234907e+00 -8.991279602050781250e-01 -7.133052945137023926e-01 2.400000000000000000e+01
-2.922281980514525923e+00 -1.047479391098022017e+00 -7.166940569877624512e-01 1.300000000000000000e+01
-3.500548839569091797e+00 -1.254067301750183105e+00 -7.227844595909118652e-01 1.100000000000000000e+01
-4.396744728088378906e+00 -1.573396921157836914e+00 -7.396221756935119629e-01 1.200000000000000000e+01
-5.884418010711669922e+00 -2.103451251983643022e+00 -7.672894001007080078e-01 1.100000000000000000e+01
-8.923418045043945312e+00 -3.188019752502440962e+00 -8.290254473686218262e-01 1.000000000000000000e+00
-1.450488948822020951e+01 -5.176372051239013672e+00 -8.071250915527343750e-01 9.000000000000000000e+00
-5.261994552612304688e+01 -1.875781822204589844e+01 1.496854019165039062e+01 1.900000000000000000e+01
-2.501494646072388139e+00 -8.877915740013122559e-01 -7.112347483634948730e-01 2.400000000000000000e+01
-2.925920724868773970e+00 -1.037272453308105025e+00 -7.166940569877624512e-01 1.400000000000000000e+01
-3.495652437210083008e+00 -1.238562107086182085e+00 -7.208763957023620605e-01 1.100000000000000000e+01
-4.415245532989501953e+00 -1.562653303146362083e+00 -7.418122291564941406e-01 1.200000000000000000e+01
-5.891724586486816406e+00 -2.082897901535034180e+00 -7.672894001007080078e-01 1.100000000000000000e+01
-8.889406204223632812e+00 -3.140921354293822798e+00 -8.248419761657714844e-01 1.000000000000000000e+00
-1.461515617370604936e+01 -5.158280372619628906e+00 -8.122540116310119629e-01 1.300000000000000000e+01
-2.508224010467528853e+00 -8.803338408470153809e-01 -7.122700214385986328e-01 2.400000000000000000e+01
-2.938718557357788086e+00 -1.030276298522948997e+00 -7.189435958862304688e-01 1.300000000000000000e+01
-3.494395971298218218e+00 -1.224404811859131081e+00 -7.197315096855163574e-01 1.100000000000000000e+01
-4.403892993927001953e+00 -1.541358590126038042e+00 -7.389963865280151367e-01 1.200000000000000000e+01
-5.891463756561279297e+00 -2.059698820114136186e+00 -7.663144469261169434e-01 1.100000000000000000e+01
-4.970858001708983664e+01 -1.736874771118164062e+01 8.339834213256835938e+00 2.200000000000000000e+01
