-8.675871849060058594e+00 -5.732090473175048828e-01 -7.606953382492065430e-01 2.000000000000000000e+00
-1.738459014892578125e+01 -1.142493486404418945e+00 -9.130530953407287598e-01 5.000000000000000000e+00
-3.479243469238281250e+01 -2.274318218231201172e+00 -6.086003184318542480e-01 2.000000000000000000e+01
-2.575660943984984907e+00 -1.652063131332396906e-01 -6.915645003318786621e-01 1.900000000000000000e+01
-2.985248327255249023e+00 -1.904314905405045111e-01 -6.905997395515441895e-01 1.400000000000000000e+01
-3.565914630889893022e+00 -2.268477827310562134e-01 -6.945447325706481934e-01 1.300000000000000000e+01
-4.478455352783203125e+01 -2.841148138046265093e+00 3.926017522811890093e+00 5.400000000000000000e+01
-4.457415103912354404e+00 -2.819989323616027832e-01 -7.073966264724731445e-01 1.000000000000000000e+01
-5.874184608459472656e+00 -3.695723712444304865e-01 -7.226852178573608398e-01 1.100000000000000000e+01
-8.635967254638671875e+00 -5.418158173561096191e-01 -7.570347785949707031e-01 3.000000000000000000e+00
-1.738828277587890980e+01 -1.084837794303894043e+00 -9.130530953407287598e-01 5.000000000000000000e+00
-3.475587463378906250e+01 -2.156205654144287109e+00 -6.078324317932128906e-01 2.000000000000000000e+01
-2.578150272369385210e+00 -1.563315093517302912e-01 -6.920821070671081543e-01 2.200000000000000000e+01
-2.985894918441772017e+00 -1.800098568201065063e-01 -6.905997395515441895e-01 1.300000000000000000e+01
-3.556886196136475053e+00 -2.138100266456604004e-01 -6.926366686820983887e-01 1.200000000000000000e+01
-4.477431106567382812e+01 -2.683611392974853960e+00 3.924274444580078125e+00 5.400000000000000000e+01
-4.444569587707520419e+00 -2.656130492687224787e-01 -7.052065730094909668e-01 1.000000000000000000e+01
-5.867512226104736328e+00 -3.485944569110869806e-01 -7.217102646827697754e-01 1.100000000000000000e+01
-8.651728630065917969e+00 -5.124920606613159180e-01 -7.582549452781677246e-01 2.000000000000000000e+00
-3.473524093627929688e+01 -2.033236026763916016e+00 -6.073437333106994629e-01 2.000000000000000000e+01
-2.570965528488159180e+00 -1.468903422355652133e-01 -6.900115609169006348e-01 2.100000000000000000e+01
-2.994287490844727007e+00 -1.700279712677001953e-01 -6.923993229866027832e-01 1.600000000000000000e+01
-4.497816467285156250e+01 -2.546169996261597124e+00 2.360979557037353960e+00 3.500000000000000000e+01
-3.553690671920775923e+00 -2.011709511280060092e-01 -6.918734312057495117e-01 1.200000000000000000e+01
-4.482716751098632812e+01 -2.529773473739624023e+00 3.928109407424927202e+00 5.400000000000000000e+01
-4.461247444152832031e+00 -2.509846389293671209e-01 -7.077094912528991699e-01 1.000000000000000000e+01
-5.860765457153320312e+00 -3.276676535606384277e-01 -7.207353115081787109e-01 1.100000000000000000e+01
-8.617656707763671875e+00 -4.802930653095244806e-01 -7.551173567771911621e-01 2.000000000000000000e+00
-1.719601249694823863e+01 -9.523746371269226074e-01 -9.025859236717224121e-01 5.000000000000000000e+00
-3.472615432739257812e+01 -1.911095976829529031e+00 -6.070644855499267578e-01 2.000000000000000000e+01
-2.552171707153319868e+00 -1.368804872035979947e-01 -6.848351955413818359e-01 2.100000000000000000e+01
-2.990970849990845171e+00 -1.593675464391708096e-01 -6.914995312690734863e-01 2.200000000000000000e+01
-4.493891143798828125e+01 -2.386609077453612837e+00 2.358467578887939009e+00 3.400000000000000000e+01
-3.552410840988159180e+00 -1.886609196662903110e-01 -6.914917826652526855e-01 1.200000000000000000e+01
-4.481185150146483664e+01 -2.372018098831177202e+00 3.926017522811890093e+00 5.400000000000000000e+01
-4.446315288543701172e+00 -2.345778644084929865e-01 -7.052065730094909668e-01 1.000000000000000000e+01
-5.873767852783203125e+00 -3.078311085700988770e-01 -7.221977114677429199e-01 1.100000000000000000e+01
-8.611322402954101562e+00 -4.497932195663452148e-01 -7.544201016426086426e-01 2.000000000000000000e+00
-1.719923210144042969e+01 -8.923435807228088379e-01 -9.025859236717224121e-01 5.000000000000000000e+00
-3.472462463378906250e+01 -1.789455771446228027e+00 -6.069248914718627930e-01 1.300000000000000000e+01
-2.560351610183715820e+00 -1.283578127622604093e-01 -6.869057416915893555e-01 2.200000000000000000e+01
-2.991508960723876953e+00 -1.489261388778687079e-01 -6.914995312690734863e-01 2.200000000000000000e+01
-4.494696807861328125e+01 -2.229728460311890093e+00 2.358467578887939009e+00 3.400000000000000000e+01
-3.558930158615111861e+00 -1.765513569116592130e-01 -6.926366686820983887e-01 1.300000000000000000e+01
-4.478005981445313211e+01 -2.213613748550415039e+00 3.922531366348267046e+00 5.400000000000000000e+01
-4.447107315063476562e+00 -2.190559059381484985e-01 -7.052065730094909668e-01 8.000000000000000000e+00
-5.870841026306152344e+00 -2.871320247650145929e-01 -7.217102646827697754e-01 1.100000000000000000e+01
-8.588959693908691406e+00 -4.185675680637360174e-01 -7.523283958435058594e-01 2.000000000000000000e+00
-1.720224189758301137e+01 -8.323016166687011719e-01 -9.025859236717224121e-01 5.000000000000000000e+00
-3.473465728759766336e+01 -1.668425202369689941e+00 -6.069946885108947754e-01 1.300000000000000000e+01
-2.570432901382445845e+00 -1.198697015643119951e-01 -6.894939541816711426e-01 1.900000000000000000e+01
-2.976437330245972124e+00 -1.377621144056319913e-01 -6.879003047943115234e-01 2.100000000000000000e+01
-4.497043991088867188e+01 -2.073556661605834961e+00 2.359304904937744141e+00 3.400000000000000000e+01
-3.561486005783081055e+00 -1.642177253961563110e-01 -6.930182576179504395e-01 1.900000000000000000e+01
-4.478751373291016336e+01 -2.057288646697998047e+00 3.922531366348267046e+00 5.400000000000000000e+01
-4.436004638671875000e+00 -2.029894739389420111e-01 -7.033293843269348145e-01 1.000000000000000000e+01
-5.863875389099121094e+00 -2.662770152091979980e-01 -7.207353115081787109e-01 1.100000000000000000e+01
-8.586387634277343750e+00 -3.884038925170897882e-01 -7.519797682762145996e-01 3.000000000000000000e+00
-3.473227691650391336e+01 -1.546812534332274947e+00 -6.068550944328308105e-01 1.300000000000000000e+01
-2.574676275253295898e+00 -1.115123704075813016e-01 -6.905292272567749023e-01 1.900000000000000000e+01
-4.478152847290039062e+01 -1.931712031364440918e+00 7.823913693428039551e-01 4.800000000000000000e+01
-2.980771541595458984e+00 -1.280584186315535944e-01 -6.888001561164855957e-01 2.200000000000000000e+01
-4.490888595581054688e+01 -1.929353237152100053e+00 2.355746030807495117e+00 3.400000000000000000e+01
-3.560049533843994141e+00 -1.523225903511047086e-01 -6.926366686820983887e-01 1.700000000000000000e+01
-4.479409027099608664e+01 -1.908756613731384055e+00 3.922531366348267046e+00 5.400000000000000000e+01
-4.450469017028808594e+00 -1.888643205165863037e-01 -7.055194377899169922e-01 1.000000000000000000e+01
-5.840926170349121094e+00 -2.458285689353942871e-01 -7.178104519844055176e-01 1.100000000000000000e+01
-8.591609954833984375e+00 -3.600951433181763250e-01 -7.523283958435058594e-01 2.000000000000000000e+00
-3.470924377441406250e+01 -1.430474877357482910e+00 -6.063663959503173828e-01 1.300000000000000000e+01
-2.561537742614746094e+00 -1.019864082336426059e-01 -6.869057416915893555e-01 2.100000000000000000e+01
-4.474803543090820312e+01 -1.773799419403075950e+00 7.816932797431945801e-01 4.800000000000000000e+01
-2.988989353179932085e+00 -1.179601997137069980e-01 -6.905997395515441895e-01 2.500000000000000000e+01
-3.546827316284180132e+00 -1.393552273511886874e-01 -6.899653077125549316e-01 1.900000000000000000e+01
-4.482835006713867188e+01 -1.753474712371825950e+00 3.924971818923950195e+00 5.400000000000000000e+01
-4.445179462432861328e+00 -1.730975359678267878e-01 -7.045808434486389160e-01 1.500000000000000000e+01
-5.845715522766113281e+00 -2.255915254354476929e-01 -7.182978987693786621e-01 1.100000000000000000e+01
-8.582859992980957031e+00 -3.297201991081237793e-01 -7.514567971229553223e-01 3.000000000000000000e+00
-3.470203399658203125e+01 -1.308856010437011941e+00 -6.061570048332214355e-01 1.300000000000000000e+01
-2.552241325378417969e+00 -9.224832057952880859e-02 -6.843175292015075684e-01 2.000000000000000000e+01
-4.471826553344727273e+01 -1.608483910560607910e+00 7.810649871826171875e-01 4.800000000000000000e+01
-2.987454175949097124e+00 -1.069345027208327970e-01 -6.901498436927795410e-01 2.300000000000000000e+01
-3.555162191390991211e+00 -1.266340613365173062e-01 -6.914917826652526855e-01 2.100000000000000000e+01
-4.483447647094727273e+01 -1.589158773422240989e+00 3.924971818923950195e+00 5.400000000000000000e+01
-4.439861297607421875e+00 -1.565950959920882901e-01 -7.036422491073608398e-01 1.500000000000000000e+01
-5.842535495758056641e+00 -2.040258347988128940e-01 -7.178104519844055176e-01 1.100000000000000000e+01
-8.570072174072265625e+00 -2.977759540081024170e-01 -7.502366304397583008e-01 3.000000000000000000e+00
-1.701257896423339844e+01 -5.851738452911376953e-01 -8.921186923980712891e-01 5.000000000000000000e+00
-3.465463638305664062e+01 -1.179888844490051047e+00 -6.052494645118713379e-01 1.300000000000000000e+01
-2.554478645324707031e+00 -8.340181410312652588e-02 -6.848351955413818359e-01 2.100000000000000000e+01
-4.471161651611328125e+01 -1.451988816261291948e+00 7.808555960655212402e-01 4.800000000000000000e+01
-2.991704702377318892e+00 -9.663151204586029053e-02 -6.910496354103088379e-01 2.300000000000000000e+01
-3.553620338439940962e+00 -1.141604185104369978e-01 -6.911101937294006348e-01 2.000000000000000000e+01
-4.481187057495117188e+01 -1.431756854057312012e+00 3.922531366348267046e+00 5.400000000000000000e+01
-4.434457778930664062e+00 -1.409079134464263916e-01 -7.027035951614379883e-01 1.700000000000000000e+01
-5.845196247100830078e+00 -1.836926937103270929e-01 -7.180541753768920898e-01 1.500000000000000000e+01
-8.559110641479492188e+00 -2.674855887889862061e-01 -7.491907477378845215e-01 3.000000000000000000e+00
-1.701451683044433949e+01 -5.257853269577026367e-01 -8.921186923980712891e-01 5.000000000000000000e+00
-3.465854644775391336e+01 -1.058914303779602051e+00 -6.052494645118713379e-01 2.000000000000000000e+01
-2.564409255981444868e+00 -7.476601004600524902e-02 -6.874234080314636230e-01 1.900000000000000000e+01
-4.472440719604492188e+01 -1.296139001846313032e+00 7.809951901435852051e-01 4.800000000000000000e+01
-2.982284069061278853e+00 -8.590736240148544312e-02 -6.888001561164855957e-01 2.500000000000000000e+01
-3.559884548187255859e+00 -1.019238382577895979e-01 -6.922550201416015625e-01 2.000000000000000000e+01
-4.481659698486328125e+01 -1.275325417518615945e+00 3.922531366348267046e+00 5.400000000000000000e+01
-4.434922695159912109e+00 -1.254279166460036954e-01 -7.027035951614379883e-01 1.800000000000000000e+01
-5.821990013122558594e+00 -1.626229137182235995e-01 -7.151293158531188965e-01 1.500000000000000000e+01
-8.559992790222167969e+00 -2.376070767641068060e-01 -7.491907477378845215e-01 2.000000000000000000e+00
-3.469001770019531250e+01 -9.386842250823974609e-01 -6.057381033897399902e-01 1.300000000000000000e+01
-2.566585779190063032e+00 -6.586365401744842529e-02 -6.879410147666931152e-01 2.200000000000000000e+01
-4.473265838623046875e+01 -1.140115737915039062e+00 7.810649871826171875e-01 4.800000000000000000e+01
-2.968929052352904829e+00 -7.515154033899307251e-02 -6.856508255004882812e-01 2.300000000000000000e+01
-3.550405502319335938e+00 -8.925021439790725708e-02 -6.903469562530517578e-01 1.700000000000000000e+01
-4.479687500000000000e+01 -1.118281960487365945e+00 3.920439720153809038e+00 5.400000000000000000e+01
-4.419535160064697266e+00 -1.095547601580619951e-01 -7.002006769180297852e-01 1.700000000000000000e+01
-5.824506759643554688e+00 -1.423478722572326938e-01 -7.153730392456054688e-01 1.500000000000000000e+01
-8.574712753295898438e+00 -2.080640047788619995e-01 -7.504109740257263184e-01 4.000000000000000000e+00
-3.466309356689453125e+01 -8.168811202049255371e-01 -6.052145361900329590e-01 2.000000000000000000e+01
-2.561006069183350053e+00 -5.677574127912520668e-02 -6.863881349563598633e-01 2.300000000000000000e+01
-4.474436187744141336e+01 -9.841385483741760254e-01 7.812046408653259277e-01 4.800000000000000000e+01
-2.982811212539672852e+00 -6.508517265319824219e-02 -6.888001561164855957e-01 2.200000000000000000e+01
-3.540881395339965820e+00 -7.664401829242706299e-02 -6.884388327598571777e-01 2.000000000000000000e+01
-4.482440948486328125e+01 -9.624180793762207031e-01 3.922531366348267046e+00 5.400000000000000000e+01
-4.429765701293945312e+00 -9.433732926845550537e-02 -7.017650008201599121e-01 1.600000000000000000e+01
-5.811075687408447266e+00 -1.217246800661087036e-01 -7.136668562889099121e-01 1.300000000000000000e+01
-8.541522979736328125e+00 -1.774279773235321045e-01 -7.474476695060729980e-01 4.000000000000000000e+00
-3.463374710083007812e+01 -6.952372193336486816e-01 -6.046561002731323242e-01 2.000000000000000000e+01
-2.551531076431273970e+00 -4.765544086694716713e-02 -6.837999224662780762e-01 2.100000000000000000e+01
-4.473952484130858664e+01 -8.277975916862487793e-01 7.810649871826171875e-01 4.800000000000000000e+01
-2.977174997329711914e+00 -5.456568673253058693e-02 -6.874504089355468750e-01 2.000000000000000000e+01
-3.548979282379149947e+00 -6.442610174417495728e-02 -6.899653077125549316e-01 2.100000000000000000e+01
-4.482749557495117188e+01 -8.059458136558532715e-01 3.922531366348267046e+00 5.400000000000000000e+01
-4.422167778015136719e+00 -7.873333245515823364e-02 -7.005135416984558105e-01 1.500000000000000000e+01
-5.815434455871582031e+00 -1.015087887644768039e-01 -7.141543626785278320e-01 1.500000000000000000e+01
-8.514201164245605469e+00 -1.471294760704041082e-01 -7.450072765350341797e-01 4.000000000000000000e+00
-1.674461746215819957e+01 -2.835083305835723877e-01 -8.776739835739135742e-01 5.000000000000000000e+00
-3.464595794677733664e+01 -5.745043754577636719e-01 -6.048306226730346680e-01 1.300000000000000000e+01
-2.547811746597290039e+00 -3.913465887308120728e-02 -6.827646493911743164e-01 2.200000000000000000e+01
-4.471403121948242188e+01 -6.790063381195068359e-01 7.805763483047485352e-01 4.800000000000000000e+01
-2.965648412704468218e+00 -4.451722651720046997e-02 -6.847510337829589844e-01 1.400000000000000000e+01
-3.543284177780150923e+00 -5.256953462958335876e-02 -6.888204813003540039e-01 1.200000000000000000e+01
-4.478210830688477273e+01 -6.565870642662048340e-01 3.918347835540771040e+00 5.400000000000000000e+01
-4.408577919006347656e+00 -6.386815756559371948e-02 -6.983234286308288574e-01 1.100000000000000000e+01
-5.799860000610351562e+00 -8.199905604124069214e-02 -7.122044563293457031e-01 1.300000000000000000e+01
-8.510658264160156250e+00 -1.188389211893081943e-01 -7.446586489677429199e-01 3.000000000000000000e+00
-1.666158866882323863e+01 -2.268376797437668124e-01 -8.732777833938598633e-01 5.000000000000000000e+00
-3.461368179321289062e+01 -4.591601788997650146e-01 -6.042371988296508789e-01 2.000000000000000000e+01
-2.555659770965576172e+00 -3.033260442316532135e-02 -6.848351955413818359e-01 2.100000000000000000e+01
-4.470013427734375000e+01 -5.227340459823608398e-01 7.802971005439758301e-01 4.800000000000000000e+01
-2.965785741806029829e+00 -3.416490927338600159e-02 -6.847510337829589844e-01 1.400000000000000000e+01
-3.545409202575684038e+00 -4.022311791777610779e-02 -6.892020702362060547e-01 1.200000000000000000e+01
-4.483193969726563211e+01 -5.007984042167663574e-01 3.922531366348267046e+00 5.400000000000000000e+01
-4.410749435424804688e+00 -4.850067943334578774e-02 -6.986362934112548828e-01 1.000000000000000000e+01
-5.794156074523925781e+00 -6.168986111879348755e-02 -7.114732265472412109e-01 1.100000000000000000e+01
-8.487112998962402344e+00 -8.888009190559387207e-02 -7.425669431686401367e-01 3.000000000000000000e+00
-3.461307525634766336e+01 -3.383135497570037842e-01 -6.042023301124572754e-01 2.000000000000000000e+01
-2.555750131607056108e+00 -2.141150273382664074e-02 -6.848351955413818359e-01 2.800000000000000000e+01
-4.470168685913085938e+01 -3.666982948780059814e-01 7.802971005439758301e-01 4.800000000000000000e+01
-2.969784259796143022e+00 -2.384346909821033131e-02 -6.856508255004882812e-01 1.300000000000000000e+01
-4.504878616333007812e+01 -3.538196086883544922e-01 2.360979557037353960e+00 3.500000000000000000e+01
-3.539638519287108931e+00 -2.780082635581493031e-02 -6.880572438240051270e-01 1.200000000000000000e+01
-4.483341598510742188e+01 -3.443026840686798096e-01 3.922531366348267046e+00 5.400000000000000000e+01
-4.410892009735107422e+00 -3.310399502515792847e-02 -6.986362934112548828e-01 1.000000000000000000e+01
-5.776470661163330078e+00 -4.133626446127892234e-02 -7.092795968055725098e-01 9.000000000000000000e+00
-8.491356849670410156e+00 -5.928181484341620705e-02 -7.429155707359313965e-01 3.000000000000000000e+00
-1.662282180786133168e+01 -1.102483421564102034e-01 -8.711843490600585938e-01 5.000000000000000000e+00
-3.460604476928710938e+01 -2.174390554428100863e-01 -6.040626764297485352e-01 1.300000000000000000e+01
-2.557740926742554155e+00 -1.249958015978335987e-02 -6.853528022766113281e-01 3.100000000000000000e+01
-4.472668838500977273e+01 -2.107711285352706909e-01 7.807159423828125000e-01 4.800000000000000000e+01
-2.973746776580810991e+00 -1.349452789872884924e-02 -6.865506172180175781e-01 1.400000000000000000e+01
-4.504974746704102273e+01 -1.965678483247756958e-01 2.360979557037353960e+00 3.500000000000000000e+01
-3.533824205398560014e+00 -1.541931461542844946e-02 -6.869123578071594238e-01 1.100000000000000000e+01
-4.483434677124022727e+01 -1.878027617931365967e-01 3.922531366348267046e+00 5.400000000000000000e+01
-4.418881893157958984e+00 -1.773862540721892964e-02 -6.998878121376037598e-01 1.000000000000000000e+01
-5.786505222320556641e+00 -2.120874449610710144e-02 -7.104982733726501465e-01 1.100000000000000000e+01
-8.489519119262695312e+00 -2.963413298130035053e-02 -7.427412271499633789e-01 3.000000000000000000e+00
-1.662310600280762074e+01 -5.222319811582565308e-02 -8.711843490600585938e-01 5.000000000000000000e+00
-3.456460189819335938e+01 -9.652282297611236572e-02 -6.033297181129455566e-01 2.000000000000000000e+01
-2.542313575744628906e+00 -3.993459977209568024e-03 -6.812117099761962891e-01 3.400000000000000000e+01
-4.475513839721679688e+01 -6.249000132083892822e-02 7.812046408653259277e-01 4.800000000000000000e+01
-2.967928886413574219e+00 -3.626011079177259965e-03 -6.852009296417236328e-01 1.300000000000000000e+01
-4.495028686523438211e+01 -4.707184806466103294e-02 2.355746030807495117e+00 3.400000000000000000e+01
-3.533855915069580078e+00 -3.700646571815013885e-03 -6.869123578071594238e-01 1.200000000000000000e+01
-4.483472061157227273e+01 -3.912568464875221252e-02 3.922531366348267046e+00 5.400000000000000000e+01
-4.418916702270507812e+00 -3.084986237809062004e-03 -6.998878121376037598e-01 1.000000000000000000e+01
-5.790513992309570312e+00 -2.021270804107189178e-03 -7.109857201576232910e-01 1.100000000000000000e+01
-8.447731018066406250e+00 -1.474407152272761085e-03 -7.390807271003723145e-01 2.000000000000000000e+00
-3.458872604370117188e+01 1.811061613261700023e-02 -6.037485599517822266e-01 2.000000000000000000e+01
-2.542312145233153853e+00 4.880894906818866730e-03 -6.812117099761962891e-01 3.600000000000000000e+01
-4.475508499145507812e+01 9.373496472835540771e-02 7.812046408653259277e-01 4.800000000000000000e+01
-2.973769664764403853e+00 6.747281178832054138e-03 -6.865506172180175781e-01 1.300000000000000000e+01
-4.501009750366210938e+01 1.099806278944016058e-01 2.358886241912841797e+00 3.400000000000000000e+01
-3.533847332000731978e+00 8.634835481643676758e-03 -6.869123578071594238e-01 1.200000000000000000e+01
-4.486248016357421875e+01 1.174499616026877941e-01 3.924971818923950195e+00 5.400000000000000000e+01
-4.389269828796386719e+00 1.225718576461077083e-02 -6.951947808265686035e-01 9.000000000000000000e+00
-5.774604797363281250e+00 1.814151555299758911e-02 -7.090358138084411621e-01 1.100000000000000000e+01
-8.439715385437011719e+00 2.798725850880146027e-02 -7.383834719657897949e-01 3.000000000000000000e+00
-3.456045532226563211e+01 1.387353092432022095e-01 -6.032598614692687988e-01 2.000000000000000000e+01
-2.550004482269287109e+00 1.424205955117941076e-02 -6.832822561264038086e-01 4.000000000000000000e+01
-4.471844482421875000e+01 2.575626075267791748e-01 7.805763483047485352e-01 4.800000000000000000e+01
-2.958135366439818892e+00 1.755413599312305103e-02 -6.829513907432556152e-01 1.300000000000000000e+01
-4.500939178466796875e+01 2.749501466751099188e-01 2.358886241912841797e+00 3.400000000000000000e+01
-3.537718296051024947e+00 2.161096036434173931e-02 -6.876755952835083008e-01 1.100000000000000000e+01
-4.483385467529296875e+01 2.817031145095825195e-01 3.922531366348267046e+00 5.400000000000000000e+01
-4.395121574401854581e+00 2.838285081088542938e-02 -6.961333751678466797e-01 1.000000000000000000e+01
-5.782439708709716797e+00 3.936042636632919312e-02 -7.100107669830322266e-01 1.100000000000000000e+01
-8.439556121826171875e+00 5.892017111182212830e-02 -7.383834719657897949e-01 2.000000000000000000e+00
-3.457371520996093750e+01 2.655122876167296808e-01 -6.035042405128479004e-01 1.300000000000000000e+01
-2.548007488250731978e+00 2.312561683356761932e-02 -6.827646493911743164e-01 3.300000000000000000e+01
-4.476526641845703125e+01 4.141014814376831055e-01 7.814140319824218750e-01 4.800000000000000000e+01
-2.960004806518555132e+00 2.789821475744247090e-02 -6.834012866020202637e-01 1.200000000000000000e+01
-4.500016784667968750e+01 4.319838583469390869e-01 2.358467578887939009e+00 3.400000000000000000e+01
-3.527805566787720171e+00 3.386554121971129677e-02 -6.857675313949584961e-01 1.200000000000000000e+01
-4.483259582519531250e+01 4.382007420063018799e-01 3.922531366348267046e+00 5.400000000000000000e+01
-4.406847476959229404e+00 4.384242370724678040e-02 -6.980105638504028320e-01 1.000000000000000000e+01
-5.752492427825927734e+00 5.923805385828018188e-02 -7.063547372817993164e-01 1.100000000000000000e+01
-8.455237388610839844e+00 8.854626864194869995e-02 -7.397779226303100586e-01 2.000000000000000000e+00
-3.450659179687500000e+01 3.854583501815795898e-01 -6.023523807525634766e-01 2.000000000000000000e+01
-2.545990467071533203e+00 3.110668994486331940e-02 -6.822469830513000488e-01 3.100000000000000000e+01
-4.475174713134766336e+01 5.545847415924072266e-01 7.812046408653259277e-01 4.800000000000000000e+01
-2.959902524948120117e+00 3.719719126820564270e-02 -6.834012866020202637e-01 1.200000000000000000e+01
-4.497462463378906250e+01 5.730483531951904297e-01 2.357211351394652876e+00 3.400000000000000000e+01
-3.519829273223876953e+00 4.484823346137999794e-02 -6.842410564422607422e-01 1.200000000000000000e+01
-4.486287307739257812e+01 5.794558525085449219e-01 3.925320386886597124e+00 5.400000000000000000e+01
-4.402737617492675781e+00 5.763499066233634949e-02 -6.973848342895507812e-01 1.000000000000000000e+01
-5.766172409057617188e+00 7.749646157026290894e-02 -7.080608606338500977e-01 1.100000000000000000e+01
-8.429018020629882812e+00 1.147561073303222934e-01 -7.375118732452392578e-01 3.000000000000000000e+00
-3.448921203613281250e+01 4.936329722404479980e-01 -6.020731329917907715e-01 2.000000000000000000e+01
-2.538139820098876953e+00 3.987228870391845703e-02 -6.801764369010925293e-01 2.400000000000000000e+01
-4.476153564453125000e+01 7.109847068786621094e-01 7.814140319824218750e-01 4.800000000000000000e+01
-2.961703062057495117e+00 4.756024107336997986e-02 -6.838511824607849121e-01 1.400000000000000000e+01
-4.488448333740233664e+01 7.286092638969421387e-01 2.352605819702147993e+00 3.400000000000000000e+01
-3.529466390609741211e+00 5.729378387331963279e-02 -6.861491203308105469e-01 1.100000000000000000e+01
-4.482870483398438211e+01 7.355299592018127441e-01 3.922531366348267046e+00 5.400000000000000000e+01
-4.394608974456787109e+00 7.287205755710601807e-02 -6.961333751678466797e-01 1.000000000000000000e+01
-5.763882160186767578e+00 9.759008139371871948e-02 -7.078171372413635254e-01 9.000000000000000000e+00
-8.406653404235839844e+00 1.438033282756804865e-01 -7.355944514274597168e-01 2.000000000000000000e+00
-3.450327682495117188e+01 6.143045425415039062e-01 -6.023523807525634766e-01 2.000000000000000000e+01
-2.545702695846558061e+00 4.932446405291557312e-02 -6.822469830513000488e-01 2.600000000000000000e+01
-4.474663162231445312e+01 8.748046159744262695e-01 7.812046408653259277e-01 4.800000000000000000e+01
-2.953715562820435014e+00 5.826138332486153343e-02 -6.820515990257263184e-01 1.400000000000000000e+01
-4.500131988525391336e+01 8.954983949661254883e-01 2.358886241912841797e+00 3.400000000000000000e+01
-3.525306940078734907e+00 7.015141844749450684e-02 -6.853858828544616699e-01 1.100000000000000000e+01
-4.482570648193358664e+01 8.998304605484008789e-01 3.922531366348267046e+00 5.400000000000000000e+01
-4.370612621307373047e+00 8.849872648715972900e-02 -6.923789381980895996e-01 9.000000000000000000e+00
-5.763485431671142578e+00 1.187151074409485002e-01 -7.078171372413635254e-01 9.000000000000000000e+00
-8.420013427734375000e+00 1.749039292335509976e-01 -7.368146777153015137e-01 3.000000000000000000e+00
-1.622011756896973012e+01 3.425952196121215820e-01 -8.502499461174011230e-01 4.000000000000000000e+00
-3.449679183959960938e+01 7.406753897666931152e-01 -6.022825241088867188e-01 2.000000000000000000e+01
-2.539721012115478960e+00 5.807782709598541260e-02 -6.806941032409667969e-01 2.400000000000000000e+01
-4.475530242919921875e+01 1.031270623207092063e+00 7.814140319824218750e-01 4.800000000000000000e+01
-2.945701360702515093e+00 6.839048862457275391e-02 -6.802520155906677246e-01 1.400000000000000000e+01
-4.503785705566406250e+01 1.053511023521422896e+00 2.360979557037353960e+00 3.500000000000000000e+01
-3.523077964782714844e+00 8.241070061922073364e-02 -6.850042939186096191e-01 1.200000000000000000e+01
-4.484221267700195312e+01 1.056765317916869895e+00 3.924274444580078125e+00 5.400000000000000000e+01
-4.374226570129395419e+00 1.038482412695884982e-01 -6.930046677589416504e-01 1.000000000000000000e+01
-5.753113269805908203e+00 1.385936737060546875e-01 -7.065984606742858887e-01 1.100000000000000000e+01
-8.393458366394042969e+00 2.036658972501755038e-01 -7.345486283302307129e-01 3.000000000000000000e+00
-3.448799896240233664e+01 8.609374761581420898e-01 -6.021778583526611328e-01 2.000000000000000000e+01
-2.551089763641356978e+00 6.724819540977478027e-02 -6.837999224662780762e-01 2.100000000000000000e+01
-4.472743988037108664e+01 1.186852931976317915e+00 7.809951901435852051e-01 4.800000000000000000e+01
-2.941548585891724077e+00 7.856842875480651855e-02 -6.793521642684936523e-01 1.400000000000000000e+01
-4.498199462890625000e+01 1.209320425987244096e+00 2.358258247375487837e+00 3.400000000000000000e+01
-3.520806074142456055e+00 9.465527534484863281e-02 -6.846227049827575684e-01 1.200000000000000000e+01
-4.485020065307617188e+01 1.213610768318176047e+00 3.925320386886597124e+00 5.400000000000000000e+01
-4.369888305664063388e+00 1.190089583396912037e-01 -6.923789381980895996e-01 9.000000000000000000e+00
-5.740688800811767578e+00 1.583465337753295898e-01 -7.051360011100769043e-01 1.100000000000000000e+01
-8.388712882995605469e+00 2.328527271747589111e-01 -7.342000007629394531e-01 2.000000000000000000e+00
-1.621733093261719105e+01 4.558237493038176935e-01 -8.502499461174011230e-01 4.000000000000000000e+00
-3.450876998901367188e+01 9.820004105567932129e-01 -6.025967001914978027e-01 1.300000000000000000e+01
-2.552770614624022993e+00 7.621040195226669312e-02 -6.843175292015075684e-01 1.800000000000000000e+01
-4.473501968383789062e+01 1.343333721160888894e+00 7.812046408653259277e-01 4.800000000000000000e+01
-2.949047803878784180e+00 8.907119929790496826e-02 -6.811518073081970215e-01 1.300000000000000000e+01
-4.498947525024414062e+01 1.366693377494812012e+00 2.358886241912841797e+00 3.400000000000000000e+01
-3.512604951858520952e+00 1.067061498761177063e-01 -6.830962300300598145e-01 1.100000000000000000e+01
-4.483374023437500000e+01 1.369794726371764915e+00 3.924274444580078125e+00 5.400000000000000000e+01
-4.365497589111328125e+00 1.341406404972076138e-01 -6.917532086372375488e-01 1.000000000000000000e+01
-5.744069099426270419e+00 1.785076260566710871e-01 -7.056235074996948242e-01 1.100000000000000000e+01
-8.383866310119628906e+00 2.620089054107666016e-01 -7.338513731956481934e-01 2.000000000000000000e+00
-3.451313018798828125e+01 1.102707982063293013e+00 -6.027362942695617676e-01 1.300000000000000000e+01
-2.533195972442626953e+00 8.403476327657699585e-02 -6.791411638259887695e-01 1.600000000000000000e+01
-4.474230957031250000e+01 1.492072939872741921e+00 7.814140319824218750e-01 4.800000000000000000e+01
-2.956526756286621094e+00 9.911126643419265747e-02 -6.829513907432556152e-01 1.300000000000000000e+01
-4.502462005615233664e+01 1.517221689224242942e+00 2.360979557037353960e+00 3.500000000000000000e+01
-3.516155958175659180e+00 1.184860244393348971e-01 -6.838594675064086914e-01 1.100000000000000000e+01
-4.486081314086914062e+01 1.519540429115294966e+00 3.927063465118408203e+00 5.400000000000000000e+01
-4.368977069854736328e+00 1.487508565187453946e-01 -6.923789381980895996e-01 1.000000000000000000e+01
-5.739477634429931641e+00 1.974181830883026123e-01 -7.051360011100769043e-01 1.100000000000000000e+01
-8.355074882507324219e+00 2.888456284999846857e-01 -7.314109802246093750e-01 2.000000000000000000e+00
-3.445332717895507812e+01 1.215177893638611062e+00 -6.017589569091796875e-01 1.300000000000000000e+01
-2.540609359741210938e+00 9.315991401672363281e-02 -6.812117099761962891e-01 1.500000000000000000e+01
-4.472483825683593750e+01 1.647801876068115012e+00 7.812046408653259277e-01 4.800000000000000000e+01
-2.946425676345825195e+00 1.090704202651977955e-01 -6.807019114494323730e-01 1.500000000000000000e+01
-4.501905059814453125e+01 1.674377679824829102e+00 2.360979557037353960e+00 3.500000000000000000e+01
-3.511797189712523970e+00 1.306130439043045044e-01 -6.830962300300598145e-01 1.200000000000000000e+01
-4.484328842163085938e+01 1.675678253173827903e+00 3.926017522811890093e+00 5.400000000000000000e+01
-4.358561515808104581e+00 1.636299788951874057e-01 -6.908146142959594727e-01 1.000000000000000000e+01
-5.750655651092529297e+00 2.179024964570998868e-01 -7.065984606742858887e-01 1.100000000000000000e+01
-8.359988212585449219e+00 3.182359039783477783e-01 -7.319339513778686523e-01 3.000000000000000000e+00
-3.445286941528320312e+01 1.335590004920959029e+00 -6.018287539482116699e-01 2.000000000000000000e+01
-2.546059608459473100e+00 1.022603139281273027e-01 -6.827646493911743164e-01 1.600000000000000000e+01
-4.473080062866210938e+01 1.804394245147705078e+00 7.814140319824218750e-01 4.800000000000000000e+01
-2.936291456222534180e+00 1.189602687954903065e-01 -6.784523725509643555e-01 1.300000000000000000e+01
-4.501324844360352273e+01 1.823657035827636941e+00 2.360979557037353960e+00 3.500000000000000000e+01
-3.509358167648314986e+00 1.427908837795258123e-01 -6.827145814895629883e-01 1.200000000000000000e+01
-4.482522201538085938e+01 1.831712245941162109e+00 3.924971818923950195e+00 5.400000000000000000e+01
-4.354016304016113281e+00 1.786812096834183017e-01 -6.901888847351074219e-01 1.000000000000000000e+01
-5.730026245117188388e+00 2.371538132429122925e-01 -7.041610479354858398e-01 1.100000000000000000e+01
-8.340909957885742188e+00 3.466711342334746759e-01 -7.303650975227355957e-01 3.000000000000000000e+00
-1.600995445251464844e+01 6.710158586502075195e-01 -8.397827744483947754e-01 4.000000000000000000e+00
-3.442002868652343750e+01 1.454662680625915971e+00 -6.013401150703430176e-01 2.000000000000000000e+01
-2.551477193832397017e+00 1.113998964428901950e-01 -6.843175292015075684e-01 1.800000000000000000e+01
-4.476018905639647727e+01 1.962099194526671919e+00 7.820423245429992676e-01 4.800000000000000000e+01
-2.937804937362670898e+00 1.292947977781296054e-01 -6.789022684097290039e-01 1.200000000000000000e+01
-3.506877183914185014e+00 1.549533009529114047e-01 -6.823329925537109375e-01 1.200000000000000000e+01
-4.483049774169921875e+01 1.988700032234191895e+00 3.926017522811890093e+00 5.400000000000000000e+01
-4.349419116973876953e+00 1.937026977539063055e-01 -6.895630955696105957e-01 1.000000000000000000e+01
-5.717264652252197266e+00 2.566198110580443781e-01 -7.026986479759216309e-01 1.100000000000000000e+01
-8.335668563842773438e+00 3.756048381328582764e-01 -7.300165295600891113e-01 2.000000000000000000e+00
-3.441274261474608664e+01 1.574710726737976074e+00 -6.013051867485046387e-01 2.000000000000000000e+01
-2.551072835922241211e+00 1.203055381774902066e-01 -6.843175292015075684e-01 2.300000000000000000e+01
-4.476905059814453125e+01 2.119085788726807085e+00 7.823215723037719727e-01 4.800000000000000000e+01
-2.933442831039429155e+00 1.393638998270035068e-01 -6.780024766921997070e-01 1.200000000000000000e+01
-4.499942016601563211e+01 2.137861728668212891e+00 2.360979557037353960e+00 3.500000000000000000e+01
-3.500431776046752930e+00 1.669131219387053888e-01 -6.811881065368652344e-01 1.200000000000000000e+01
-4.482328414916992188e+01 2.145175457000731978e+00 3.926017522811890093e+00 5.400000000000000000e+01
-4.356608867645263672e+00 2.092629224061965942e-01 -6.908146142959594727e-01 1.000000000000000000e+01
-5.708403110504150391e+00 2.761915028095244806e-01 -7.017236948013305664e-01 1.100000000000000000e+01
-8.330327033996582031e+00 4.045062065124512274e-01 -7.296679019927978516e-01 2.000000000000000000e+00
-3.437308120727539062e+01 1.693151593208312988e+00 -6.007118225097656250e-01 1.300000000000000000e+01
-2.546778440475463867e+00 1.290142387151717862e-01 -6.832822561264038086e-01 2.300000000000000000e+01
-4.475738525390625000e+01 2.275143146514893022e+00 7.822517752647399902e-01 4.800000000000000000e+01
-2.942669391632080078e+00 1.500990390777587891e-01 -6.802520155906677246e-01 1.400000000000000000e+01
-3.490024328231811968e+00 1.786291152238846103e-01 -6.792800426483154297e-01 1.200000000000000000e+01
-4.483940124511718750e+01 2.302851200103760210e+00 3.928109407424927202e+00 5.400000000000000000e+01
-4.340069770812988281e+00 2.236557602882384976e-01 -6.883116364479064941e-01 1.000000000000000000e+01
-5.707404136657714844e+00 2.961158752441406250e-01 -7.017236948013305664e-01 1.100000000000000000e+01
-8.269172668457031250e+00 4.304746389389038086e-01 -7.244385480880737305e-01 2.000000000000000000e+00
-3.435897445678710938e+01 1.812704324722290039e+00 -6.005722284317016602e-01 1.300000000000000000e+01
-2.544359445571898970e+00 1.382429599761962891e-01 -6.827646493911743164e-01 2.800000000000000000e+01
-4.473676681518554688e+01 2.438518762588500977e+00 7.820423245429992676e-01 4.800000000000000000e+01
-2.938207864761352983e+00 1.606706529855727872e-01 -6.793521642684936523e-01 1.300000000000000000e+01
-3.499147891998291016e+00 1.919571906328201016e-01 -6.811881065368652344e-01 1.200000000000000000e+01
-4.485055160522460938e+01 2.468275308609008789e+00 3.929852485656737837e+00 5.400000000000000000e+01
-4.323441982269287109e+00 2.386902719736098966e-01 -6.858087182044982910e-01 1.000000000000000000e+01
-5.712226867675781250e+00 3.173629045486450195e-01 -7.024549245834350586e-01 1.100000000000000000e+01
-8.271518707275390625e+00 4.610015153884888250e-01 -7.247871756553649902e-01 2.000000000000000000e+00
-1.580344390869140980e+01 8.863165378570556641e-01 -8.295249342918395996e-01 4.000000000000000000e+00
-3.434012222290039062e+01 1.937947988510132058e+00 -6.003627777099609375e-01 1.900000000000000000e+01
-2.555433273315430132e+00 1.477928459644317905e-01 -6.858704686164855957e-01 2.400000000000000000e+01
-4.475193786621093750e+01 2.596054077148437944e+00 7.824611663818359375e-01 4.800000000000000000e+01
-2.927901983261107954e+00 1.703599542379378995e-01 -6.771026849746704102e-01 1.200000000000000000e+01
-3.500416278839110884e+00 2.042847126722336093e-01 -6.815697550773620605e-01 1.100000000000000000e+01
-4.482177352905272727e+01 2.623653650283813032e+00 3.928109407424927202e+00 5.400000000000000000e+01
-4.324554443359375000e+00 2.538962364196776789e-01 -6.861215829849243164e-01 1.000000000000000000e+01
-5.701175689697265625e+00 3.367151916027069092e-01 -7.012361884117126465e-01 1.100000000000000000e+01
-8.267869949340820312e+00 4.897539019584655762e-01 -7.246128320693969727e-01 3.000000000000000000e+00
-1.580025386810302912e+01 9.414754509925842285e-01 -8.295249342918395996e-01 4.000000000000000000e+00
-3.435310745239257812e+01 2.059001922607421875e+00 -6.007118225097656250e-01 1.900000000000000000e+01
-2.547216176986693892e+00 1.557944118976593018e-01 -6.837999224662780762e-01 2.100000000000000000e+01
-4.477102661132813211e+01 2.746156454086304155e+00 7.829498648643493652e-01 4.800000000000000000e+01
-2.933156013488769975e+00 1.804272234439850131e-01 -6.784523725509643555e-01 1.300000000000000000e+01
-3.491881608963013139e+00 2.154078632593154907e-01 -6.800432801246643066e-01 1.200000000000000000e+01
-4.484862136840820312e+01 2.774487733840941939e+00 3.931246995925902876e+00 5.400000000000000000e+01
-4.325660228729248047e+00 2.683578729629517157e-01 -6.864344477653503418e-01 1.000000000000000000e+01
-5.696065425872802734e+00 3.553718924522399902e-01 -7.007487416267395020e-01 1.000000000000000000e+01
-8.268188476562500000e+00 5.172928571701049805e-01 -7.247871756553649902e-01 2.000000000000000000e+00
-1.579704475402832031e+01 9.938657879829406738e-01 -8.295249342918395996e-01 4.000000000000000000e+00
-3.433012771606445312e+01 2.171899557113647017e+00 -6.004325747489929199e-01 1.300000000000000000e+01
-2.540873289108275923e+00 1.643109023571014127e-01 -6.822469830513000488e-01 1.700000000000000000e+01
-4.475318527221679688e+01 2.901902198791503906e+00 7.828102111816406250e-01 4.800000000000000000e+01
-2.932508468627930132e+00 1.906647533178328913e-01 -6.784523725509643555e-01 1.200000000000000000e+01
-3.489149332046508789e+00 2.274677753448486051e-01 -6.796616315841674805e-01 1.000000000000000000e+01
-4.483866119384766336e+01 2.931021928787231001e+00 3.931246995925902876e+00 5.400000000000000000e+01
-4.328639507293701172e+00 2.837140262126923163e-01 -6.870601773262023926e-01 1.000000000000000000e+01
-5.678944110870361328e+00 3.742085397243499756e-01 -6.987988352775573730e-01 1.000000000000000000e+01
-8.250428199768066406e+00 5.451002717018127441e-01 -7.233926653861999512e-01 2.000000000000000000e+00
-3.430038833618164062e+01 2.290255546569824219e+00 -6.000486612319946289e-01 1.900000000000000000e+01
-2.521010398864746094e+00 1.718652546405791959e-01 -6.770706176757812500e-01 1.300000000000000000e+01
-4.475076293945313211e+01 3.058647871017456055e+00 7.829498648643493652e-01 4.800000000000000000e+01
-2.929880857467650923e+00 2.007667273283005038e-01 -6.780024766921997070e-01 1.200000000000000000e+01
-3.482458114624022993e+00 2.392421215772629062e-01 -6.785168051719665527e-01 1.100000000000000000e+01
-4.485996246337891336e+01 3.089710474014281782e+00 3.934036016464232954e+00 5.400000000000000000e+01
-4.317769050598145419e+00 2.981416881084442139e-01 -6.854958534240722656e-01 9.000000000000000000e+00
-5.677603244781494141e+00 3.940294682979583740e-01 -6.987988352775573730e-01 1.000000000000000000e+01
-8.192823410034179688e+00 5.700242519378662109e-01 -7.185119390487670898e-01 1.000000000000000000e+00
-1.569010162353515980e+01 1.097158789634705034e+00 -8.242912888526916504e-01 4.000000000000000000e+00
-3.434005737304688211e+01 2.413336753845214844e+00 -6.008863449096679688e-01 2.000000000000000000e+01
-2.522322177886962891e+00 1.808023005723952970e-01 -6.775882840156555176e-01 1.400000000000000000e+01
-4.473981094360352273e+01 3.214838504791260210e+00 7.829498648643493652e-01 4.800000000000000000e+01
-2.923331022262572798e+00 2.105726748704910001e-01 -6.766527891159057617e-01 1.300000000000000000e+01
-3.493350744247436968e+00 2.522450685501099188e-01 -6.808065176010131836e-01 1.100000000000000000e+01
-4.483697891235352273e+01 3.245419263839722124e+00 3.932990074157714844e+00 5.400000000000000000e+01
-4.300940513610839844e+00 3.120680451393126886e-01 -6.829928755760192871e-01 9.000000000000000000e+00
-5.680152893066406250e+00 4.141342937946320135e-01 -6.992862820625305176e-01 1.000000000000000000e+01
-8.206680297851562500e+00 5.997808575630187988e-01 -7.199064493179321289e-01 2.000000000000000000e+00
-1.558658123016357067e+01 1.144606947898864968e+00 -8.190577030181884766e-01 4.000000000000000000e+00
-3.431547164916992188e+01 2.532013893127440962e+00 -6.006070971488952637e-01 1.900000000000000000e+01
-2.529447555541992188e+00 1.893022060394287109e-01 -6.796588301658630371e-01 1.500000000000000000e+01
-4.474145507812500000e+01 3.356274127960205078e+00 7.831593155860900879e-01 4.800000000000000000e+01
-2.920711755752563032e+00 2.196094244718551913e-01 -6.762028932571411133e-01 1.300000000000000000e+01
-3.492541074752808061e+00 2.632184922695159912e-01 -6.808065176010131836e-01 1.100000000000000000e+01
-4.490603256225585938e+01 3.392265558242797852e+00 3.939962625503540039e+00 5.400000000000000000e+01
-4.305848121643066406e+00 3.260257244110106867e-01 -6.839314699172973633e-01 1.000000000000000000e+01
-4.486310577392578125e+01 3.404772758483887163e+00 5.524337291717529297e+00 3.700000000000000000e+01
-5.651112556457520419e+00 4.298690259456635077e-01 -6.958739757537841797e-01 1.000000000000000000e+01
-8.204754829406738281e+00 6.255599260330200195e-01 -7.199064493179321289e-01 2.000000000000000000e+00
-3.434523010253906250e+01 2.642721414566040039e+00 -6.012703180313110352e-01 2.000000000000000000e+01
-2.526845455169678178e+00 1.979795694351196012e-01 -6.791411638259887695e-01 1.400000000000000000e+01
-4.474142837524414062e+01 3.513369798660277876e+00 7.833687067031860352e-01 4.800000000000000000e+01
-2.923812866210937944e+00 2.301090657711029053e-01 -6.771026849746704102e-01 1.300000000000000000e+01
-4.498236083984375000e+01 3.548088312149047852e+00 2.364747762680054155e+00 3.500000000000000000e+01
-3.479857921600341797e+00 2.744818627834320068e-01 -6.785168051719665527e-01 1.200000000000000000e+01
-4.489391708374022727e+01 3.548996210098267046e+00 3.939962625503540039e+00 5.400000000000000000e+01
-4.304684162139892578e+00 3.410539627075194757e-01 -6.839314699172973633e-01 1.000000000000000000e+01
-4.489052200317382812e+01 3.564496040344237837e+00 5.529211997985839844e+00 3.800000000000000000e+01
-5.643640995025634766e+00 4.491200447082520086e-01 -6.951427459716796875e-01 1.000000000000000000e+01
-8.208479881286621094e+00 6.546712517738342285e-01 -7.204293608665466309e-01 3.000000000000000000e+00
-3.433778762817382812e+01 2.762753009796143022e+00 -6.013051867485046387e-01 2.000000000000000000e+01
-2.526138782501221147e+00 2.067987024784088135e-01 -6.791411638259887695e-01 1.400000000000000000e+01
-4.473287963867188211e+01 3.669852018356322798e+00 7.834385037422180176e-01 4.800000000000000000e+01
-2.919107437133789062e+00 2.399943172931670865e-01 -6.762028932571411133e-01 1.400000000000000000e+01
-3.474965333938599077e+00 2.863047420978546143e-01 -6.777535676956176758e-01 1.100000000000000000e+01
-4.488125610351563211e+01 3.705683708190917969e+00 3.939962625503540039e+00 5.400000000000000000e+01
-4.311341762542724609e+00 3.567295968532562256e-01 -6.851829290390014648e-01 1.000000000000000000e+01
-4.488967895507813211e+01 3.722155809402465820e+00 5.530674457550048828e+00 3.800000000000000000e+01
-5.653908729553222656e+00 4.698035717010498047e-01 -6.966051459312438965e-01 1.000000000000000000e+01
-8.186289787292480469e+00 6.816668510437011719e-01 -7.186862826347351074e-01 2.000000000000000000e+00
-3.431000137329102273e+01 2.881091356277465820e+00 -6.009910702705383301e-01 2.000000000000000000e+01
-2.511927604675292969e+00 2.144649177789688110e-01 -6.755176782608032227e-01 1.400000000000000000e+01
-4.470385742187500000e+01 3.824613094329833984e+00 7.831593155860900879e-01 4.800000000000000000e+01
-2.931843280792235884e+00 2.513476312160491943e-01 -6.793521642684936523e-01 1.500000000000000000e+01
-3.468076467514038086e+00 2.979287803173065186e-01 -6.766086816787719727e-01 1.100000000000000000e+01
-4.486804580688477273e+01 3.862325906753540039e+00 3.939962625503540039e+00 5.400000000000000000e+01
-4.306134223937988281e+00 3.714372813701630194e-01 -6.845571994781494141e-01 1.000000000000000000e+01
-4.486058807373046875e+01 3.877459764480590820e+00 5.528724670410156250e+00 3.800000000000000000e+01
-5.648278713226318359e+00 4.891939461231232245e-01 -6.961176991462707520e-01 1.000000000000000000e+01
-8.165995597839355469e+00 7.086878418922424316e-01 -7.171174287796020508e-01 2.000000000000000000e+00
-3.427383804321289062e+01 2.998572349548339844e+00 -6.005373001098632812e-01 1.900000000000000000e+01
-2.515012264251708984e+00 2.235739976167679111e-01 -6.765530109405517578e-01 1.400000000000000000e+01
-4.471015167236328125e+01 3.982409477233887163e+00 7.835083603858947754e-01 4.800000000000000000e+01
-2.917360782623291016e+00 2.603675127029418945e-01 -6.762028932571411133e-01 1.400000000000000000e+01
-3.476792812347412109e+00 3.109071552753447931e-01 -6.785168051719665527e-01 1.200000000000000000e+01
-4.485429000854492188e+01 4.018920898437500000e+00 3.939962625503540039e+00 5.400000000000000000e+01
-4.291038990020751953e+00 3.852298259735106867e-01 -6.823671460151672363e-01 9.000000000000000000e+00
-4.486259841918945312e+01 4.035451412200927734e+00 5.530674457550048828e+00 3.800000000000000000e+01
-5.646536827087402344e+00 5.089071393013000488e-01 -6.961176991462707520e-01 1.000000000000000000e+01
-8.161487579345703125e+00 7.370089888572692871e-01 -7.169431447982788086e-01 2.000000000000000000e+00
-1.536581420898438033e+01 1.392990708351135032e+00 -8.085905313491821289e-01 4.000000000000000000e+00
-3.430299377441406250e+01 3.121816873550415039e+00 -6.012353897094726562e-01 2.000000000000000000e+01
-2.525758504867554155e+00 2.334183156490325928e-01 -6.796588301658630371e-01 1.300000000000000000e+01
-4.475571441650391336e+01 4.143983840942382812e+00 7.845554947853088379e-01 4.800000000000000000e+01
-2.893149375915526900e+00 2.683893442153931219e-01 -6.708040237426757812e-01 1.300000000000000000e+01
-3.469821691513061968e+00 3.224964439868927002e-01 -6.773719191551208496e-01 1.000000000000000000e+01
-4.487966537475585938e+01 4.179162025451660156e+00 3.943448781967163086e+00 5.400000000000000000e+01
-4.295568943023681641e+00 4.007564783096312921e-01 -6.833057403564453125e-01 1.000000000000000000e+01
-4.487590789794921875e+01 4.194612979888916016e+00 5.534086704254150391e+00 3.800000000000000000e+01
-5.636820316314697266e+00 5.278738141059875488e-01 -6.951427459716796875e-01 1.200000000000000000e+01
-8.146963119506835938e+00 7.643766999244689941e-01 -7.158972620964050293e-01 2.000000000000000000e+00
-1.523359680175781072e+01 1.434633970260619895e+00 -8.018915057182312012e-01 4.000000000000000000e+00
-3.431378555297852273e+01 3.243607759475708008e+00 -6.016193628311157227e-01 2.000000000000000000e+01
-2.524928331375122070e+00 2.422334402799606046e-01 -6.796588301658630371e-01 1.400000000000000000e+01
-4.474893951416016336e+01 4.300950050354003906e+00 7.846950888633728027e-01 4.900000000000000000e+01
-2.901893615722655806e+00 2.794205844402313232e-01 -6.730535626411437988e-01 1.500000000000000000e+01
-3.466720819473267046e+00 3.344179093837738037e-01 -6.769903302192687988e-01 1.200000000000000000e+01
-4.482514190673828125e+01 4.331962585449218750e+00 3.939962625503540039e+00 5.400000000000000000e+01
-4.286279201507568359e+00 4.149869382381439209e-01 -6.820542812347412109e-01 1.000000000000000000e+01
-4.486099243164063211e+01 4.351233959197998047e+00 5.534086704254150391e+00 3.800000000000000000e+01
-5.615185260772705078e+00 5.456268787384033203e-01 -6.927053332328796387e-01 1.000000000000000000e+01
-8.138297080993652344e+00 7.922311425209045410e-01 -7.153743505477905273e-01 2.000000000000000000e+00
-3.429429244995117188e+01 3.362584829330443892e+00 -6.014797091484069824e-01 1.300000000000000000e+01
