6.052828788757324219e+00 -4.528094291687011719e+00 -6.613377928733825684e-01 6.000000000000000000e+00
2.037152051925659180e+00 -1.530649423599242942e+00 -6.827646493911743164e-01 1.900000000000000000e+01
2.355031251907349077e+00 -1.770779848098755105e+00 -6.802520155906677246e-01 1.100000000000000000e+01
2.784895420074462891e+00 -2.094761371612548828e+00 -6.773719191551208496e-01 1.100000000000000000e+01
3.421598672866820845e+00 -2.575551748275756836e+00 -6.782998442649841309e-01 1.000000000000000000e+01
4.452291011810302734e+00 -3.353823661804199219e+00 -6.844182610511779785e-01 1.400000000000000000e+01
5.943105697631835938e+00 -4.478451251983642578e+00 -6.510533690452575684e-01 7.000000000000000000e+00
2.032065153121947798e+00 -1.537396430969238059e+00 -6.827646493911743164e-01 1.700000000000000000e+01
2.352253437042235884e+00 -1.780932188034058061e+00 -6.811518073081970215e-01 1.100000000000000000e+01
2.781063556671143022e+00 -2.106355667114257812e+00 -6.781351566314697266e-01 1.100000000000000000e+01
3.419336318969727007e+00 -2.591656923294066939e+00 -6.795513033866882324e-01 1.000000000000000000e+01
4.444307804107666016e+00 -3.370968818664550781e+00 -6.849057078361511230e-01 1.000000000000000000e+01
5.955204486846923828e+00 -4.518608093261718750e+00 -6.540166735649108887e-01 7.000000000000000000e+00
2.032832384109497070e+00 -1.549164056777954102e+00 -6.848351955413818359e-01 1.700000000000000000e+01
2.346022605895996094e+00 -1.789132237434386985e+00 -6.811518073081970215e-01 1.100000000000000000e+01
2.767450571060181108e+00 -2.111287355422974077e+00 -6.766086816787719727e-01 1.100000000000000000e+01
3.424399852752685991e+00 -2.614365100860596147e+00 -6.823671460151672363e-01 1.000000000000000000e+01
4.443555831909179688e+00 -3.394897937774658203e+00 -6.866118907928466797e-01 1.000000000000000000e+01
5.914067268371582031e+00 -4.520010471343994141e+00 -6.512277126312255859e-01 7.000000000000000000e+00
2.011818408966064009e+00 -1.544838666915893999e+00 -6.796588301658630371e-01 1.600000000000000000e+01
2.350265741348267046e+00 -1.806030631065369096e+00 -6.843010783195495605e-01 1.300000000000000000e+01
2.764363288879394975e+00 -2.125005960464477983e+00 -6.777535676956176758e-01 1.200000000000000000e+01
3.406966209411621094e+00 -2.620876550674438032e+00 -6.808027625083923340e-01 1.000000000000000000e+01
4.438948154449462891e+00 -3.417216062545775923e+00 -6.878305673599243164e-01 1.200000000000000000e+01
5.878518104553222656e+00 -4.527068614959716797e+00 -6.491359472274780273e-01 7.000000000000000000e+00
2.012526273727416992e+00 -1.556579470634460005e+00 -6.817293763160705566e-01 1.500000000000000000e+01
2.336241960525513139e+00 -1.808259725570678933e+00 -6.820515990257263184e-01 1.100000000000000000e+01
2.763138055801392046e+00 -2.139450073242187944e+00 -6.792800426483154297e-01 1.200000000000000000e+01
3.394673824310303178e+00 -2.630333185195922852e+00 -6.801770329475402832e-01 1.000000000000000000e+01
4.433267593383789062e+00 -3.437555789947510210e+00 -6.888055205345153809e-01 1.200000000000000000e+01
5.898889064788818359e+00 -4.575647354125976562e+00 -6.531451344490051270e-01 6.000000000000000000e+00
2.014974117279053178e+00 -1.569179534912108931e+00 -6.843175292015075684e-01 1.500000000000000000e+01
2.327158451080321822e+00 -1.813601255416869895e+00 -6.811518073081970215e-01 1.100000000000000000e+01
2.760673284530640093e+00 -2.152222394943236861e+00 -6.804248690605163574e-01 1.100000000000000000e+01
3.384375095367432085e+00 -2.640360832214355025e+00 -6.798641681671142578e-01 1.000000000000000000e+01
4.412455558776854581e+00 -3.444908380508422852e+00 -6.873431205749511719e-01 1.200000000000000000e+01
5.904096126556395596e+00 -4.611126422882080078e+00 -6.554111838340759277e-01 6.000000000000000000e+00
2.007964372634888139e+00 -1.575011253356934038e+00 -6.837999224662780762e-01 1.400000000000000000e+01
2.316215038299560991e+00 -1.818103790283202903e+00 -6.798020601272583008e-01 1.200000000000000000e+01
2.748511314392089844e+00 -2.158208370208739790e+00 -6.792800426483154297e-01 1.100000000000000000e+01
3.379797697067261186e+00 -2.655819892883300781e+00 -6.808027625083923340e-01 1.000000000000000000e+01
4.401964187622070312e+00 -3.461516857147216797e+00 -6.875868439674377441e-01 1.200000000000000000e+01
5.707880496978759766e+00 -4.490046024322509766e+00 -6.353653669357299805e-01 1.200000000000000000e+01
2.003970384597777876e+00 -1.583208322525023970e+00 -6.843175292015075684e-01 1.400000000000000000e+01
2.320555448532104048e+00 -1.834637880325316939e+00 -6.829513907432556152e-01 1.100000000000000000e+01
2.739421129226685014e+00 -2.166571617126464844e+00 -6.788983941078186035e-01 1.100000000000000000e+01
3.382898092269897017e+00 -2.677408695220946822e+00 -6.833057403564453125e-01 1.000000000000000000e+01
4.400747299194335938e+00 -3.485488891601562944e+00 -6.892930269241333008e-01 1.200000000000000000e+01
5.776500701904296875e+00 -4.576756954193115234e+00 -6.447781920433044434e-01 1.300000000000000000e+01
1.986338257789612038e+00 -1.580570936203002930e+00 -6.801764369010925293e-01 1.400000000000000000e+01
2.321759462356566939e+00 -1.848796606063842995e+00 -6.852009296417236328e-01 1.300000000000000000e+01
2.731841802597045898e+00 -2.176120758056641069e+00 -6.788983941078186035e-01 1.100000000000000000e+01
3.373531579971313032e+00 -2.689200878143310991e+00 -6.833057403564453125e-01 1.000000000000000000e+01
4.391657829284667969e+00 -3.503304958343505859e+00 -6.897804737091064453e-01 1.200000000000000000e+01
5.830568790435791016e+00 -4.652815818786621094e+00 -6.526222229003906250e-01 6.000000000000000000e+00
1.985608935356139915e+00 -1.590772747993469016e+00 -6.817293763160705566e-01 1.300000000000000000e+01
2.308013677597045898e+00 -1.850390791893004927e+00 -6.829513907432556152e-01 1.200000000000000000e+01
2.726141929626464844e+00 -2.186396121978760210e+00 -6.792800426483154297e-01 1.100000000000000000e+01
3.355351924896239790e+00 -2.692954540252685991e+00 -6.814285516738891602e-01 1.100000000000000000e+01
4.386207103729248047e+00 -3.522821187973022017e+00 -6.907554268836975098e-01 1.200000000000000000e+01
5.804234981536865234e+00 -4.663390159606933594e+00 -6.514019966125488281e-01 7.000000000000000000e+00
1.989064812660217063e+00 -1.604972958564758079e+00 -6.848351955413818359e-01 1.500000000000000000e+01
2.306089162826538086e+00 -1.862108826637268066e+00 -6.843010783195495605e-01 1.200000000000000000e+01
2.733765840530395952e+00 -2.208235263824462891e+00 -6.830962300300598145e-01 1.100000000000000000e+01
3.350539922714232954e+00 -2.708375930786132812e+00 -6.823671460151672363e-01 1.100000000000000000e+01
4.376969814300537109e+00 -3.540607452392578125e+00 -6.912429332733154297e-01 1.200000000000000000e+01
5.826642036437988281e+00 -4.714954853057861328e+00 -6.557598114013671875e-01 8.000000000000000000e+00
1.987947821617126021e+00 -1.615561366081238015e+00 -6.863881349563598633e-01 1.400000000000000000e+01
2.296551227569580078e+00 -1.867688059806823953e+00 -6.834012866020202637e-01 1.300000000000000000e+01
2.722995281219481978e+00 -2.215286493301392046e+00 -6.823329925537109375e-01 1.100000000000000000e+01
3.342597484588623047e+00 -2.721302270889281782e+00 -6.826800107955932617e-01 1.000000000000000000e+01
4.349194526672363281e+00 -3.543325901031494141e+00 -6.888055205345153809e-01 1.200000000000000000e+01
5.791615009307861328e+00 -4.720160484313964844e+00 -6.536680459976196289e-01 6.000000000000000000e+00
1.977811574935913086e+00 -1.618819952011107954e+00 -6.848351955413818359e-01 1.500000000000000000e+01
2.297555685043334961e+00 -1.881867289543152078e+00 -6.856508255004882812e-01 1.300000000000000000e+01
2.701578617095946822e+00 -2.213579654693603960e+00 -6.788983941078186035e-01 1.100000000000000000e+01
3.342243194580078125e+00 -2.740468502044678178e+00 -6.845571994781494141e-01 1.000000000000000000e+01
4.358283996582031250e+00 -3.576114654541016069e+00 -6.922178864479064941e-01 1.400000000000000000e+01
5.821303844451904297e+00 -4.778271198272705078e+00 -6.588973999023437500e-01 7.000000000000000000e+00
1.964978098869323953e+00 -1.619227051734924094e+00 -6.822469830513000488e-01 1.300000000000000000e+01
2.289799213409423828e+00 -1.888236045837401900e+00 -6.852009296417236328e-01 1.300000000000000000e+01
2.703310012817382812e+00 -2.230021953582764116e+00 -6.811881065368652344e-01 1.100000000000000000e+01
3.327043771743773970e+00 -2.746506452560424805e+00 -6.833057403564453125e-01 1.100000000000000000e+01
4.349462032318115234e+00 -3.593076229095458984e+00 -6.927053332328796387e-01 1.200000000000000000e+01
5.842286586761474609e+00 -4.828009605407714844e+00 -6.630808711051940918e-01 7.000000000000000000e+00
1.972693204879760964e+00 -1.637179970741271973e+00 -6.869057416915893555e-01 1.400000000000000000e+01
2.280195713043212891e+00 -1.893727302551269975e+00 -6.843010783195495605e-01 1.300000000000000000e+01
2.697019338607788086e+00 -2.240699291229248047e+00 -6.815697550773620605e-01 1.000000000000000000e+01
3.314398288726807085e+00 -2.755577564239501953e+00 -6.826800107955932617e-01 1.100000000000000000e+01
4.339945316314697266e+00 -3.610775947570800781e+00 -6.931928396224975586e-01 1.200000000000000000e+01
5.780987739562988281e+00 -4.811411380767822266e+00 -6.580258607864379883e-01 7.000000000000000000e+00
6.409921050071716309e-01 -5.344336628913879395e-01 2.236196547746658048e-01 4.000000000000000000e+00
1.974665641784667969e+00 -1.649905920028686968e+00 -6.894939541816711426e-01 1.300000000000000000e+01
2.273903369903564009e+00 -1.901278376579284890e+00 -6.843010783195495605e-01 1.300000000000000000e+01
2.692585945129394975e+00 -2.252149820327758789e+00 -6.823329925537109375e-01 1.100000000000000000e+01
3.314331054687500000e+00 -2.774160623550415039e+00 -6.845571994781494141e-01 1.100000000000000000e+01
4.340121746063232422e+00 -3.635345220565795898e+00 -6.951427459716796875e-01 1.200000000000000000e+01
5.703914642333984375e+00 -4.779370784759520596e+00 -6.510533690452575684e-01 7.000000000000000000e+00
6.111921668052673340e-01 -5.128511190414428711e-01 2.137845307588576993e-01 1.500000000000000000e+01
1.970372557640075906e+00 -1.658032536506653054e+00 -6.900115609169006348e-01 1.500000000000000000e+01
2.265762090682982954e+00 -1.907948970794677956e+00 -6.838511824607849121e-01 1.100000000000000000e+01
2.684708118438721147e+00 -2.261534929275513139e+00 -6.823329925537109375e-01 1.000000000000000000e+01
3.309158086776732954e+00 -2.789532423019409180e+00 -6.854958534240722656e-01 1.100000000000000000e+01
2.855870819091796875e+01 -2.408276176452637074e+01 4.586918354034423828e+00 1.900000000000000000e+01
4.321336269378662109e+00 -3.645353078842163086e+00 -6.941677927970886230e-01 1.200000000000000000e+01
5.717650413513183594e+00 -4.824951171875000000e+00 -6.545396447181701660e-01 9.000000000000000000e+00
6.152096986770629883e-01 -5.200765728950500488e-01 2.158550769090651911e-01 5.000000000000000000e+01
1.958677768707274947e+00 -1.659904479980468972e+00 -6.879410147666931152e-01 1.500000000000000000e+01
2.266519546508789062e+00 -1.922148466110229048e+00 -6.861007213592529297e-01 1.300000000000000000e+01
2.675300359725952148e+00 -2.269622564315795898e+00 -6.819513440132141113e-01 9.000000000000000000e+00
3.303918361663817915e+00 -2.804902076721190962e+00 -6.864344477653503418e-01 1.100000000000000000e+01
2.844420814514160156e+01 -2.415660285949707031e+01 4.582043647766113281e+00 1.900000000000000000e+01
4.308585643768311435e+00 -3.660415172576903853e+00 -6.941677927970886230e-01 1.200000000000000000e+01
5.523146152496337891e+00 -4.693921089172363281e+00 -6.341452002525329590e-01 6.000000000000000000e+00
6.105393171310424805e-01 -5.196096897125244141e-01 2.148198038339614868e-01 1.000000000000000000e+02
1.944055080413817915e+00 -1.659206628799438032e+00 -6.848351955413818359e-01 1.400000000000000000e+01
2.265723705291748047e+00 -1.935110807418823020e+00 -6.879003047943115234e-01 1.200000000000000000e+01
2.670346975326538086e+00 -2.281497955322266069e+00 -6.827145814895629883e-01 1.100000000000000000e+01
3.295608758926392046e+00 -2.817701339721680132e+00 -6.867473125457763672e-01 1.000000000000000000e+01
4.313882350921630859e+00 -3.690918922424315962e+00 -6.970926523208618164e-01 1.200000000000000000e+01
5.455262660980224609e+00 -4.669123172760009766e+00 -6.282185912132263184e-01 6.000000000000000000e+00
5.969874262809753418e-01 -5.116800665855407715e-01 2.106786966323853094e-01 3.800000000000000000e+01
1.942646622657776101e+00 -1.669760227203368919e+00 -6.863881349563598633e-01 1.300000000000000000e+01
2.256000280380249023e+00 -1.940466284751892090e+00 -6.870005130767822266e-01 1.300000000000000000e+01
2.665343046188354048e+00 -2.293366193771361861e+00 -6.834778189659118652e-01 1.100000000000000000e+01
3.279765367507935014e+00 -2.824032306671143022e+00 -6.854958534240722656e-01 1.000000000000000000e+01
4.309995174407958984e+00 -3.713729381561278853e+00 -6.985550522804260254e-01 1.200000000000000000e+01
5.460059165954589844e+00 -4.706348896026611328e+00 -6.306589841842651367e-01 6.000000000000000000e+00
5.995848774909973145e-01 -5.175477862358093262e-01 2.122316211462020874e-01 4.500000000000000000e+01
1.936806201934814009e+00 -1.676531195640563965e+00 -6.863881349563598633e-01 1.400000000000000000e+01
2.244794130325316939e+00 -1.944501638412476030e+00 -6.856508255004882812e-01 1.100000000000000000e+01
2.667707443237305132e+00 -2.311655759811400923e+00 -6.861491203308105469e-01 1.000000000000000000e+01
3.272872447967528853e+00 -2.838052034378052202e+00 -6.861215829849243164e-01 1.000000000000000000e+01
4.282012462615966797e+00 -3.715741157531737837e+00 -6.961176991462707520e-01 1.200000000000000000e+01
5.530863761901854581e+00 -4.801131725311279297e+00 -6.407690048217773438e-01 7.000000000000000000e+00
6.005994677543640137e-01 -5.222772359848022461e-01 2.132668942213057917e-01 3.900000000000000000e+01
1.937061786651611106e+00 -1.688021421432494895e+00 -6.884586811065673828e-01 1.600000000000000000e+01
2.236864805221558061e+00 -1.950654149055480957e+00 -6.852009296417236328e-01 1.300000000000000000e+01
2.654109239578247070e+00 -2.315327167510985884e+00 -6.846227049827575684e-01 1.100000000000000000e+01
3.266419410705565962e+00 -2.851487874984741211e+00 -6.867473125457763672e-01 1.000000000000000000e+01
4.275647163391113281e+00 -3.735144376754761186e+00 -6.970926523208618164e-01 1.200000000000000000e+01
5.633431911468505859e+00 -4.923019886016845703e+00 -6.545396447181701660e-01 9.000000000000000000e+00
5.916868448257446289e-01 -5.178002715110778809e-01 2.106786966323853094e-01 1.000000000000000000e+02
1.929705739021301047e+00 -1.693498492240905984e+00 -6.879410147666931152e-01 1.600000000000000000e+01
2.240291833877563032e+00 -1.967451810836791992e+00 -6.883502006530761719e-01 1.400000000000000000e+01
2.644536256790161133e+00 -2.323281764984130859e+00 -6.842410564422607422e-01 1.100000000000000000e+01
3.265347480773925781e+00 -2.870697975158690962e+00 -6.886245012283325195e-01 1.000000000000000000e+01
4.262582778930664062e+00 -3.750046491622924805e+00 -6.970926523208618164e-01 1.200000000000000000e+01
5.619204521179199219e+00 -4.945286750793457031e+00 -6.548882722854614258e-01 9.000000000000000000e+00
5.710345506668090820e-01 -5.032575726509094238e-01 2.039494067430495938e-01 1.000000000000000000e+02
1.917992353439331055e+00 -1.695106744766234907e+00 -6.858704686164855957e-01 1.500000000000000000e+01
2.231950759887694868e+00 -1.973968863487244096e+00 -6.879003047943115234e-01 1.300000000000000000e+01
2.633469581604003906e+00 -2.329896926879882812e+00 -6.834778189659118652e-01 1.100000000000000000e+01
3.258265018463135210e+00 -2.884697437286376953e+00 -6.892502307891845703e-01 1.000000000000000000e+01
4.273240089416503906e+00 -3.785965204238892046e+00 -7.009924650192260742e-01 1.300000000000000000e+01
5.569104671478270596e+00 -4.935798168182373047e+00 -6.510533690452575684e-01 7.000000000000000000e+00
6.005788445472717285e-01 -5.328440666198730469e-01 1.853596717119216919e-01 1.500000000000000000e+01
5.606052279472351074e-01 -4.975536465644835871e-01 2.008435726165770929e-01 1.000000000000000000e+02
1.917835950851439986e+00 -1.706928968429564986e+00 -6.879410147666931152e-01 1.400000000000000000e+01
2.223591566085814986e+00 -1.980451703071594016e+00 -6.874504089355468750e-01 1.300000000000000000e+01
2.637047290802001953e+00 -2.349523544311522993e+00 -6.865307688713073730e-01 1.100000000000000000e+01
3.233431339263916016e+00 -2.882907390594481978e+00 -6.861215829849243164e-01 1.000000000000000000e+01
2.822910690307616832e+01 -2.517774391174316051e+01 4.644440650939941406e+00 1.900000000000000000e+01
4.271848201751708984e+00 -3.811431169509888139e+00 -7.029423713684082031e-01 1.300000000000000000e+01
5.542922973632813388e+00 -4.947247982025145596e+00 -6.500075459480285645e-01 1.000000000000000000e+01
5.681982040405273438e-01 -5.076710581779479980e-01 1.759117245674133023e-01 4.800000000000000000e+01
5.616581439971923828e-01 -5.021803379058837891e-01 2.018788605928421021e-01 1.000000000000000000e+02
1.914743065834044966e+00 -1.716191887855530007e+00 -6.889762878417968750e-01 1.400000000000000000e+01
2.206510066986083984e+00 -1.979093194007873979e+00 -6.843010783195495605e-01 1.300000000000000000e+01
2.628829956054687944e+00 -2.358714103698730025e+00 -6.865307688713073730e-01 1.100000000000000000e+01
3.235106945037841797e+00 -2.904734611511230025e+00 -6.886245012283325195e-01 1.000000000000000000e+01
4.259994506835938388e+00 -3.827646255493164062e+00 -7.031860947608947754e-01 1.300000000000000000e+01
5.519692897796630859e+00 -4.961238384246826172e+00 -6.493102908134460449e-01 9.000000000000000000e+00
5.956388115882873535e-01 -5.355631113052368164e-01 1.557001471519469937e-01 9.000000000000000000e+00
5.374495983123779297e-01 -4.835821986198424738e-01 1.669136881828308105e-01 4.800000000000000000e+01
5.642973780632019043e-01 -5.079173445701599121e-01 2.034317702054976862e-01 1.000000000000000000e+02
1.915911078453063965e+00 -1.729337215423583984e+00 -6.915645003318786621e-01 1.500000000000000000e+01
2.206819057464600053e+00 -1.993314385414123979e+00 -6.865506172180175781e-01 1.300000000000000000e+01
2.622037172317504883e+00 -2.369192361831665039e+00 -6.869123578071594238e-01 1.100000000000000000e+01
3.227878332138061968e+00 -2.918659210205078125e+00 -6.892502307891845703e-01 1.000000000000000000e+01
4.234831809997558594e+00 -3.831837892532349077e+00 -7.012361884117126465e-01 1.300000000000000000e+01
5.496432781219482422e+00 -4.975127696990966797e+00 -6.486130356788635254e-01 1.800000000000000000e+01
5.355533957481384277e-01 -4.849293231964110773e-01 1.404354274272918979e-01 1.200000000000000000e+01
5.140969157218933105e-01 -4.658277332782744806e-01 1.601651459932326993e-01 6.100000000000000000e+01
3.748789596557617188e+01 -3.398003005981445312e+01 -8.831616044044494629e-01 1.300000000000000000e+01
5.610896348953247070e-01 -5.085865855216979980e-01 2.029141336679458896e-01 8.500000000000000000e+01
1.905272006988524947e+00 -1.732448816299438032e+00 -6.900115609169006348e-01 1.600000000000000000e+01
2.205263614654541016e+00 -2.006635427474976030e+00 -6.883502006530761719e-01 1.400000000000000000e+01
2.607528686523437944e+00 -2.373500585556029829e+00 -6.853858828544616699e-01 1.100000000000000000e+01
3.225921392440795898e+00 -2.938451766967772993e+00 -6.911274790763854980e-01 1.000000000000000000e+01
4.235429763793945312e+00 -3.860706329345703125e+00 -7.036736011505126953e-01 1.100000000000000000e+01
5.472271919250488281e+00 -4.989869594573974609e+00 -6.479157805442810059e-01 1.600000000000000000e+01
5.265201330184936523e-01 -4.802736341953278143e-01 1.385273337364197055e-01 2.500000000000000000e+01
5.181432962417602539e-01 -4.729640185832976740e-01 1.619647592306137085e-01 5.900000000000000000e+01
5.477218031883239746e-01 -5.003140568733215332e-01 1.987730264663696012e-01 6.600000000000000000e+01
1.892089128494262917e+00 -1.732565641403198020e+00 -6.874234080314636230e-01 1.500000000000000000e+01
2.206866264343262163e+00 -2.022220373153686968e+00 -6.910496354103088379e-01 1.400000000000000000e+01
2.603569269180297852e+00 -2.386567831039429155e+00 -6.865307688713073730e-01 1.100000000000000000e+01
3.209821701049805132e+00 -2.944353103637694868e+00 -6.898760199546813965e-01 1.000000000000000000e+01
4.221927642822265625e+00 -3.875467300415039062e+00 -7.036736011505126953e-01 1.100000000000000000e+01
5.437210559844970703e+00 -4.992770195007324219e+00 -6.458240747451782227e-01 1.400000000000000000e+01
5.219487547874450684e-01 -4.794523417949677069e-01 1.377640962600708008e-01 3.800000000000000000e+01
5.179238319396972656e-01 -4.760886132717133123e-01 1.624146550893784124e-01 5.100000000000000000e+01
5.203796029090881348e-01 -4.786812067031859796e-01 1.894555389881134033e-01 6.000000000000000000e+01
1.893435478210448997e+00 -1.745377302169800027e+00 -6.900115609169006348e-01 1.600000000000000000e+01
2.197283506393433061e+00 -2.026885032653809038e+00 -6.901498436927795410e-01 1.300000000000000000e+01
2.602854967117310014e+00 -2.401845455169678178e+00 -6.884388327598571777e-01 1.000000000000000000e+01
3.201491594314575195e+00 -2.956321239471435991e+00 -6.901888847351074219e-01 1.000000000000000000e+01
4.211968898773193359e+00 -3.892140865325928178e+00 -7.041610479354858398e-01 1.100000000000000000e+01
5.470367908477783203e+00 -5.056756019592285156e+00 -6.517506241798400879e-01 1.000000000000000000e+01
5.131488442420959473e-01 -4.745160043239594061e-01 1.358560025691986084e-01 3.900000000000000000e+01
5.163422226905822754e-01 -4.778034687042235773e-01 1.624146550893784124e-01 5.100000000000000000e+01
5.117020606994628906e-01 -4.738413095474243164e-01 1.868673563003540039e-01 6.100000000000000000e+01
1.887331485748291016e+00 -1.751976013183593972e+00 -6.900115609169006348e-01 1.600000000000000000e+01
2.178772926330565962e+00 -2.023932218551636186e+00 -6.865506172180175781e-01 1.300000000000000000e+01
2.597331523895264116e+00 -2.413589477539062944e+00 -6.892020702362060547e-01 9.000000000000000000e+00
3.188259363174438032e+00 -2.964788198471068892e+00 -6.895630955696105957e-01 9.000000000000000000e+00
4.207076549530029297e+00 -3.914933443069458008e+00 -7.056235074996948242e-01 1.100000000000000000e+01
5.518307685852050781e+00 -5.136909484863281250e+00 -6.595946550369262695e-01 7.000000000000000000e+00
5.100525617599487305e-01 -4.749664068222045898e-01 1.354743838310241977e-01 4.000000000000000000e+01
5.089685320854187012e-01 -4.742887914180756170e-01 1.606150567531585971e-01 5.200000000000000000e+01
4.959162771701812744e-01 -4.624494016170502264e-01 1.816909760236740112e-01 6.500000000000000000e+01
1.889672040939331055e+00 -1.766468763351439986e+00 -6.931173801422119141e-01 1.500000000000000000e+01
2.181656599044799805e+00 -2.040843963623046875e+00 -6.896999478340148926e-01 1.300000000000000000e+01
2.586023569107056108e+00 -2.419958114624022993e+00 -6.884388327598571777e-01 1.000000000000000000e+01
2.590372467041015980e+01 -2.424875831604003906e+01 3.104313135147095171e+00 4.200000000000000000e+01
3.179332733154296875e+00 -2.977249383926392046e+00 -6.898760199546813965e-01 1.000000000000000000e+01
4.184694290161132812e+00 -3.921450853347777876e+00 -7.041610479354858398e-01 1.100000000000000000e+01
5.491744875907897949e-01 -5.146279931068420410e-01 1.192030608654021939e-01 8.000000000000000000e+00
5.455282211303710938e+00 -5.113899230957031250e+00 -6.541910171508789062e-01 1.200000000000000000e+01
5.012310743331909180e-01 -4.700292348861693781e-01 1.335662901401520053e-01 4.100000000000000000e+01
5.058888196945190430e-01 -4.747290015220642090e-01 1.601651459932326993e-01 6.100000000000000000e+01
5.014224648475646973e-01 -4.707023501396179199e-01 1.842791587114334106e-01 6.300000000000000000e+01
1.879274368286133035e+00 -1.769081711769104004e+00 -6.915645003318786621e-01 1.600000000000000000e+01
2.173100948333739790e+00 -2.047110795974731001e+00 -6.892500519752502441e-01 1.400000000000000000e+01
2.574702978134154829e+00 -2.426277399063109907e+00 -6.876755952835083008e-01 1.000000000000000000e+01
2.581892204284667969e+01 -2.433903121948241832e+01 3.104313135147095171e+00 4.200000000000000000e+01
3.183292388916016069e+00 -3.001881599426269975e+00 -6.930046677589416504e-01 1.000000000000000000e+01
2.623861694335937855e+01 -2.475197219848633168e+01 4.428975582122802734e+00 1.800000000000000000e+01
4.173867702484130859e+00 -3.938759088516234907e+00 -7.046485543251037598e-01 1.100000000000000000e+01
5.014010667800903320e-01 -4.731577634811400812e-01 1.091912537813187062e-01 1.000000000000000000e+01
5.437397956848145419e+00 -5.132910728454589844e+00 -6.541910171508789062e-01 9.000000000000000000e+00
4.867407679557799738e-01 -4.596445858478546143e-01 1.301317363977431973e-01 5.800000000000000000e+01
5.013958811759948730e-01 -4.738150835037230890e-01 1.592653393745422086e-01 6.800000000000000000e+01
5.067120194435119629e-01 -4.791737496852874756e-01 1.868673563003540039e-01 6.800000000000000000e+01
1.864984154701232910e+00 -1.767331004142761008e+00 -6.884586811065673828e-01 1.600000000000000000e+01
2.181854963302611861e+00 -2.069056034088135210e+00 -6.941989660263061523e-01 1.500000000000000000e+01
2.565218687057495117e+00 -2.433450937271118164e+00 -6.872940063476562500e-01 1.000000000000000000e+01
3.170454978942871094e+00 -3.009701251983643022e+00 -6.923789381980895996e-01 1.000000000000000000e+01
4.178053855895996094e+00 -3.968984842300415039e+00 -7.075734138488769531e-01 1.100000000000000000e+01
5.127187967300415039e-01 -4.870624542236328125e-01 1.120070740580559054e-01 2.000000000000000000e+01
5.417458057403563565e+00 -5.148168563842773438e+00 -6.538423895835876465e-01 7.000000000000000000e+00
4.823680222034453791e-01 -4.585508406162261963e-01 1.293684989213942926e-01 7.300000000000000000e+01
4.969980418682097834e-01 -4.727888703346251886e-01 1.583655476570129117e-01 6.200000000000000000e+01
4.884106814861298163e-01 -4.647822380065917969e-01 1.806556880474091131e-01 7.400000000000000000e+01
1.860201239585876021e+00 -1.775163888931273970e+00 -6.889762878417968750e-01 1.600000000000000000e+01
2.164753913879394975e+00 -2.067238569259643999e+00 -6.910496354103088379e-01 1.600000000000000000e+01
2.563806772232056108e+00 -2.449171066284180132e+00 -6.892020702362060547e-01 1.100000000000000000e+01
3.155646324157714844e+00 -3.016654968261719194e+00 -6.914403438568115234e-01 9.000000000000000000e+00
2.699919891357421875e+01 -2.581903266906737926e+01 4.586918354034423828e+00 1.900000000000000000e+01
4.168477535247802734e+00 -3.987661600112915039e+00 -7.083046436309814453e-01 1.100000000000000000e+01
5.009399652481079102e-01 -4.793781340122222900e-01 1.098169907927512984e-01 6.200000000000000000e+01
5.428244113922119141e+00 -5.194598197937011719e+00 -6.573286056518554688e-01 6.000000000000000000e+00
4.722553491592407227e-01 -4.520861506462097168e-01 1.270787864923476895e-01 7.500000000000000000e+01
4.981591105461121161e-01 -4.772169589996337891e-01 1.592653393745422086e-01 8.300000000000000000e+01
4.978604316711425781e-01 -4.772642254829406738e-01 1.847967952489852905e-01 7.000000000000000000e+01
1.863743901252747026e+00 -1.791016459465027078e+00 -6.925997734069824219e-01 1.600000000000000000e+01
2.150501489639281782e+00 -2.068028450012207031e+00 -6.888001561164855957e-01 1.800000000000000000e+01
2.562316417694091797e+00 -2.464910984039307085e+00 -6.911101937294006348e-01 1.200000000000000000e+01
3.152212619781494141e+00 -3.034501791000366211e+00 -6.930046677589416504e-01 1.000000000000000000e+01
4.147384166717529297e+00 -3.995301723480225053e+00 -7.070859074592590332e-01 1.100000000000000000e+01
5.064607262611389160e-01 -4.878890514373778742e-01 1.113813370466232022e-01 6.000000000000000000e+01
5.427294254302979404e+00 -5.230104923248291016e+00 -6.594203710556030273e-01 7.000000000000000000e+00
4.791550040245056152e-01 -4.619072079658507746e-01 1.293684989213942926e-01 7.300000000000000000e+01
4.880751967430114746e-01 -4.708351194858551025e-01 1.565659344196320135e-01 7.800000000000000000e+01
4.907145202159882147e-01 -4.735465943813323975e-01 1.827262490987777988e-01 6.500000000000000000e+01
1.868586778640747070e+00 -1.808258652687072976e+00 -6.967408657073974609e-01 1.500000000000000000e+01
2.144669532775878906e+00 -2.076878070831298828e+00 -6.892500519752502441e-01 2.000000000000000000e+01
2.555106639862060991e+00 -2.475206136703491211e+00 -6.914917826652526855e-01 1.100000000000000000e+01
3.145855903625487837e+00 -3.049611330032349077e+00 -6.939432621002197266e-01 9.000000000000000000e+00
4.131988048553466797e+00 -4.008372306823729581e+00 -7.068421840667724609e-01 9.000000000000000000e+00
4.919106364250183105e-01 -4.773609340190886896e-01 1.085655167698860030e-01 6.300000000000000000e+01
5.380408287048339844e+00 -5.221267223358154297e+00 -6.559340953826904297e-01 9.000000000000000000e+00
4.803570806980133057e-01 -4.663119316101074219e-01 1.301317363977431973e-01 5.800000000000000000e+01
4.836331307888031006e-01 -4.698202311992645264e-01 1.556661278009414950e-01 8.800000000000000000e+01
4.903607964515686035e-01 -4.766885340213776190e-01 1.832438856363297064e-01 7.200000000000000000e+01
1.846730113029479980e+00 -1.800261616706847922e+00 -6.910468339920043945e-01 1.000000000000000000e+01
2.138437986373900923e+00 -2.086085557937622070e+00 -6.896999478340148926e-01 1.800000000000000000e+01
2.540397167205810991e+00 -2.479069709777832031e+00 -6.899653077125549316e-01 1.100000000000000000e+01
3.141723871231079102e+00 -3.068021535873413086e+00 -6.955076456069946289e-01 1.100000000000000000e+01
4.128626823425292969e+00 -4.034589290618895596e+00 -7.087920904159545898e-01 5.000000000000000000e+00
4.987181127071381170e-01 -4.873588383197783869e-01 1.104427352547645985e-01 6.100000000000000000e+01
5.284300327301025391e+00 -5.165743350982666016e+00 -6.465212702751159668e-01 1.200000000000000000e+01
4.870666265487670898e-01 -4.763052165508270264e-01 1.324214488267899115e-01 5.600000000000000000e+01
4.819079041481018066e-01 -4.715896844863892157e-01 1.556661278009414950e-01 8.000000000000000000e+01
2.787638282775878906e+01 -2.728904151916503906e+01 -6.809231042861938477e-01 9.000000000000000000e+00
4.873133599758148193e-01 -4.770459234714508057e-01 1.827262490987777988e-01 7.300000000000000000e+01
1.825270175933837891e+00 -1.791810393333435059e+00 -6.853528022766113281e-01 1.000000000000000000e+00
2.140874385833739790e+00 -2.103096961975098100e+00 -6.928492188453674316e-01 1.600000000000000000e+01
2.534528732299805132e+00 -2.490674257278441939e+00 -6.907285451889038086e-01 1.100000000000000000e+01
3.133812189102172852e+00 -3.081739664077758789e+00 -6.961333751678466797e-01 1.100000000000000000e+01
4.178188800811767578e+00 -4.111632347106933594e+00 -7.197603583335876465e-01 1.000000000000000000e+00
4.842589497566223145e-01 -4.767113626003264826e-01 1.076269149780273021e-01 6.500000000000000000e+01
5.283274650573729581e+00 -5.200930118560791016e+00 -6.486130356788635254e-01 7.000000000000000000e+00
4.798056483268737793e-01 -4.724923670291901190e-01 1.308949738740921021e-01 7.100000000000000000e+01
4.816468656063079834e-01 -4.746367931365966797e-01 1.561160385608673096e-01 7.200000000000000000e+01
2.759582710266112926e+01 -2.720368385314941051e+01 -6.763854622840881348e-01 8.000000000000000000e+00
4.773084521293640137e-01 -4.706900715827941895e-01 1.796204149723052979e-01 6.700000000000000000e+01
2.121417760848999023e+00 -2.097852468490601030e+00 -6.888001561164855957e-01 6.000000000000000000e+00
2.741819000244140980e+01 -2.712308883666991832e+01 2.021214723587036133e+00 2.200000000000000000e+01
2.533233880996704102e+00 -2.505969047546387163e+00 -6.926366686820983887e-01 1.100000000000000000e+01
3.112344741821289062e+00 -3.080997228622436968e+00 -6.936303973197937012e-01 1.000000000000000000e+01
2.682658576965332031e+01 -2.656566047668457031e+01 4.635665893554688388e+00 1.900000000000000000e+01
4.813555777072905939e-01 -4.768401384353638250e-01 1.073140427470206937e-01 6.500000000000000000e+01
5.309870243072509766e+00 -5.261896610260009766e+00 -6.540166735649108887e-01 3.000000000000000000e+00
4.670819640159606934e-01 -4.630236029624938965e-01 1.278420239686965942e-01 8.900000000000000000e+01
4.869876801967620850e-01 -4.830935001373291016e-01 1.583655476570129117e-01 6.200000000000000000e+01
4.771986603736876886e-01 -4.735480248928070068e-01 1.801380515098572055e-01 7.400000000000000000e+01
2.516125679016112837e+00 -2.506482839584351030e+00 -6.903469562530517578e-01 7.000000000000000000e+00
3.104369163513184038e+00 -3.094631671905518022e+00 -6.942561268806457520e-01 7.000000000000000000e+00
4.824011623859406073e-01 -4.813918769359589178e-01 1.079397797584533969e-01 6.400000000000000000e+01
4.543473422527313232e-01 -4.535550475120543878e-01 1.247890815138816972e-01 9.300000000000000000e+01
4.880557954311370850e-01 -4.875449538230895996e-01 1.592653393745422086e-01 6.100000000000000000e+01
4.822911322116851807e-01 -4.821228086948394775e-01 1.827262490987777988e-01 7.300000000000000000e+01
6.877554655075073242e-01 -6.891974210739135742e-01 -2.608895897865294855e-01 1.000000000000000000e+00
3.142342090606689009e+00 -3.154430866241455078e+00 -7.052065730094909668e-01 1.000000000000000000e+00
4.780148863792418878e-01 -4.801889955997467041e-01 1.073140427470206937e-01 6.500000000000000000e+01
4.666072726249694824e-01 -4.690568447113037109e-01 1.286052614450454989e-01 1.000000000000000000e+02
4.863509535789489746e-01 -4.892456233501433771e-01 1.592653393745422086e-01 6.100000000000000000e+01
4.725193381309509277e-01 -4.754976332187653143e-01 1.796204149723052979e-01 7.500000000000000000e+01
6.445511579513549805e-01 -6.504275798797607422e-01 -2.453604489564895907e-01 9.000000000000000000e+00
4.749470651149749756e-01 -4.804498255252838135e-01 1.070011705160140991e-01 6.600000000000000000e+01
4.677265882492064875e-01 -4.734761118888854980e-01 1.293684989213942926e-01 1.000000000000000000e+02
4.736878871917725164e-01 -4.798456430435181219e-01 1.556661278009414950e-01 6.400000000000000000e+01
4.694997072219849188e-01 -4.757690727710723877e-01 1.791027784347533902e-01 6.700000000000000000e+01
6.369696855545043945e-01 -6.470546126365661621e-01 -2.432899028062819879e-01 4.700000000000000000e+01
7.010748386383056641e-01 -7.126721143722534180e-01 -2.307997792959212979e-01 1.000000000000000000e+00
4.732670783996582031e-01 -4.821047782897949219e-01 1.070011705160140991e-01 6.600000000000000000e+01
4.606535732746124268e-01 -4.694195389747620184e-01 1.278420239686965942e-01 1.000000000000000000e+02
4.775517880916594904e-01 -4.869792759418488104e-01 1.574657410383223932e-01 7.000000000000000000e+01
4.557481110095977783e-01 -4.649074375629425049e-01 1.744440346956253052e-01 7.100000000000000000e+01
6.387584805488586426e-01 -6.534184217453002930e-01 -2.448428124189377109e-01 6.400000000000000000e+01
6.604535579681396484e-01 -6.760833859443664551e-01 -2.182025164365767878e-01 1.400000000000000000e+01
4.715813398361206055e-01 -4.837538301944733221e-01 1.070011705160140991e-01 6.600000000000000000e+01
4.480506777763367254e-01 -4.597763121128082275e-01 1.247890815138816972e-01 1.000000000000000000e+02
4.744894504547119141e-01 -4.872471690177916925e-01 1.570158302783966064e-01 7.800000000000000000e+01
4.540410935878754217e-01 -4.665747284889221191e-01 1.744440346956253052e-01 7.100000000000000000e+01
6.351281404495239258e-01 -6.542579531669616699e-01 -2.443251758813858032e-01 6.500000000000000000e+01
6.445207595825195312e-01 -6.643973588943481445e-01 -2.137034982442856113e-01 3.900000000000000000e+01
6.533045172691345215e-01 -6.736872792243957520e-01 -1.824133992195129117e-01 2.000000000000000000e+00
6.587147712707519531e-01 -6.802158951759338379e-01 -1.162633523344994008e-01 5.000000000000000000e+00
4.795074760913848877e-01 -4.953320622444152832e-01 1.091912537813187062e-01 6.300000000000000000e+01
4.450777769088745117e-01 -4.599266946315764826e-01 1.244074627757072032e-01 1.000000000000000000e+02
4.700763821601868231e-01 -4.860987365245819092e-01 1.561160385608673096e-01 7.200000000000000000e+01
4.645757079124451239e-01 -4.805783927440642755e-01 1.791027784347533902e-01 5.800000000000000000e+01
6.314997076988220215e-01 -6.550801396369934082e-01 -2.438075393438338956e-01 6.700000000000000000e+01
6.421976089477539062e-01 -6.666430830955505371e-01 -2.137034982442856113e-01 4.800000000000000000e+01
6.482253074645996094e-01 -6.731353402137756348e-01 -1.816501617431640903e-01 2.300000000000000000e+01
6.604642868041992188e-01 -6.868036389350891113e-01 -1.169945672154426991e-01 4.000000000000000000e+01
4.695616364479064941e-01 -4.884583652019500732e-01 1.073140427470206937e-01 4.300000000000000000e+01
6.986719369888305664e-01 -7.267888188362121582e-01 -8.820161223411560059e-02 1.000000000000000000e+00
4.502713084220886230e-01 -4.685553908348082941e-01 1.263155490159988126e-01 1.000000000000000000e+02
6.987415552139282227e-01 -7.273693084716796875e-01 -5.285931751132010720e-02 1.000000000000000000e+00
4.589281976222991943e-01 -4.778975844383239746e-01 1.529667228460311890e-01 8.200000000000000000e+01
4.642331898212432861e-01 -4.835907816886901855e-01 1.796204149723052979e-01 5.000000000000000000e+01
6.211938261985778809e-01 -6.489074826240539551e-01 -2.407017052173615057e-01 7.100000000000000000e+01
6.358254551887512207e-01 -6.646562218666076660e-01 -2.123537957668303888e-01 5.300000000000000000e+01
6.363735795021057129e-01 -6.654616594314575195e-01 -1.789788305759429932e-01 7.400000000000000000e+01
7.227980494499206543e-01 -7.561007142066955566e-01 9.151352941989898682e-02 1.000000000000000000e+00
6.769174933433532715e-01 -7.083536982536315918e-01 -1.551829874515532892e-01 2.000000000000000000e+00
7.582818269729614258e-01 -7.937738895416259766e-01 1.347874999046325961e-01 1.000000000000000000e+00
6.553209424018859863e-01 -6.862335801124572754e-01 -1.165070906281470975e-01 9.900000000000000000e+01
4.515682160854340155e-01 -4.728694856166840155e-01 1.035596132278441966e-01 4.600000000000000000e+01
6.823731660842895508e-01 -7.148116827011108398e-01 -8.645849674940109253e-02 1.200000000000000000e+01
4.594760835170745850e-01 -4.814867675304412842e-01 1.293684989213942926e-01 1.000000000000000000e+02
6.755191683769226074e-01 -7.081266045570373535e-01 -5.128923803567885659e-02 2.200000000000000000e+01
4.572572112083435059e-01 -4.794966280460358221e-01 1.529667228460311890e-01 7.400000000000000000e+01
6.540190577507019043e-01 -6.860679984092712402e-01 -1.654488220810889851e-02 1.000000000000000000e+01
4.678742289543151855e-01 -4.908014833927155096e-01 1.816909760236740112e-01 5.600000000000000000e+01
6.082767248153686523e-01 -6.398707032203674316e-01 -2.365606129169464111e-01 8.100000000000000000e+01
6.749807596206665039e-01 -7.102875709533691406e-01 1.710335910320281982e-02 4.000000000000000000e+00
6.294749975204467773e-01 -6.626330018043518066e-01 -2.110040932893753052e-01 6.000000000000000000e+01
7.151705622673034668e-01 -7.531058788299560547e-01 5.442939326167107322e-02 3.000000000000000000e+00
6.286391615867614746e-01 -6.619845032691955566e-01 -1.774523705244064053e-01 9.100000000000000000e+01
6.886047124862670898e-01 -7.253844141960144043e-01 8.750436455011367798e-02 8.000000000000000000e+00
6.540443301200866699e-01 -6.892189383506774902e-01 -1.504899561405181885e-01 1.700000000000000000e+01
7.268162965774536133e-01 -7.661723494529724121e-01 1.296689808368682861e-01 7.000000000000000000e+00
6.597512960433959961e-01 -6.957190036773681641e-01 -1.177257820963859974e-01 8.400000000000000000e+01
4.566270709037780762e-01 -4.816893935203552246e-01 1.051239594817161976e-01 4.500000000000000000e+01
6.757617592811584473e-01 -7.128514051437377930e-01 -8.593556284904479980e-02 3.000000000000000000e+01
4.564421474933624268e-01 -4.816626906394957941e-01 1.289868801832199097e-01 1.000000000000000000e+02
6.785374879837036133e-01 -7.162801027297973633e-01 -5.170792341232299805e-02 5.100000000000000000e+01
4.502209126949309748e-01 -4.754299521446228027e-01 1.511671096086502075e-01 6.800000000000000000e+01
6.639928221702575684e-01 -7.014166712760925293e-01 -1.685902476310729980e-02 4.400000000000000000e+01
4.687278866767882746e-01 -4.953193962574005127e-01 1.827262490987777988e-01 6.500000000000000000e+01
6.032756567001342773e-01 -6.392858028411865234e-01 -2.355253249406815130e-01 8.100000000000000000e+01
6.545344591140747070e-01 -6.938468217849731445e-01 1.664959639310837139e-02 3.200000000000000000e+01
6.190202236175537109e-01 -6.564290523529052734e-01 -2.083046734333038053e-01 7.100000000000000000e+01
6.960942149162292480e-01 -7.381608486175537109e-01 5.317332968115807273e-02 1.500000000000000000e+01
6.315953731536865234e-01 -6.699984073638916016e-01 -1.789788305759429932e-01 8.400000000000000000e+01
6.927735209465026855e-01 -7.351534366607666016e-01 8.837592601776123047e-02 2.800000000000000000e+01
6.366143822669982910e-01 -6.757950186729431152e-01 -1.470483988523482999e-01 3.000000000000000000e+01
7.144768834114074707e-01 -7.587149143218994141e-01 1.279628127813338956e-01 1.900000000000000000e+01
6.571968793869018555e-01 -6.981323957443237305e-01 -1.177257820963859974e-01 8.200000000000000000e+01
4.575660228729248047e-01 -4.862369298934937079e-01 1.057496964931488037e-01 5.600000000000000000e+01
6.704136729240417480e-01 -7.124215364456176758e-01 -8.558694273233413696e-02 3.200000000000000000e+01
4.479477703571320135e-01 -4.761824905872344971e-01 1.270787864923476895e-01 1.000000000000000000e+02
6.635934710502624512e-01 -7.056674361228942871e-01 -5.076587572693824768e-02 7.400000000000000000e+01
4.618228077888488770e-01 -4.912756085395812988e-01 1.556661278009414950e-01 7.200000000000000000e+01
6.573093533515930176e-01 -6.994739174842834473e-01 -1.675431057810783039e-02 7.800000000000000000e+01
4.736106991767882746e-01 -5.039915442466735840e-01 1.853144317865371982e-01 8.600000000000000000e+01
5.997194647789001465e-01 -6.399780511856079102e-01 -2.350076884031296054e-01 6.700000000000000000e+01
6.562097668647766113e-01 -7.005055546760559082e-01 1.675431057810783039e-02 6.300000000000000000e+01
6.047369241714477539e-01 -6.457839608192443848e-01 -2.042555510997771939e-01 8.700000000000000000e+01
6.839570403099060059e-01 -7.303812503814697266e-01 5.244062840938568115e-02 3.400000000000000000e+01
6.292527914047241211e-01 -6.721990108489990234e-01 -1.789788305759429932e-01 8.400000000000000000e+01
6.847577691078186035e-01 -7.317481040954589844e-01 8.767867833375930786e-02 3.800000000000000000e+01
6.315525770187377930e-01 -6.751279234886169434e-01 -1.464226543903351108e-01 4.000000000000000000e+01
6.969097256660461426e-01 -7.452552318572998047e-01 1.252816915512084961e-01 2.400000000000000000e+01
6.439111232757568359e-01 -6.888210177421569824e-01 -1.157758757472037991e-01 1.000000000000000000e+02
4.599120914936066229e-01 -4.921610355377197266e-01 1.066883057355881015e-01 6.600000000000000000e+01
6.692830920219421387e-01 -7.162130475044250488e-01 -8.576124906539916992e-02 3.300000000000000000e+01
4.449426531791687012e-01 -4.763085544109343927e-01 1.266971677541733066e-01 1.000000000000000000e+02
6.488578915596008301e-01 -6.948417425155639648e-01 -4.982383176684380272e-02 9.100000000000000000e+01
4.574455618858336847e-01 -4.900356531143187921e-01 1.547663211822510043e-01 6.500000000000000000e+01
6.616852283477783203e-01 -7.090741395950317383e-01 -1.692883484065533031e-02 8.200000000000000000e+01
4.744845926761627197e-01 -5.084664821624755859e-01 1.863497197628020963e-01 1.000000000000000000e+02
6.014299988746643066e-01 -6.463103294372558594e-01 -2.365606129169464111e-01 8.100000000000000000e+01
6.578465700149536133e-01 -7.071843147277832031e-01 1.685902476310729980e-02 7.100000000000000000e+01
6.077871918678283691e-01 -6.535992622375488281e-01 -2.060551643371582031e-01 1.000000000000000000e+02
6.663173437118530273e-01 -7.167919278144836426e-01 5.128923803567885659e-02 5.200000000000000000e+01
6.188824772834777832e-01 -6.657637953758239746e-01 -1.766891330480576117e-01 8.300000000000000000e+01
6.767742633819580078e-01 -7.282958626747131348e-01 8.698143064975738525e-02 3.500000000000000000e+01
6.211255192756652832e-01 -6.686446666717529297e-01 -1.445454508066177091e-01 5.900000000000000000e+01
6.861993074417114258e-01 -7.389555573463439941e-01 1.238192543387413025e-01 2.600000000000000000e+01
6.374511718750000000e-01 -6.866998672485351562e-01 -1.150446608662605008e-01 1.000000000000000000e+02
4.515578746795653742e-01 -4.864446818828582764e-01 1.051239594817161976e-01 7.900000000000000000e+01
6.654236912727355957e-01 -7.170844674110412598e-01 -8.558694273233413696e-02 3.000000000000000000e+01
4.419421553611754816e-01 -4.764194786548615057e-01 1.263155490159988126e-01 1.000000000000000000e+02
6.423543691635131836e-01 -6.927089095115661621e-01 -4.950981587171555259e-02 9.000000000000000000e+01
4.544074237346649170e-01 -4.902002811431884766e-01 1.543164253234863004e-01 5.600000000000000000e+01
6.469733715057373047e-01 -6.981786489486694336e-01 -1.661469042301177979e-02 1.000000000000000000e+02
4.778690934181212824e-01 -5.158710479736328125e-01 1.884202659130095880e-01 8.200000000000000000e+01
5.952370166778564453e-01 -6.441493034362792969e-01 -2.350076884031296054e-01 9.700000000000000000e+01
6.526602506637573242e-01 -7.065384984016418457e-01 1.678921468555926930e-02 8.800000000000000000e+01
6.028578877449035645e-01 -6.528534293174743652e-01 -2.051553577184677124e-01 1.000000000000000000e+02
6.598717570304870605e-01 -7.145955562591552734e-01 5.097522214055061340e-02 6.800000000000000000e+01
6.138914227485656738e-01 -6.650348901748657227e-01 -1.759258955717087070e-01 7.500000000000000000e+01
6.701744198799133301e-01 -7.262610793113708496e-01 8.645849674940109253e-02 4.100000000000000000e+01
6.161090135574340820e-01 -6.679047942161560059e-01 -1.439197063446044922e-01 9.100000000000000000e+01
6.822699904441833496e-01 -7.398869395256042480e-01 1.235755160450934947e-01 2.800000000000000000e+01
6.296684741973876953e-01 -6.830825209617614746e-01 -1.140697076916695057e-01 8.700000000000000000e+01
4.457561075687407892e-01 -4.837384521961212158e-01 1.041853502392768999e-01 8.000000000000000000e+01
6.494151949882507324e-01 -7.047510743141174316e-01 -8.384382724761962891e-02 3.300000000000000000e+01
4.429367184638977051e-01 -4.808472096920012873e-01 1.270787864923476895e-01 1.000000000000000000e+02
6.439912319183349609e-01 -6.993546485900878906e-01 -4.982383176684380272e-02 9.500000000000000000e+01
4.526935517787932794e-01 -4.917834699153900146e-01 1.543164253234863004e-01 4.800000000000000000e+01
6.377620100975036621e-01 -6.930752396583557129e-01 -1.644016616046429027e-02 1.000000000000000000e+02
4.773733317852020264e-01 -5.189577937126159668e-01 1.889379024505614957e-01 7.500000000000000000e+01
5.903726220130920410e-01 -6.433762907981872559e-01 -2.339724153280257901e-01 1.000000000000000000e+02
6.420795321464538574e-01 -6.999707221984863281e-01 1.657978631556034088e-02 9.900000000000000000e+01
6.058435440063476562e-01 -6.606990694999694824e-01 -2.069549709558486938e-01 1.000000000000000000e+02
6.627727150917053223e-01 -7.227827906608581543e-01 5.139390751719474792e-02 5.900000000000000000e+01
6.102396845817565918e-01 -6.657264828681945801e-01 -1.755442768335342130e-01 7.700000000000000000e+01
6.555208563804626465e-01 -7.153754830360412598e-01 8.488969504833221436e-02 6.500000000000000000e+01
6.017652153968811035e-01 -6.569416522979736328e-01 -1.411038935184479037e-01 1.000000000000000000e+02
6.810237765312194824e-01 -7.437280416488647461e-01 1.238192543387413025e-01 2.900000000000000000e+01
6.259399056434631348e-01 -6.838120222091674805e-01 -1.138259693980216980e-01 7.100000000000000000e+01
4.454833269119263250e-01 -4.866710603237152100e-01 1.044982224702834944e-01 8.000000000000000000e+01
6.308110356330871582e-01 -6.893751025199890137e-01 -8.175208419561386108e-02 4.500000000000000000e+01
4.319799244403839111e-01 -4.722500741481781006e-01 1.244074627757072032e-01 9.300000000000000000e+01
6.428938508033752441e-01 -7.030722498893737793e-01 -4.992850124835968018e-02 1.000000000000000000e+02
