-7.644126415252686435e+00 1.677873134613037109e+00 -6.846955418586730957e-01 1.000000000000000000e+00
-3.362107467651367188e+01 7.404376983642578125e+00 -6.009212732315063477e-01 1.300000000000000000e+01
-2.429244041442871094e+00 5.385504364967346191e-01 -6.667178869247436523e-01 1.500000000000000000e+01
-2.815551757812500000e+00 6.252239942550659180e-01 -6.658551096916198730e-01 1.300000000000000000e+01
-3.340450286865233931e+00 7.423952221870422363e-01 -6.651601791381835938e-01 1.200000000000000000e+01
-4.103163719177246094e+00 9.134069085121154785e-01 -6.657850742340087891e-01 1.000000000000000000e+01
-5.372718811035156250e+00 1.197991609573364036e+00 -6.758874058723449707e-01 1.200000000000000000e+01
-7.657668590545654297e+00 1.708885312080383079e+00 -6.864386200904846191e-01 1.000000000000000000e+00
-3.369259262084960938e+01 7.543536663055419922e+00 -6.026664972305297852e-01 1.300000000000000000e+01
-2.434887647628784180e+00 5.487256646156311035e-01 -6.687884330749511719e-01 1.500000000000000000e+01
-2.811451196670531782e+00 6.346192359924316406e-01 -6.654052138328552246e-01 1.300000000000000000e+01
-3.334008455276488814e+00 7.531858086585998535e-01 -6.643969416618347168e-01 1.300000000000000000e+01
-4.111510753631591797e+00 9.303398728370666504e-01 -6.676623225212097168e-01 1.000000000000000000e+01
-5.353016376495361328e+00 1.213228344917296919e+00 -6.739374399185180664e-01 1.200000000000000000e+01
-7.624454498291015625e+00 1.729434967041016069e+00 -6.839982867240905762e-01 1.000000000000000000e+00
-3.363875961303710938e+01 7.654887676239013672e+00 -6.021778583526611328e-01 1.300000000000000000e+01
-2.429191350936890093e+00 5.563590526580810547e-01 -6.677531599998474121e-01 1.700000000000000000e+01
-2.811118364334106001e+00 6.448648571968078613e-01 -6.658551096916198730e-01 1.400000000000000000e+01
-3.327532052993773970e+00 7.639404535293579102e-01 -6.636337041854858398e-01 1.300000000000000000e+01
-4.104387760162354404e+00 9.438006877899169922e-01 -6.670365333557128906e-01 1.000000000000000000e+01
-5.352617740631104404e+00 1.232797503471374956e+00 -6.744249463081359863e-01 1.200000000000000000e+01
-7.602839469909667969e+00 1.752458572387695090e+00 -6.826037764549255371e-01 1.000000000000000000e+00
-3.352221298217772727e+01 7.751538753509520596e+00 -6.005722284317016602e-01 1.300000000000000000e+01
-2.419904470443726030e+00 5.622390508651733398e-01 -6.656825542449951172e-01 1.900000000000000000e+01
-2.822364807128905806e+00 6.567848324775695801e-01 -6.690044403076171875e-01 1.200000000000000000e+01
-3.317467212677001953e+00 7.726091742515563965e-01 -6.621072292327880859e-01 1.200000000000000000e+01
-4.105249881744384766e+00 9.575877785682678223e-01 -6.676623225212097168e-01 1.000000000000000000e+01
-5.344852447509765625e+00 1.248703956604003906e+00 -6.739374399185180664e-01 1.200000000000000000e+01
-7.589536190032958984e+00 1.774520516395569070e+00 -6.819065213203430176e-01 1.000000000000000000e+00
-3.356583404541016336e+01 7.872795581817626953e+00 -6.017938852310180664e-01 2.000000000000000000e+01
-2.412286520004272017e+00 5.693513751029968262e-01 -6.641296744346618652e-01 2.100000000000000000e+01
-2.804883241653441939e+00 6.630463004112243652e-01 -6.654052138328552246e-01 1.200000000000000000e+01
-3.320481777191162109e+00 7.855405807495117188e-01 -6.632520556449890137e-01 1.200000000000000000e+01
-4.088427066802979404e+00 9.687238335609436035e-01 -6.654722094535827637e-01 9.000000000000000000e+00
-5.346255302429199219e+00 1.268728375434875044e+00 -6.746686697006225586e-01 1.400000000000000000e+01
-7.575541496276854581e+00 1.799160599708556907e+00 -6.812092661857604980e-01 2.000000000000000000e+00
-3.363346481323242188e+01 8.012621879577636719e+00 -6.035042405128479004e-01 1.300000000000000000e+01
-2.423232078552246094e+00 5.817665457725524902e-01 -6.677531599998474121e-01 2.000000000000000000e+01
-2.796632289886475053e+00 6.724445819854736328e-01 -6.640555262565612793e-01 1.400000000000000000e+01
-3.328893661499022993e+00 8.010403513908386230e-01 -6.655417680740356445e-01 1.300000000000000000e+01
-4.075075626373291016e+00 9.821009635925292969e-01 -6.639078855514526367e-01 1.000000000000000000e+01
-5.327836513519287109e+00 1.285986781120300071e+00 -6.729624867439270020e-01 1.200000000000000000e+01
-7.560830593109130859e+00 1.826364040374756081e+00 -6.805120110511779785e-01 0.000000000000000000e+00
-3.360245132446289062e+01 8.141705513000488281e+00 -6.035042405128479004e-01 1.300000000000000000e+01
-2.424940347671508789e+00 5.911366939544677734e-01 -6.687884330749511719e-01 1.900000000000000000e+01
-2.794268131256103960e+00 6.822025775909423828e-01 -6.640555262565612793e-01 1.400000000000000000e+01
-3.307005643844604048e+00 8.079957365989685059e-01 -6.617255806922912598e-01 1.200000000000000000e+01
-4.081216335296630859e+00 9.986672997474670410e-01 -6.654722094535827637e-01 1.000000000000000000e+01
-5.296322822570800781e+00 1.297961592674254927e+00 -6.695501804351806641e-01 1.100000000000000000e+01
-7.538928985595703125e+00 1.848948478698730025e+00 -6.791175603866577148e-01 0.000000000000000000e+00
-1.323781585693359020e+01 3.251519441604613814e+00 -7.143858075141906738e-01 4.000000000000000000e+00
-3.356994247436522727e+01 8.257995605468750000e+00 -6.034343838691711426e-01 1.300000000000000000e+01
-2.415465354919434038e+00 5.973198413848876953e-01 -6.667178869247436523e-01 1.900000000000000000e+01
-2.786315679550170898e+00 6.900595426559448242e-01 -6.627057790756225586e-01 1.300000000000000000e+01
-3.300496816635131836e+00 8.180131316184997559e-01 -6.609623432159423828e-01 1.300000000000000000e+01
-4.075964927673339844e+00 1.011719703674315962e+00 -6.651593446731567383e-01 1.000000000000000000e+01
-5.284283638000488281e+00 1.313602089881896973e+00 -6.685752272605895996e-01 1.100000000000000000e+01
-7.536623477935791016e+00 1.874900341033935991e+00 -6.794661879539489746e-01 1.000000000000000000e+00
-1.313006019592284979e+01 3.271257638931273970e+00 -7.091522216796875000e-01 4.000000000000000000e+00
-3.363162612915039062e+01 8.391540527343750000e+00 -6.050400137901306152e-01 1.300000000000000000e+01
-2.398375749588013139e+00 6.019853353500366211e-01 -6.625767350196838379e-01 1.900000000000000000e+01
-2.802789449691772017e+00 7.045320868492126465e-01 -6.672048568725585938e-01 1.300000000000000000e+01
-3.303333044052124023e+00 8.309658765792846680e-01 -6.621072292327880859e-01 1.300000000000000000e+01
-4.070493221282958984e+00 1.025458693504333052e+00 -6.648464798927307129e-01 9.000000000000000000e+00
-5.287364959716796875e+00 1.333982110023498979e+00 -6.695501804351806641e-01 1.100000000000000000e+01
-7.518442153930664062e+00 1.898270130157470925e+00 -6.784203052520751953e-01 2.000000000000000000e+00
-1.307208919525145951e+01 3.305319786071776900e+00 -7.066400647163391113e-01 4.000000000000000000e+00
-3.367191314697266336e+01 8.526557922363281250e+00 -6.062965989112854004e-01 1.300000000000000000e+01
-2.400003910064696822e+00 6.113072633743286133e-01 -6.636120080947875977e-01 1.900000000000000000e+01
-2.790871620178223100e+00 7.119030356407165527e-01 -6.649553179740905762e-01 1.400000000000000000e+01
-3.302314758300780806e+00 8.429771661758422852e-01 -6.624888181686401367e-01 1.400000000000000000e+01
-4.057319641113281250e+00 1.037214875221251997e+00 -6.632821559906005859e-01 1.000000000000000000e+01
-5.274984359741210938e+00 1.350461006164551003e+00 -6.685752272605895996e-01 1.300000000000000000e+01
-7.496329784393311435e+00 1.920547008514404075e+00 -6.770257949829101562e-01 1.000000000000000000e+00
-1.301017284393311080e+01 3.338024377822875977e+00 -7.039186358451843262e-01 4.000000000000000000e+00
-3.372716522216796875e+01 8.665938377380371094e+00 -6.078324317932128906e-01 1.300000000000000000e+01
-2.412818670272827148e+00 6.235480308532714844e-01 -6.677531599998474121e-01 1.900000000000000000e+01
-2.778936624526977983e+00 7.191993594169616699e-01 -6.627057790756225586e-01 1.500000000000000000e+01
-3.297451496124268022e+00 8.540070652961730957e-01 -6.621072292327880859e-01 1.300000000000000000e+01
-4.046025753021240234e+00 1.049387574195862038e+00 -6.620306372642517090e-01 1.000000000000000000e+01
-6.092271804809570312e+01 1.581241989135742010e+01 7.728222370147705078e+00 6.300000000000000000e+01
-5.258709907531738281e+00 1.365871667861938032e+00 -6.671127676963806152e-01 1.100000000000000000e+01
-7.489580154418945312e+00 1.946702480316162109e+00 -6.770257949829101562e-01 1.000000000000000000e+00
-1.299844169616699041e+01 3.383417844772338867e+00 -7.039186358451843262e-01 4.000000000000000000e+00
-3.376636886596679688e+01 8.801774024963378906e+00 -6.090889573097229004e-01 1.300000000000000000e+01
-2.407109975814818892e+00 6.301465630531311035e-01 -6.667178869247436523e-01 1.700000000000000000e+01
-2.776663541793822798e+00 7.279260754585266113e-01 -6.627057790756225586e-01 1.300000000000000000e+01
-3.287156343460083008e+00 8.623692989349365234e-01 -6.605807542800903320e-01 1.300000000000000000e+01
-4.046530246734619141e+00 1.063097238540648970e+00 -6.626563668251037598e-01 1.000000000000000000e+01
-6.087273788452147727e+01 1.600373458862305043e+01 7.728222370147705078e+00 6.300000000000000000e+01
-5.242874622344970703e+00 1.379355192184448020e+00 -6.656503677368164062e-01 1.100000000000000000e+01
-7.483427524566650391e+00 1.970221996307373047e+00 -6.770257949829101562e-01 1.000000000000000000e+00
-1.298774814605713068e+01 3.424237012863159180e+00 -7.039186358451843262e-01 4.000000000000000000e+00
-3.375788497924804688e+01 8.912915229797363281e+00 -6.094380617141723633e-01 2.100000000000000000e+01
-2.397427082061768022e+00 6.365620493888854980e-01 -6.646472811698913574e-01 1.800000000000000000e+01
-2.777872323989868164e+00 7.386155724525451660e-01 -6.636056303977966309e-01 1.300000000000000000e+01
-3.276536941528319868e+00 8.718190789222717285e-01 -6.590542793273925781e-01 1.300000000000000000e+01
-4.046612262725830078e+00 1.078232884407043013e+00 -6.632821559906005859e-01 1.000000000000000000e+01
-5.226519584655761719e+00 1.394577264785767046e+00 -6.641879081726074219e-01 1.100000000000000000e+01
-7.445705413818359375e+00 1.988108277320862038e+00 -6.742368340492248535e-01 1.000000000000000000e+00
-1.290239620208740057e+01 3.449946880340576172e+00 -6.999410986900329590e-01 4.000000000000000000e+00
-3.373429489135742188e+01 9.032767295837402344e+00 -6.095776557922363281e-01 1.400000000000000000e+01
-2.389594316482543945e+00 6.434199213981628418e-01 -6.630944013595581055e-01 1.900000000000000000e+01
-2.782803297042847124e+00 7.503369450569152832e-01 -6.654052138328552246e-01 1.300000000000000000e+01
-3.282951116561890093e+00 8.858082294464111328e-01 -6.609623432159423828e-01 1.400000000000000000e+01
-4.035195827484130859e+00 1.090290665626526101e+00 -6.620306372642517090e-01 1.000000000000000000e+01
-5.244614124298095703e+00 1.419034242630005105e+00 -6.671127676963806152e-01 1.100000000000000000e+01
-7.442566394805908203e+00 2.015127897262572798e+00 -6.745854616165161133e-01 1.000000000000000000e+00
-1.284015560150145951e+01 3.481374740600585938e+00 -6.972196102142333984e-01 4.000000000000000000e+00
-3.374501800537108664e+01 9.161993980407714844e+00 -6.103455424308776855e-01 1.400000000000000000e+01
-2.389197349548339844e+00 6.522660255432128906e-01 -6.636120080947875977e-01 1.900000000000000000e+01
-2.774528026580810991e+00 7.585045099258422852e-01 -6.640555262565612793e-01 1.300000000000000000e+01
-3.283626556396483931e+00 8.982985615730285645e-01 -6.617255806922912598e-01 1.300000000000000000e+01
-4.027554988861083984e+00 1.103325605392456055e+00 -6.614049077033996582e-01 1.000000000000000000e+01
-5.228142738342285156e+00 1.434181809425354004e+00 -6.656503677368164062e-01 1.100000000000000000e+01
-7.412431240081787109e+00 2.034765958786011186e+00 -6.724936962127685547e-01 1.000000000000000000e+00
-1.275859546661376953e+01 3.507116556167602983e+00 -6.934514045715332031e-01 4.000000000000000000e+00
-3.373982238769531250e+01 9.287159919738769531e+00 -6.108342409133911133e-01 7.000000000000000000e+00
-2.390629768371582031e+00 6.616324782371520996e-01 -6.646472811698913574e-01 1.800000000000000000e+01
-2.756839752197266069e+00 7.640211582183837891e-01 -6.604562997817993164e-01 1.300000000000000000e+01
-3.282362699508666992e+00 9.102797508239746094e-01 -6.621072292327880859e-01 1.400000000000000000e+01
-4.019872665405273438e+00 1.116320610046386941e+00 -6.607791781425476074e-01 1.000000000000000000e+01
-5.203979492187500000e+00 1.447104454040526900e+00 -6.632129549980163574e-01 1.100000000000000000e+01
-7.389927864074707031e+00 2.056354999542235884e+00 -6.710992455482482910e-01 2.000000000000000000e+00
-1.274627590179443004e+01 3.551630973815917969e+00 -6.934514045715332031e-01 4.000000000000000000e+00
-3.371490097045897727e+01 9.407027244567871094e+00 -6.109738349914550781e-01 7.000000000000000000e+00
-2.390165567398070845e+00 6.704950928688049316e-01 -6.651649475097656250e-01 1.900000000000000000e+01
-2.761660575866699219e+00 7.757477164268493652e-01 -6.622558832168579102e-01 1.300000000000000000e+01
-3.277275323867797852e+00 9.212005138397216797e-01 -6.617255806922912598e-01 1.700000000000000000e+01
-4.004542350769042969e+00 1.127134561538696067e+00 -6.589019894599914551e-01 9.000000000000000000e+00
-5.185521602630615234e+00 1.461491346359252930e+00 -6.615067720413208008e-01 9.000000000000000000e+00
-7.401880264282226562e+00 2.087546110153197798e+00 -6.728423237800598145e-01 1.000000000000000000e+00
-3.354331588745117188e+01 9.485478401184082031e+00 -6.084607243537902832e-01 6.000000000000000000e+00
-2.384094238281250000e+00 6.777777075767517090e-01 -6.641296744346618652e-01 2.100000000000000000e+01
-2.766433000564575195e+00 7.875171303749084473e-01 -6.640555262565612793e-01 1.300000000000000000e+01
-3.264598846435546875e+00 9.299454689025878906e-01 -6.598175168037414551e-01 1.400000000000000000e+01
-4.008182048797607422e+00 1.143273472785949929e+00 -6.601534485816955566e-01 9.000000000000000000e+00
-5.189932346343994141e+00 1.482309222221374956e+00 -6.627255082130432129e-01 1.100000000000000000e+01
-7.363897323608398438e+00 2.104610681533813032e+00 -6.700533628463745117e-01 2.000000000000000000e+00
-1.259827899932860973e+01 3.605360507965087891e+00 -6.867524385452270508e-01 4.000000000000000000e+00
-3.362918472290039062e+01 9.636661529541015625e+00 -6.106247901916503906e-01 1.400000000000000000e+01
-2.372431993484497070e+00 6.834217905998229980e-01 -6.615414619445800781e-01 2.000000000000000000e+01
-2.759922266006470171e+00 7.960888147354125977e-01 -6.631557345390319824e-01 1.400000000000000000e+01
-3.261332988739014116e+00 9.413353800773620605e-01 -6.598175168037414551e-01 1.300000000000000000e+01
-4.011757850646972656e+00 1.159451484680176003e+00 -6.614049077033996582e-01 1.000000000000000000e+01
-5.180912971496582031e+00 1.499312758445739968e+00 -6.622380018234252930e-01 1.100000000000000000e+01
-7.345023632049561435e+00 2.126977682113647017e+00 -6.690074801445007324e-01 2.000000000000000000e+00
-1.251656055450438920e+01 3.629291057586669922e+00 -6.829842329025268555e-01 4.000000000000000000e+00
-3.339561843872070312e+01 9.696003913879394531e+00 -6.069946885108947754e-01 6.000000000000000000e+00
-2.371886491775513139e+00 6.922402381896972656e-01 -6.620591282844543457e-01 2.100000000000000000e+01
-2.753385543823242188e+00 8.046246767044067383e-01 -6.622558832168579102e-01 1.300000000000000000e+01
-3.258027315139770952e+00 9.527138471603393555e-01 -6.598175168037414551e-01 1.300000000000000000e+01
-3.992519617080688032e+00 1.169007420539855957e+00 -6.589019894599914551e-01 9.000000000000000000e+00
-5.185172080993652344e+00 1.520180821418761985e+00 -6.634566783905029297e-01 9.000000000000000000e+00
-7.329906940460205078e+00 2.150360107421875000e+00 -6.683102250099182129e-01 2.000000000000000000e+00
-1.250381565093993963e+01 3.672960042953491211e+00 -6.829842329025268555e-01 4.000000000000000000e+00
-3.352272033691406250e+01 9.859915733337402344e+00 -6.099267005920410156e-01 7.000000000000000000e+00
-2.380571126937866211e+00 7.038016915321350098e-01 -6.651649475097656250e-01 2.100000000000000000e+01
-2.739348649978638139e+00 8.109120130538940430e-01 -6.595565080642700195e-01 1.400000000000000000e+01
-3.252799272537231001e+00 9.635230898857116699e-01 -6.594358682632446289e-01 1.300000000000000000e+01
-3.977051734924315962e+00 1.179566621780395952e+00 -6.570247411727905273e-01 9.000000000000000000e+00
-5.162707805633544922e+00 1.533185005187988059e+00 -6.612630486488342285e-01 1.100000000000000000e+01
-7.310897350311279297e+00 2.172528028488159180e+00 -6.672643423080444336e-01 2.000000000000000000e+00
-1.249091815948485973e+01 3.716583967208861861e+00 -6.829842329025268555e-01 4.000000000000000000e+00
-3.346126937866210938e+01 9.968878746032714844e+00 -6.094380617141723633e-01 1.400000000000000000e+01
-2.376249313354492188e+00 7.115529775619506836e-01 -6.646472811698913574e-01 1.900000000000000000e+01
-2.740234613418579102e+00 8.215885162353515625e-01 -6.604562997817993164e-01 1.400000000000000000e+01
-3.238133430480957031e+00 9.714866280555725098e-01 -6.571461558341979980e-01 1.200000000000000000e+01
-3.988044977188109907e+00 1.197988390922545943e+00 -6.595277190208435059e-01 9.000000000000000000e+00
-5.145918846130371094e+00 1.547766327857970969e+00 -6.598006486892700195e-01 1.100000000000000000e+01
-7.280375003814697266e+00 2.191143989562987837e+00 -6.651726365089416504e-01 2.000000000000000000e+00
-1.243962192535400035e+01 3.748637437820435014e+00 -6.808907985687255859e-01 4.000000000000000000e+00
-3.345689773559570312e+01 1.009486198425292969e+01 -6.099964976310729980e-01 1.400000000000000000e+01
-2.373750925064086914e+00 7.198432683944702148e-01 -6.646472811698913574e-01 1.800000000000000000e+01
-2.737349987030028853e+00 8.311486840248107910e-01 -6.604562997817993164e-01 1.400000000000000000e+01
-3.236601114273070845e+00 9.833546280860900879e-01 -6.575278043746948242e-01 1.200000000000000000e+01
-3.987618684768677202e+00 1.213051795959473100e+00 -6.601534485816955566e-01 9.000000000000000000e+00
-5.132888793945313388e+00 1.563405871391295943e+00 -6.588256955146789551e-01 1.100000000000000000e+01
-7.284116744995117188e+00 2.220029115676879883e+00 -6.662185192108154297e-01 3.000000000000000000e+00
-1.242646121978759943e+01 3.792037010192871094e+00 -6.808907985687255859e-01 4.000000000000000000e+00
-3.346352767944335938e+01 1.022444152832031072e+01 -6.107644438743591309e-01 1.400000000000000000e+01
-2.360016822814940962e+00 7.251343131065368652e-01 -6.615414619445800781e-01 2.000000000000000000e+01
-2.739873170852661133e+00 8.428950309753417969e-01 -6.618059873580932617e-01 1.500000000000000000e+01
-3.227346181869506836e+00 9.934779405593872070e-01 -6.563829183578491211e-01 1.100000000000000000e+01
-3.975594758987427202e+00 1.225331664085387962e+00 -6.589019894599914551e-01 9.000000000000000000e+00
-5.136608123779296875e+00 1.585135102272033913e+00 -6.600443720817565918e-01 1.100000000000000000e+01
-7.253087043762207031e+00 2.239657878875731978e+00 -6.641267538070678711e-01 3.000000000000000000e+00
-1.245064258575438920e+01 3.849355697631835938e+00 -6.829842329025268555e-01 4.000000000000000000e+00
-3.363977813720703125e+01 1.041325092315674006e+01 -6.146737337112426758e-01 1.400000000000000000e+01
-2.363005161285399947e+00 7.350893616676330566e-01 -6.630944013595581055e-01 2.100000000000000000e+01
-2.740635395050048828e+00 8.536128401756286621e-01 -6.627057790756225586e-01 1.300000000000000000e+01
-3.233230352401732954e+00 1.007658123970031960e+00 -6.582910418510437012e-01 1.200000000000000000e+01
-3.967522144317626953e+00 1.238024830818176047e+00 -6.582762002944946289e-01 9.000000000000000000e+00
-5.132938385009765625e+00 1.603647589683532937e+00 -6.602880954742431641e-01 1.100000000000000000e+01
-7.210995197296142578e+00 2.254261493682860884e+00 -6.609891653060913086e-01 3.000000000000000000e+00
-1.236469936370849965e+01 3.870122194290161133e+00 -6.790066957473754883e-01 3.000000000000000000e+00
-3.367955398559570312e+01 1.055453205108642933e+01 -6.160699725151062012e-01 1.400000000000000000e+01
-2.364369869232178178e+00 7.436686158180236816e-01 -6.641296744346618652e-01 2.100000000000000000e+01
-2.724928855895996094e+00 8.581211566925048828e-01 -6.595565080642700195e-01 1.300000000000000000e+01
-3.228176116943358931e+00 1.017220616340636985e+00 -6.579093933105468750e-01 1.200000000000000000e+01
-3.950426101684569868e+00 1.246322631835937944e+00 -6.560861468315124512e-01 8.000000000000000000e+00
-5.116518020629882812e+00 1.616177678108215110e+00 -6.588256955146789551e-01 1.100000000000000000e+01
-7.230474472045898438e+00 2.285310745239257812e+00 -6.634294986724853516e-01 2.000000000000000000e+00
-1.242483901977539062e+01 3.931846141815185991e+00 -6.829842329025268555e-01 4.000000000000000000e+00
-3.364622879028320312e+01 1.066028785705566051e+01 -6.160699725151062012e-01 7.000000000000000000e+00
-2.363600254058837891e+00 7.525033354759216309e-01 -6.646472811698913574e-01 1.800000000000000000e+01
-2.725630283355712891e+00 8.688113689422607422e-01 -6.604562997817993164e-01 1.300000000000000000e+01
-3.215253591537476030e+00 1.025500059127808061e+00 -6.560013294219970703e-01 1.200000000000000000e+01
-3.949815034866333008e+00 1.261306405067444070e+00 -6.567118763923645020e-01 8.000000000000000000e+00
-5.107063293457031250e+00 1.632818818092345969e+00 -6.583381891250610352e-01 1.100000000000000000e+01
-7.237634181976318359e+00 2.315392494201660156e+00 -6.648240089416503906e-01 1.000000000000000000e+00
-3.360119628906250000e+01 1.077522754669188920e+01 -6.159303188323974609e-01 1.400000000000000000e+01
-2.349794626235961914e+00 7.576044797897338867e-01 -6.615414619445800781e-01 1.700000000000000000e+01
-6.077973175048828125e+01 1.960789108276366832e+01 1.114755034446716087e+00 5.100000000000000000e+01
-2.722427606582642046e+00 8.787954449653625488e-01 -6.604562997817993164e-01 1.400000000000000000e+01
-3.202132225036621094e+00 1.034260511398314986e+00 -6.540932655334472656e-01 1.100000000000000000e+01
-3.952683925628662109e+00 1.278205990791321023e+00 -6.579633355140686035e-01 8.000000000000000000e+00
-5.095378875732421875e+00 1.649691820144653098e+00 -6.576069593429565430e-01 9.000000000000000000e+00
-7.191191196441650391e+00 2.329623699188231978e+00 -6.613377928733825684e-01 2.000000000000000000e+00
-3.359571075439453125e+01 1.090942668914794922e+01 -6.165586113929748535e-01 1.400000000000000000e+01
-2.339789390563964844e+00 7.634053230285644531e-01 -6.594709157943725586e-01 1.900000000000000000e+01
-2.723048210144042969e+00 8.895033597946166992e-01 -6.613560914993286133e-01 1.400000000000000000e+01
-3.205966949462891069e+00 1.047871470451354980e+00 -6.556196808815002441e-01 1.100000000000000000e+01
-3.936933517456055132e+00 1.288309454917907937e+00 -6.560861468315124512e-01 8.000000000000000000e+00
-5.093362331390380859e+00 1.668704032897948997e+00 -6.580944657325744629e-01 1.100000000000000000e+01
-7.186801910400390625e+00 2.355952739715576172e+00 -6.616864204406738281e-01 1.000000000000000000e+00
-3.359922027587891336e+01 1.104036426544188920e+01 -6.173264980316162109e-01 2.100000000000000000e+01
-2.340914249420166016e+00 7.723707556724548340e-01 -6.605061888694763184e-01 2.000000000000000000e+01
-2.714532375335692915e+00 8.966947197914123535e-01 -6.600064039230346680e-01 1.500000000000000000e+01
-3.198746204376221147e+00 1.057264924049376997e+00 -6.548564434051513672e-01 1.200000000000000000e+01
-3.927013635635375977e+00 1.299495935440063032e+00 -6.551475524902343750e-01 9.000000000000000000e+00
-5.084032058715820312e+00 1.684336423873900923e+00 -6.576069593429565430e-01 1.100000000000000000e+01
-7.148690700531005859e+00 2.369741201400756836e+00 -6.588973999023437500e-01 1.000000000000000000e+00
-1.217917156219482067e+01 4.042029857635498047e+00 -6.725170612335205078e-01 3.000000000000000000e+00
-3.346374511718750000e+01 1.111893463134765980e+01 -6.155114769935607910e-01 7.000000000000000000e+00
-2.347366094589232954e+00 7.835958600044250488e-01 -6.630944013595581055e-01 2.100000000000000000e+01
-6.083255004882813211e+01 2.031887626647948863e+01 1.119502067565917969e+00 5.000000000000000000e+01
-2.696599721908568892e+00 9.012231230735778809e-01 -6.564071774482727051e-01 1.500000000000000000e+01
-3.198760032653809038e+00 1.069669365882873979e+00 -6.556196808815002441e-01 1.200000000000000000e+01
-3.924326896667480025e+00 1.313822984695435014e+00 -6.554604172706604004e-01 9.000000000000000000e+00
-5.070592880249023438e+00 1.699549317359924094e+00 -6.566320061683654785e-01 1.100000000000000000e+01
-7.136597156524658203e+00 2.393413543701171875e+00 -6.585487723350524902e-01 2.000000000000000000e+00
-1.216498756408691051e+01 4.084518432617188388e+00 -6.725170612335205078e-01 3.000000000000000000e+00
-3.339819335937500000e+01 1.122675704956055043e+01 -6.150227785110473633e-01 1.400000000000000000e+01
-2.349968910217285156e+00 7.940493822097778320e-01 -6.646472811698913574e-01 1.800000000000000000e+01
-2.693278551101685014e+00 9.111006259918212891e-01 -6.564071774482727051e-01 1.500000000000000000e+01
-3.191098928451538086e+00 1.080127358436584029e+00 -6.548564434051513672e-01 1.100000000000000000e+01
-3.919485092163085938e+00 1.328197598457335982e+00 -6.554604172706604004e-01 8.000000000000000000e+00
-5.053050518035888672e+00 1.714295983314513938e+00 -6.551696062088012695e-01 1.100000000000000000e+01
-7.127777099609375000e+00 2.419554233551024947e+00 -6.585487723350524902e-01 2.000000000000000000e+00
-1.214993572235107067e+01 4.129077911376953125e+00 -6.725170612335205078e-01 3.000000000000000000e+00
-3.334546279907227273e+01 1.134522724151610973e+01 -6.148133873939514160e-01 1.400000000000000000e+01
-2.338042736053466797e+00 7.991234660148620605e-01 -6.620591282844543457e-01 1.900000000000000000e+01
-6.087480545043945312e+01 2.081836700439453125e+01 1.122992515563965066e+00 5.000000000000000000e+01
-2.697456836700439009e+00 9.230200052261352539e-01 -6.582067608833312988e-01 1.500000000000000000e+01
-3.183594226837158203e+00 1.089987993240356001e+00 -6.540932655334472656e-01 1.200000000000000000e+01
-3.914824962615966797e+00 1.341871023178101030e+00 -6.554604172706604004e-01 8.000000000000000000e+00
-5.054545879364013672e+00 1.734501242637634055e+00 -6.561445593833923340e-01 1.100000000000000000e+01
-7.107981204986572266e+00 2.440538167953491211e+00 -6.575029492378234863e-01 1.000000000000000000e+00
-3.324514770507813211e+01 1.144073295593262074e+01 -6.136963963508605957e-01 7.000000000000000000e+00
-2.318946361541748047e+00 8.011945486068725586e-01 -6.574003696441650391e-01 2.000000000000000000e+01
-6.080543518066406250e+01 2.102012062072753906e+01 1.122992515563965066e+00 5.000000000000000000e+01
-2.699906349182128906e+00 9.338710308074951172e-01 -6.595565080642700195e-01 1.400000000000000000e+01
-3.183672904968262163e+00 1.101823329925537109e+00 -6.548564434051513672e-01 1.200000000000000000e+01
-3.908487081527709961e+00 1.354198932647705078e+00 -6.551475524902343750e-01 9.000000000000000000e+00
-5.052517414093017578e+00 1.752554297447205034e+00 -6.566320061683654785e-01 1.100000000000000000e+01
-7.084791183471679688e+00 2.458869457244873047e+00 -6.561084389686584473e-01 1.000000000000000000e+00
-3.328257369995117188e+01 1.157719326019286932e+01 -6.150926351547241211e-01 7.000000000000000000e+00
-2.319782972335814986e+00 8.105587363243103027e-01 -6.584356427192687988e-01 2.000000000000000000e+01
-2.685593366622924805e+00 9.394291043281555176e-01 -6.568570733070373535e-01 1.400000000000000000e+01
-3.168689012527465820e+00 1.109038352966309038e+00 -6.525667905807495117e-01 1.200000000000000000e+01
-3.875772476196289062e+00 1.358035683631896973e+00 -6.504545211791992188e-01 8.000000000000000000e+00
-6.089545822143554688e+01 2.134915161132812855e+01 7.923213481903076172e+00 6.300000000000000000e+01
-5.044496059417724609e+00 1.769523024559020996e+00 -6.563882827758789062e-01 1.300000000000000000e+01
-7.057365417480468750e+00 2.476986885070800781e+00 -6.543653011322021484e-01 2.000000000000000000e+00
-3.337023544311522727e+01 1.173842334747313920e+01 -6.174661517143249512e-01 1.400000000000000000e+01
-2.327868461608887163e+00 8.225129246711730957e-01 -6.615414619445800781e-01 1.800000000000000000e+01
-6.084574127197266336e+01 2.151075935363769887e+01 1.126483082771301047e+00 4.900000000000000000e+01
-2.682297706604003906e+00 9.487978816032409668e-01 -6.568570733070373535e-01 1.400000000000000000e+01
-6.090531921386718750e+01 2.155574226379394887e+01 3.385926961898804155e+00 4.900000000000000000e+01
-3.166649341583251953e+00 1.120747327804564986e+00 -6.529483795166015625e-01 1.300000000000000000e+01
-3.887766122817993164e+00 1.377493858337401900e+00 -6.532703042030334473e-01 9.000000000000000000e+00
-5.032675743103027344e+00 1.785130023956299050e+00 -6.556570529937744141e-01 1.100000000000000000e+01
-7.029899597167968750e+00 2.494942665100098100e+00 -6.526222229003906250e-01 2.000000000000000000e+00
-3.331021499633789062e+01 1.184813404083251953e+01 -6.171171069145202637e-01 7.000000000000000000e+00
-2.328621625900268999e+00 8.319336175918579102e-01 -6.625767350196838379e-01 1.800000000000000000e+01
-6.077028656005858664e+01 2.172302055358887074e+01 1.126483082771301047e+00 4.900000000000000000e+01
-2.675299644470214844e+00 9.568425416946411133e-01 -6.559572815895080566e-01 1.400000000000000000e+01
-3.160869359970093218e+00 1.131132721900939941e+00 -6.525667905807495117e-01 1.300000000000000000e+01
-3.882934093475341797e+00 1.391056299209594949e+00 -6.532703042030334473e-01 9.000000000000000000e+00
-5.003991127014160156e+00 1.794644713401793990e+00 -6.527321934700012207e-01 1.100000000000000000e+01
-7.047402381896972656e+00 2.528887510299683061e+00 -6.550625562667846680e-01 2.000000000000000000e+00
-1.188881492614745916e+01 4.270863056182861328e+00 -6.620498299598693848e-01 3.000000000000000000e+00
-3.327618026733397727e+01 1.196704292297362926e+01 -6.172567009925842285e-01 1.400000000000000000e+01
-2.318435668945312944e+00 8.374317884445190430e-01 -6.605061888694763184e-01 1.800000000000000000e+01
-2.675608634948730025e+00 9.675005674362182617e-01 -6.568570733070373535e-01 1.400000000000000000e+01
-3.149517297744750977e+00 1.139487624168395996e+00 -6.510403156280517578e-01 1.200000000000000000e+01
-3.878054618835449219e+00 1.404601812362670898e+00 -6.532703042030334473e-01 9.000000000000000000e+00
-5.008893489837645596e+00 1.816160917282104048e+00 -6.541946530342102051e-01 1.100000000000000000e+01
-7.001072883605957031e+00 2.539882421493529829e+00 -6.515763401985168457e-01 2.000000000000000000e+00
-1.187383460998534979e+01 4.312336921691895419e+00 -6.620498299598693848e-01 3.000000000000000000e+00
-3.321165466308593750e+01 1.207492637634276988e+01 -6.168378591537475586e-01 7.000000000000000000e+00
-2.304610252380371094e+00 8.415437340736389160e-01 -6.574003696441650391e-01 1.800000000000000000e+01
-2.675875663757324219e+00 9.781724214553833008e-01 -6.577568650245666504e-01 1.400000000000000000e+01
-3.145520448684691939e+00 1.150474548339843972e+00 -6.510403156280517578e-01 1.100000000000000000e+01
-3.867563247680664062e+00 1.416092634201050027e+00 -6.523317098617553711e-01 8.000000000000000000e+00
-4.991340160369873047e+00 1.829535126686095969e+00 -6.527321934700012207e-01 1.100000000000000000e+01
-6.984682083129882812e+00 2.561561346054077148e+00 -6.508790850639343262e-01 1.000000000000000000e+00
-1.185870933532715021e+01 4.353758335113525391e+00 -6.620498299598693848e-01 3.000000000000000000e+00
-3.321810150146483664e+01 1.220871925354004084e+01 -6.177453994750976562e-01 7.000000000000000000e+00
-2.299994468688964844e+00 8.485128283500671387e-01 -6.568827629089355469e-01 1.900000000000000000e+01
-2.661648988723754883e+00 9.829897880554199219e-01 -6.550574898719787598e-01 1.300000000000000000e+01
-3.139846563339232954e+00 1.160218715667725053e+00 -6.506586670875549316e-01 1.200000000000000000e+01
-3.848024606704711914e+00 1.423427462577820046e+00 -6.498287916183471680e-01 8.000000000000000000e+00
-4.990830421447753906e+00 1.848145008087157981e+00 -6.534634232521057129e-01 8.000000000000000000e+00
-6.976149082183837891e+00 2.584709405899047852e+00 -6.508790850639343262e-01 2.000000000000000000e+00
-1.184420585632324041e+01 4.393059253692626953e+00 -6.620498299598693848e-01 3.000000000000000000e+00
-3.310619735717772727e+01 1.229235649108887074e+01 -6.164190173149108887e-01 1.400000000000000000e+01
-2.306069135665893999e+00 8.599109649658203125e-01 -6.594709157943725586e-01 1.900000000000000000e+01
-6.083970642089843750e+01 2.269863510131835938e+01 1.133463978767395020e+00 4.800000000000000000e+01
-2.654550075531005859e+00 9.909116625785827637e-01 -6.541576385498046875e-01 1.100000000000000000e+01
-3.146812438964844194e+00 1.175293087959289995e+00 -6.529483795166015625e-01 1.300000000000000000e+01
-3.846732854843140093e+00 1.438234567642211914e+00 -6.504545211791992188e-01 8.000000000000000000e+00
-4.991785526275634766e+00 1.868338346481323020e+00 -6.544383764266967773e-01 3.000000000000000000e+00
-6.944694042205811435e+00 2.600660085678101030e+00 -6.487873196601867676e-01 2.000000000000000000e+00
-1.182879924774169922e+01 4.434376239776611328e+00 -6.620498299598693848e-01 3.000000000000000000e+00
-3.314546585083007812e+01 1.243875885009765980e+01 -6.179547905921936035e-01 1.400000000000000000e+01
-2.310284376144409180e+00 8.706805109977722168e-01 -6.615414619445800781e-01 1.900000000000000000e+01
-6.076010513305664062e+01 2.291086769104003906e+01 1.133463978767395020e+00 4.800000000000000000e+01
-2.643781661987305132e+00 9.974202513694763184e-01 -6.523580551147460938e-01 1.100000000000000000e+01
-3.131670236587523970e+00 1.182110428810120073e+00 -6.506586670875549316e-01 1.200000000000000000e+01
-3.845384836196898970e+00 1.453049898147583008e+00 -6.510802507400512695e-01 8.000000000000000000e+00
-4.983376502990722656e+00 1.885049223899841087e+00 -6.541946530342102051e-01 8.000000000000000000e+00
-6.928120136260986328e+00 2.622064828872681108e+00 -6.480901241302490234e-01 2.000000000000000000e+00
-1.174601078033447088e+01 4.450165271759033203e+00 -6.582816839218139648e-01 3.000000000000000000e+00
-3.304949188232421875e+01 1.253452682495117010e+01 -6.169774532318115234e-01 1.400000000000000000e+01
-2.294593811035155806e+00 8.739265203475952148e-01 -6.579180359840393066e-01 1.900000000000000000e+01
-2.643925666809082031e+00 1.008031129837035911e+00 -6.532578468322753906e-01 1.000000000000000000e+01
-3.118353128433227983e+00 1.189536213874816895e+00 -6.487506031990051270e-01 1.100000000000000000e+01
-3.843980073928833008e+00 1.467873334884643999e+00 -6.517059803009033203e-01 9.000000000000000000e+00
-4.993454456329345703e+00 1.908812284469604048e+00 -6.563882827758789062e-01 9.000000000000000000e+00
-6.930090904235839844e+00 2.650502920150756836e+00 -6.491359472274780273e-01 3.000000000000000000e+00
-3.302794265747070312e+01 1.265840244293213068e+01 -6.173963546752929688e-01 7.000000000000000000e+00
-2.289726257324219194e+00 8.812369108200073242e-01 -6.574003696441650391e-01 1.900000000000000000e+01
-2.649483203887939009e+00 1.020756959915160911e+00 -6.555073857307434082e-01 9.000000000000000000e+00
-3.117845535278319868e+00 1.201826333999634011e+00 -6.495138406753540039e-01 1.100000000000000000e+01
-3.842518806457519975e+00 1.482704639434814009e+00 -6.523317098617553711e-01 8.000000000000000000e+00
-4.975650310516357422e+00 1.921939373016356978e+00 -6.549258232116699219e-01 9.000000000000000000e+00
-6.905929088592529297e+00 2.668931484222412109e+00 -6.477414965629577637e-01 2.000000000000000000e+00
-1.166250133514403942e+01 4.511881351470947266e+00 -6.553508639335632324e-01 3.000000000000000000e+00
-3.309917068481445312e+01 1.281838798522949041e+01 -6.195604205131530762e-01 7.000000000000000000e+00
-2.283035278320312944e+00 8.878238201141357422e-01 -6.563650965690612793e-01 2.000000000000000000e+01
-6.088584899902343750e+01 2.368944549560546875e+01 1.140375137329102007e+00 4.700000000000000000e+01
-2.640455961227416992e+00 1.027878403663635032e+00 -6.541576385498046875e-01 8.000000000000000000e+00
-3.120949029922484907e+00 1.215552330017090066e+00 -6.510403156280517578e-01 1.100000000000000000e+01
-3.815234422683715820e+00 1.487497806549072044e+00 -6.485772728919982910e-01 8.000000000000000000e+00
-4.980006694793701172e+00 1.943626403808593972e+00 -6.563882827758789062e-01 1.100000000000000000e+01
-6.892858982086181641e+00 2.691571950912476030e+00 -6.473928689956665039e-01 3.000000000000000000e+00
-1.157971382141112926e+01 4.526386737823486328e+00 -6.515826582908630371e-01 3.000000000000000000e+00
-3.303932571411132812e+01 1.292801856994629084e+01 -6.192811727523803711e-01 1.400000000000000000e+01
-2.281720161437987837e+00 8.964941501617431641e-01 -6.568827629089355469e-01 1.900000000000000000e+01
-6.080278778076171875e+01 2.390183258056640980e+01 1.140375137329102007e+00 4.700000000000000000e+01
-2.620530366897583008e+00 1.030669689178467019e+00 -6.501085758209228516e-01 7.000000000000000000e+00
-3.123994588851929155e+00 1.229314684867859109e+00 -6.525667905807495117e-01 1.100000000000000000e+01
-3.817370653152465820e+00 1.503702282905579057e+00 -6.498287916183471680e-01 8.000000000000000000e+00
-4.962111473083496094e+00 1.956628918647765891e+00 -6.549258232116699219e-01 9.000000000000000000e+00
-6.877861499786376953e+00 2.713422536849976030e+00 -6.468698978424072266e-01 3.000000000000000000e+00
-1.156384277343750000e+01 4.566780090332031250e+00 -6.515826582908630371e-01 3.000000000000000000e+00
-3.297912216186522727e+01 1.303738689422607067e+01 -6.190019249916076660e-01 1.400000000000000000e+01
-2.289350509643555132e+00 9.087297916412353516e-01 -6.599885821342468262e-01 1.900000000000000000e+01
-6.081190872192382812e+01 2.415083312988280895e+01 1.142120361328125000e+00 4.600000000000000000e+01
-2.613294601440430132e+00 1.038371562957763894e+00 -6.492087244987487793e-01 7.000000000000000000e+00
-3.110562562942504883e+00 1.236585617065429910e+00 -6.506586670875549316e-01 1.000000000000000000e+01
-3.812098503112792969e+00 1.517018198966979980e+00 -6.498287916183471680e-01 8.000000000000000000e+00
-4.931277275085449219e+00 1.964387893676758035e+00 -6.517572402954101562e-01 1.100000000000000000e+01
-6.868348121643066406e+00 2.737414360046387163e+00 -6.468698978424072266e-01 3.000000000000000000e+00
-1.154783153533936080e+01 4.607117652893066406e+00 -6.515826582908630371e-01 3.000000000000000000e+00
-3.294826889038085938e+01 1.315835952758789062e+01 -6.192811727523803711e-01 1.400000000000000000e+01
-2.278992176055908203e+00 9.138395786285400391e-01 -6.579180359840393066e-01 1.900000000000000000e+01
-6.082003021240233664e+01 2.440018844604491832e+01 1.143865585327147993e+00 4.600000000000000000e+01
-2.622313499450684038e+00 1.052568674087523970e+00 -6.523580551147460938e-01 8.000000000000000000e+00
-3.091652393341064009e+00 1.241582870483397993e+00 -6.476057171821594238e-01 1.000000000000000000e+01
-3.806779861450194868e+00 1.530315637588500977e+00 -6.498287916183471680e-01 9.000000000000000000e+00
-4.933598518371582031e+00 1.985294580459594949e+00 -6.529759168624877930e-01 9.000000000000000000e+00
-6.847661495208740234e+00 2.756907939910889116e+00 -6.458240747451782227e-01 3.000000000000000000e+00
-1.153167915344237926e+01 4.647398948669433594e+00 -6.515826582908630371e-01 3.000000000000000000e+00
-3.290955352783203125e+01 1.327628231048583984e+01 -6.194208264350891113e-01 1.400000000000000000e+01
-2.266835689544678178e+00 9.181629419326782227e-01 -6.553298234939575195e-01 1.800000000000000000e+01
-2.631264925003052202e+00 1.066841363906859907e+00 -6.555073857307434082e-01 1.300000000000000000e+01
-3.090938091278076172e+00 1.253843188285828081e+00 -6.483689546585083008e-01 1.000000000000000000e+01
-3.792263507843018022e+00 1.539878606796265093e+00 -6.482644081115722656e-01 9.000000000000000000e+00
-4.919282436370849609e+00 1.999513983726501021e+00 -6.520009636878967285e-01 9.000000000000000000e+00
-6.801084041595458984e+00 2.765783071517943892e+00 -6.423377990722656250e-01 3.000000000000000000e+00
-1.144879150390625000e+01 4.660514354705811435e+00 -6.478144526481628418e-01 3.000000000000000000e+00
-3.288893508911132812e+01 1.340164184570313033e+01 -6.199094653129577637e-01 1.400000000000000000e+01
-2.261828899383544922e+00 9.253385663032531738e-01 -6.548121571540832520e-01 1.900000000000000000e+01
-6.083327102661132812e+01 2.489994430541991832e+01 1.147356152534485085e+00 4.600000000000000000e+01
-2.616704702377318892e+00 1.071588635444640891e+00 -6.528079509735107422e-01 1.500000000000000000e+01
-3.086542606353760210e+00 1.264624953269958052e+00 -6.483689546585083008e-01 1.100000000000000000e+01
-3.786865234375000000e+00 1.553106665611267090e+00 -6.482644081115722656e-01 9.000000000000000000e+00
-4.912272930145263672e+00 2.016673326492310014e+00 -6.520009636878967285e-01 9.000000000000000000e+00
-6.793231487274169922e+00 2.790263414382935014e+00 -6.425121426582336426e-01 2.000000000000000000e+00
-3.286784362792968750e+01 1.352701854705811080e+01 -6.203981637954711914e-01 1.400000000000000000e+01
-2.265726804733275923e+00 9.361791014671325684e-01 -6.568827629089355469e-01 1.900000000000000000e+01
-6.074598312377929688e+01 2.511214065551758168e+01 1.147356152534485085e+00 4.600000000000000000e+01
-2.609346628189086914e+00 1.079226493835448997e+00 -6.519081592559814453e-01 1.500000000000000000e+01
-3.082109451293944868e+00 1.275391221046447976e+00 -6.483689546585083008e-01 1.100000000000000000e+01
-3.774120807647705078e+00 1.563292026519774947e+00 -6.470129489898681641e-01 9.000000000000000000e+00
-4.897868633270263672e+00 2.030766725540161133e+00 -6.510260105133056641e-01 1.100000000000000000e+01
-6.801853656768798828e+00 2.821593284606934038e+00 -6.442552208900451660e-01 2.000000000000000000e+00
-3.288690185546875000e+01 1.366929721832275035e+01 -6.216546893119812012e-01 1.400000000000000000e+01
-2.271690130233765093e+00 9.470091462135314941e-01 -6.594709157943725586e-01 1.700000000000000000e+01
-6.085135269165039062e+01 2.537983131408691051e+01 1.150846600532531960e+00 4.500000000000000000e+01
-2.602346420288085938e+00 1.085917711257935014e+00 -6.510083675384521484e-01 1.500000000000000000e+01
-3.078087568283081055e+00 1.285067677497863992e+00 -6.483689546585083008e-01 1.200000000000000000e+01
-3.761900424957274947e+00 1.572094321250915971e+00 -6.457614898681640625e-01 9.000000000000000000e+00
-4.873151302337645596e+00 2.038483381271361861e+00 -6.485886573791503906e-01 9.000000000000000000e+00
-6.803983211517333984e+00 2.847563266754149947e+00 -6.453011035919189453e-01 2.000000000000000000e+00
-1.128313064575194957e+01 4.726778984069824219e+00 -6.411154866218566895e-01 3.000000000000000000e+00
-3.285117340087891336e+01 1.377563953399658025e+01 -6.217943429946899414e-01 1.400000000000000000e+01
-2.261248588562012163e+00 9.519348740577697754e-01 -6.574003696441650391e-01 1.700000000000000000e+01
-2.598540067672729048e+00 1.094995021820067915e+00 -6.510083675384521484e-01 1.500000000000000000e+01
-3.060919761657714844e+00 1.290465593338012917e+00 -6.456976532936096191e-01 1.200000000000000000e+01
-3.770949602127075195e+00 1.591360569000243919e+00 -6.482644081115722656e-01 9.000000000000000000e+00
-4.860519886016845703e+00 2.053164005279541016e+00 -6.478574275970458984e-01 1.100000000000000000e+01
-6.760967731475830078e+00 2.857335329055786133e+00 -6.421635150909423828e-01 2.000000000000000000e+00
-3.282498168945313211e+01 1.389958477020264027e+01 -6.222131848335266113e-01 7.000000000000000000e+00
-2.247244596481322798e+00 9.552876949310302734e-01 -6.542945504188537598e-01 1.800000000000000000e+01
-6.085670471191406250e+01 2.588229370117187855e+01 1.154337048530579057e+00 4.400000000000000000e+01
-2.601874589920043945e+00 1.107110857963562012e+00 -6.528079509735107422e-01 1.500000000000000000e+01
-3.056396484375000000e+00 1.301142334938049094e+00 -6.456976532936096191e-01 1.100000000000000000e+01
-3.754468202590941939e+00 1.599867582321166992e+00 -6.463872194290161133e-01 9.000000000000000000e+00
-4.864279270172119141e+00 2.074790954589844194e+00 -6.493198871612548828e-01 1.300000000000000000e+01
-6.730794906616210938e+00 2.872315883636475053e+00 -6.402460932731628418e-01 3.000000000000000000e+00
-1.124985694885254084e+01 4.805434226989746094e+00 -6.411154866218566895e-01 3.000000000000000000e+00
-3.280936050415039062e+01 1.402823162078857067e+01 -6.228414773941040039e-01 7.000000000000000000e+00
-2.247446775436400923e+00 9.646501541137695312e-01 -6.553298234939575195e-01 2.000000000000000000e+01
-6.076598739624022727e+01 2.609456634521484020e+01 1.154337048530579057e+00 4.400000000000000000e+01
-2.594413280487060991e+00 1.114647865295409934e+00 -6.519081592559814453e-01 1.500000000000000000e+01
-3.053639650344849077e+00 1.312578558921813965e+00 -6.460792422294616699e-01 1.100000000000000000e+01
-3.734344244003295898e+00 1.606717705726623979e+00 -6.438842415809631348e-01 9.000000000000000000e+00
-4.855184078216552734e+00 2.090972423553466797e+00 -6.490761041641235352e-01 1.100000000000000000e+01
-6.733536243438720703e+00 2.901312112808227983e+00 -6.414662599563598633e-01 2.000000000000000000e+00
-1.123301410675049006e+01 4.844674110412597656e+00 -6.411154866218566895e-01 3.000000000000000000e+00
-3.281526947021483664e+01 1.416644954681395951e+01 -6.238886117935180664e-01 7.000000000000000000e+00
-2.240520715713500977e+00 9.709529876708984375e-01 -6.542945504188537598e-01 1.800000000000000000e+01
-2.577991962432860884e+00 1.118268847465514915e+00 -6.487588286399841309e-01 1.400000000000000000e+01
-3.061645984649658203e+00 1.328700780868530051e+00 -6.487506031990051270e-01 1.100000000000000000e+01
-3.739583969116210938e+00 1.624465465545654075e+00 -6.457614898681640625e-01 9.000000000000000000e+00
-4.827830314636229581e+00 2.099200487136840820e+00 -6.463949680328369141e-01 1.100000000000000000e+01
-6.712405681610107422e+00 2.920030117034912109e+00 -6.404203772544860840e-01 2.000000000000000000e+00
-1.121603488922118963e+01 4.883855342864990234e+00 -6.411154866218566895e-01 3.000000000000000000e+00
-3.275462341308593750e+01 1.427611541748047053e+01 -6.236792206764221191e-01 1.400000000000000000e+01
-2.249506950378417969e+00 9.841883778572082520e-01 -6.579180359840393066e-01 1.900000000000000000e+01
-2.579427957534790039e+00 1.129606008529663086e+00 -6.501085758209228516e-01 1.500000000000000000e+01
-3.046200037002563032e+00 1.334652662277221902e+00 -6.464608907699584961e-01 1.100000000000000000e+01
-3.728463649749755859e+00 1.635129094123840110e+00 -6.448228359222412109e-01 1.000000000000000000e+01
-6.090585708618164062e+01 2.672312545776366832e+01 8.166464805603027344e+00 6.300000000000000000e+01
-4.815020561218261719e+00 2.113646268844604048e+00 -6.456637978553771973e-01 1.100000000000000000e+01
-6.705820560455322266e+00 2.945045471191405806e+00 -6.407690048217773438e-01 3.000000000000000000e+00
-3.268994522094727273e+01 1.438392066955566051e+01 -6.233999729156494141e-01 7.000000000000000000e+00
-2.230153322219849077e+00 9.850099682807922363e-01 -6.532592773437500000e-01 1.800000000000000000e+01
-2.570122241973876953e+00 1.136239171028136985e+00 -6.487588286399841309e-01 1.400000000000000000e+01
-6.090868377685546875e+01 2.694015693664551137e+01 3.490389585494995117e+00 4.300000000000000000e+01
-3.037931680679320845e+00 1.343689441680907981e+00 -6.456976532936096191e-01 1.100000000000000000e+01
-3.720927000045775923e+00 1.647334218025207964e+00 -6.445099711418151855e-01 9.000000000000000000e+00
-6.094651794433593750e+01 2.699505424499512074e+01 8.184501647949218750e+00 6.300000000000000000e+01
-4.803983211517333984e+00 2.128832340240478960e+00 -6.451762914657592773e-01 9.000000000000000000e+00
-6.673642635345458984e+00 2.958745002746582031e+00 -6.386772990226745605e-01 2.000000000000000000e+00
-1.111594486236572088e+01 4.932873725891113281e+00 -6.373472809791564941e-01 3.000000000000000000e+00
