1.338503599166869895e+00 4.104859352111816406e+00 -5.301316380500793457e-01 9.000000000000000000e+00
1.740278840065001997e+00 5.333845615386962891e+00 -4.908611476421356201e-01 9.000000000000000000e+00
2.514789342880249023e+00 7.698556900024414062e+00 -4.244446158409119207e-01 1.000000000000000000e+00
4.499068260192871094e+00 1.375678539276123047e+01 -2.526410222053527832e-01 2.000000000000000000e+00
6.941271424293518066e-01 2.112442255020142046e+00 -5.958014130592346191e-01 1.500000000000000000e+01
7.953313589096069336e-01 2.417592048645019975e+00 -5.875721573829650879e-01 1.100000000000000000e+01
9.164689183235168457e-01 2.784180164337158203e+00 -5.697556734085083008e-01 1.000000000000000000e+01
1.093134999275207964e+00 3.316982746124268022e+00 -5.531522631645202637e-01 9.000000000000000000e+00
1.352824091911315918e+00 4.100162029266357422e+00 -5.301316380500793457e-01 9.000000000000000000e+00
1.750142335891724077e+00 5.301250934600830078e+00 -4.884207844734191895e-01 9.000000000000000000e+00
2.539139747619628906e+00 7.682146549224854404e+00 -4.240259230136870783e-01 2.000000000000000000e+00
4.607369899749755859e+00 1.392324829101563033e+01 -2.559919059276580811e-01 2.000000000000000000e+00
7.033250927925109863e-01 2.115505933761597124e+00 -5.973543524742126465e-01 1.500000000000000000e+01
8.013037443161010742e-01 2.407404899597167969e+00 -5.857725739479064941e-01 1.000000000000000000e+01
9.255615472793579102e-01 2.779101371765137163e+00 -5.693740248680114746e-01 1.000000000000000000e+01
1.104706764221190962e+00 3.313146829605102983e+00 -5.531522631645202637e-01 9.000000000000000000e+00
1.369642376899719016e+00 4.102946281433104581e+00 -5.311065912246704102e-01 9.000000000000000000e+00
1.768636584281920943e+00 5.295109748840332031e+00 -4.884207844734191895e-01 9.000000000000000000e+00
2.565939903259276900e+00 7.673236370086669922e+00 -4.240259230136870783e-01 1.000000000000000000e+00
4.678797721862792969e+00 1.397534561157226918e+01 -2.572484612464904785e-01 2.000000000000000000e+00
7.131687998771667480e-01 2.120362281799315962e+00 -5.994248986244201660e-01 1.700000000000000000e+01
8.109460473060607910e-01 2.408287048339844194e+00 -5.866723656654357910e-01 1.100000000000000000e+01
9.371373653411865234e-01 2.781435251235961914e+00 -5.705189108848571777e-01 1.000000000000000000e+01
1.117527842521667036e+00 3.313014030456542969e+00 -5.537779927253723145e-01 9.000000000000000000e+00
1.381415367126465066e+00 4.090617656707763672e+00 -5.301316380500793457e-01 9.000000000000000000e+00
1.794762730598449929e+00 5.311554431915283203e+00 -4.905125200748444159e-01 9.000000000000000000e+00
2.582468509674071822e+00 7.633962154388427734e+00 -4.223511815071105957e-01 2.000000000000000000e+00
4.727551937103270596e+00 1.395892810821533025e+01 -2.572484612464904785e-01 2.000000000000000000e+00
7.230548858642578125e-01 2.125175476074219194e+00 -6.014954447746276855e-01 1.500000000000000000e+01
8.168342709541320801e-01 2.398062944412231001e+00 -5.848727226257324219e-01 1.100000000000000000e+01
9.449406266212463379e-01 2.772572040557860884e+00 -5.693740248680114746e-01 1.000000000000000000e+01
1.128447771072387917e+00 3.307223320007324219e+00 -5.534651279449462891e-01 8.000000000000000000e+00
1.395044207572937012e+00 4.083891868591308594e+00 -5.298879146575927734e-01 1.000000000000000000e+01
1.815225720405579057e+00 5.310913085937500000e+00 -4.910354614257813055e-01 9.000000000000000000e+00
2.620739459991455078e+00 7.658915519714354581e+00 -4.242352545261383057e-01 2.000000000000000000e+00
4.750326156616210938e+00 1.386666965484618963e+01 -2.558522820472716730e-01 2.000000000000000000e+00
7.297277450561523438e-01 2.122893571853638139e+00 -6.014954447746276855e-01 1.500000000000000000e+01
8.256322145462036133e-01 2.399170160293579102e+00 -5.857725739479064941e-01 1.100000000000000000e+01
9.536462426185607910e-01 2.769589900970458984e+00 -5.693740248680114746e-01 1.100000000000000000e+01
1.143982291221619096e+00 3.318602085113524947e+00 -5.559681057929992676e-01 9.000000000000000000e+00
1.407219648361206055e+00 4.077612876892089844e+00 -5.296441912651062012e-01 9.000000000000000000e+00
1.826048731803894043e+00 5.288234710693359375e+00 -4.894666373729705811e-01 9.000000000000000000e+00
2.636957168579102007e+00 7.627992630004882812e+00 -4.229792058467864990e-01 2.000000000000000000e+00
4.779478073120117188e+00 1.381010437011718928e+01 -2.550843656063079834e-01 2.000000000000000000e+00
7.314242720603942871e-01 2.103910684585570845e+00 -5.968367457389831543e-01 1.500000000000000000e+01
8.340018391609191895e-01 2.396273612976074219e+00 -5.857725739479064941e-01 1.100000000000000000e+01
9.620168209075927734e-01 2.762536048889160156e+00 -5.686107873916625977e-01 1.000000000000000000e+01
1.149706840515136941e+00 3.297801256179810014e+00 -5.531522631645202637e-01 9.000000000000000000e+00
1.422752857208251953e+00 4.076424121856688565e+00 -5.301316380500793457e-01 1.000000000000000000e+01
1.837928295135498047e+00 5.263018131256104404e+00 -4.877235293388367254e-01 9.000000000000000000e+00
2.667522430419921875e+00 7.630053520202636719e+00 -4.236072301864624023e-01 1.000000000000000000e+00
4.835582256317138672e+00 1.381598567962645951e+01 -2.555032372474669855e-01 2.000000000000000000e+00
7.413267493247985840e-01 2.108634710311890093e+00 -5.989072918891906738e-01 1.600000000000000000e+01
8.449492454528808594e-01 2.400700569152832031e+00 -5.875721573829650879e-01 1.100000000000000000e+01
9.749146103858947754e-01 2.768419981002808061e+00 -5.705189108848571777e-01 1.000000000000000000e+01
1.159897685050963911e+00 3.290041923522949219e+00 -5.525265336036682129e-01 9.000000000000000000e+00
1.442259073257446067e+00 4.086408615112304688e+00 -5.320815443992614746e-01 9.000000000000000000e+00
1.858278751373291016e+00 5.262206554412841797e+00 -4.882464706897736151e-01 8.000000000000000000e+00
2.692808628082274947e+00 7.616929531097412109e+00 -4.233978986740111750e-01 2.000000000000000000e+00
4.883780002593994141e+00 1.379902172088623047e+01 -2.555032372474669855e-01 2.000000000000000000e+00
7.519181966781616211e-01 2.115135431289672852e+00 -6.014954447746276855e-01 1.600000000000000000e+01
8.507105708122253418e-01 2.390392780303955078e+00 -5.857725739479064941e-01 1.000000000000000000e+01
9.858894348144531250e-01 2.768699169158935991e+00 -5.712821483612060547e-01 1.100000000000000000e+01
1.170711755752563032e+00 3.284112453460692915e+00 -5.522136688232421875e-01 8.000000000000000000e+00
1.451176762580872026e+00 4.066392421722412109e+00 -5.301316380500793457e-01 9.000000000000000000e+00
1.882665872573852983e+00 5.272575378417968750e+00 -4.898152649402617853e-01 9.000000000000000000e+00
2.719380378723144975e+00 7.607483386993408203e+00 -4.233978986740111750e-01 1.000000000000000000e+00
4.915747642517089844e+00 1.373670387268066051e+01 -2.546655237674713135e-01 2.000000000000000000e+00
7.596654891967773438e-01 2.112365484237670898e+00 -6.014954447746276855e-01 1.500000000000000000e+01
8.607862591743469238e-01 2.390925884246826172e+00 -5.866723656654357910e-01 1.100000000000000000e+01
9.953652024269104004e-01 2.763220071792602983e+00 -5.709004998207092285e-01 9.000000000000000000e+00
1.184751033782958984e+00 3.285374164581298828e+00 -5.531522631645202637e-01 9.000000000000000000e+00
1.463374853134155051e+00 4.053577423095703125e+00 -5.291566848754882812e-01 9.000000000000000000e+00
1.900624394416809082e+00 5.261891841888427734e+00 -4.894666373729705811e-01 9.000000000000000000e+00
2.744528293609619141e+00 7.589952468872070312e+00 -4.229792058467864990e-01 1.000000000000000000e+00
4.964700698852539062e+00 1.371483421325683949e+01 -2.545956969261168878e-01 2.000000000000000000e+00
7.637339234352111816e-01 2.100622892379761186e+00 -5.989072918891906738e-01 1.600000000000000000e+01
8.691269159317016602e-01 2.387906551361083984e+00 -5.866723656654357910e-01 1.100000000000000000e+01
1.002989172935486062e+00 2.754194498062133789e+00 -5.697556734085083008e-01 1.100000000000000000e+01
1.200271487236022949e+00 3.292353868484497070e+00 -5.550295114517211914e-01 9.000000000000000000e+00
1.480237841606139915e+00 4.055903911590576172e+00 -5.301316380500793457e-01 9.000000000000000000e+00
1.911462903022765891e+00 5.234638690948486328e+00 -4.875492155551909845e-01 9.000000000000000000e+00
2.777862548828125000e+00 7.599084377288818359e+00 -4.240259230136870783e-01 1.000000000000000000e+00
4.996050834655761719e+00 1.365235042572020951e+01 -2.537579834461212158e-01 2.000000000000000000e+00
7.697289586067199707e-01 2.094317674636840820e+00 -5.978720188140869141e-01 1.500000000000000000e+01
8.801485896110534668e-01 2.392173767089844194e+00 -5.884719491004943848e-01 1.000000000000000000e+01
1.012597084045409934e+00 2.750676631927489790e+00 -5.697556734085083008e-01 1.000000000000000000e+01
1.209707379341125044e+00 3.282583713531494141e+00 -5.540908575057983398e-01 8.000000000000000000e+00
1.495073676109313965e+00 4.052574634552001953e+00 -5.303753614425659180e-01 1.000000000000000000e+01
1.933863162994384988e+00 5.239149093627929688e+00 -4.885950982570648193e-01 9.000000000000000000e+00
2.801602363586425781e+00 7.581847667694091797e+00 -4.236072301864624023e-01 1.000000000000000000e+00
5.024250507354736328e+00 1.358231449127197088e+01 -2.527806460857390802e-01 2.000000000000000000e+00
7.770348191261291504e-01 2.091618061065673828e+00 -5.978720188140869141e-01 1.600000000000000000e+01
8.857763409614562988e-01 2.381780862808227983e+00 -5.866723656654357910e-01 1.100000000000000000e+01
1.023561835289001021e+00 2.750805139541625977e+00 -5.705189108848571777e-01 1.000000000000000000e+01
1.219089865684509055e+00 3.272787570953369141e+00 -5.531522631645202637e-01 9.000000000000000000e+00
1.507130026817321999e+00 4.041750907897949219e+00 -5.296441912651062012e-01 9.000000000000000000e+00
1.955621600151062012e+00 5.241700172424316406e+00 -4.894666373729705811e-01 8.000000000000000000e+00
2.828050851821898970e+00 7.572022438049316406e+00 -4.236072301864624023e-01 1.000000000000000000e+00
5.068830013275145596e+00 1.355720138549805043e+01 -2.526410222053527832e-01 2.000000000000000000e+00
7.856372594833374023e-01 2.094593048095703125e+00 -5.994248986244201660e-01 1.800000000000000000e+01
8.905144929885864258e-01 2.371688842773437944e+00 -5.848727226257324219e-01 1.100000000000000000e+01
1.033579587936400923e+00 2.751251697540283203e+00 -5.712821483612060547e-01 1.000000000000000000e+01
1.230756282806396040e+00 3.272639513015747070e+00 -5.537779927253723145e-01 9.000000000000000000e+00
1.521218895912169966e+00 4.040711879730224609e+00 -5.301316380500793457e-01 9.000000000000000000e+00
1.969269990921020952e+00 5.228072643280029297e+00 -4.887694120407103937e-01 9.000000000000000000e+00
2.851824998855590820e+00 7.563100337982177734e+00 -4.236072301864624023e-01 2.000000000000000000e+00
5.091622829437255859e+00 1.348882675170898082e+01 -2.516637146472930908e-01 5.000000000000000000e+00
7.956830263137817383e-01 2.099063634872436968e+00 -6.014954447746276855e-01 1.800000000000000000e+01
9.001705646514892578e-01 2.372209787368773970e+00 -5.857725739479064941e-01 1.200000000000000000e+01
1.044570565223694070e+00 2.751297950744628906e+00 -5.720453858375549316e-01 1.000000000000000000e+01
1.238663434982300027e+00 3.259090900421143022e+00 -5.522136688232421875e-01 8.000000000000000000e+00
1.532490730285644975e+00 4.027956008911132812e+00 -5.291566848754882812e-01 1.000000000000000000e+01
1.994595527648926003e+00 5.239787101745604581e+00 -4.905125200748444159e-01 9.000000000000000000e+00
2.868251085281372070e+00 7.526970863342285156e+00 -4.221418201923369806e-01 2.000000000000000000e+00
5.120145797729492188e+00 1.342239379882813033e+01 -2.507561743259429932e-01 2.000000000000000000e+00
8.030052781105041504e-01 2.096273422241210938e+00 -6.014954447746276855e-01 1.900000000000000000e+01
9.112365841865539551e-01 2.376331329345703125e+00 -5.875721573829650879e-01 1.000000000000000000e+01
1.050651788711548074e+00 2.738470077514647993e+00 -5.701372623443603516e-01 1.000000000000000000e+01
1.257114529609679954e+00 3.273187637329102007e+00 -5.553423762321472168e-01 9.000000000000000000e+00
1.546541571617126021e+00 4.022582054138183594e+00 -5.291566848754882812e-01 9.000000000000000000e+00
2.008581638336182085e+00 5.221635341644287109e+00 -4.894666373729705811e-01 9.000000000000000000e+00
2.903120279312133789e+00 7.539278984069824219e+00 -4.233978986740111750e-01 2.000000000000000000e+00
5.168406009674072266e+00 1.340817070007324041e+01 -2.508259713649749756e-01 2.000000000000000000e+00
8.040416240692138672e-01 2.077243089675902876e+00 -5.968367457389831543e-01 1.600000000000000000e+01
9.195259809494018555e-01 2.373136043548583984e+00 -5.875721573829650879e-01 1.200000000000000000e+01
1.059494853019713911e+00 2.732955455780028853e+00 -5.697556734085083008e-01 1.000000000000000000e+01
1.262100458145142046e+00 3.252205610275268999e+00 -5.525265336036682129e-01 9.000000000000000000e+00
1.557698369026184082e+00 4.009757518768311435e+00 -5.281817317008972168e-01 9.000000000000000000e+00
2.023909330368041992e+00 5.207164287567138672e+00 -4.887694120407103937e-01 9.000000000000000000e+00
2.929419517517089844e+00 7.529099464416503906e+00 -4.233978986740111750e-01 2.000000000000000000e+00
5.225338459014892578e+00 1.341613483428955078e+01 -2.513146400451660156e-01 2.000000000000000000e+00
8.137388229370117188e-01 2.081762552261352983e+00 -5.989072918891906738e-01 1.500000000000000000e+01
9.259703159332275391e-01 2.366444349288939986e+00 -5.866723656654357910e-01 1.100000000000000000e+01
1.071414589881896973e+00 2.736739635467528853e+00 -5.712821483612060547e-01 1.000000000000000000e+01
1.272878170013427956e+00 3.248002290725708008e+00 -5.525265336036682129e-01 9.000000000000000000e+00
1.578961133956908958e+00 4.024897575378417969e+00 -5.308628678321838379e-01 1.000000000000000000e+01
2.044805526733397993e+00 5.209697246551513672e+00 -4.896409511566162109e-01 9.000000000000000000e+00
2.951449155807495117e+00 7.511908054351806641e+00 -4.229792058467864990e-01 2.000000000000000000e+00
5.272726535797119141e+00 1.340617752075194957e+01 -2.514542639255524237e-01 2.000000000000000000e+00
8.217101693153381348e-01 2.080706119537353960e+00 -5.994248986244201660e-01 1.300000000000000000e+01
9.327922463417053223e-01 2.359573125839232954e+00 -5.857725739479064941e-01 1.100000000000000000e+01
1.080239057540893999e+00 2.731157302856444868e+00 -5.709004998207092285e-01 1.000000000000000000e+01
1.285662531852721946e+00 3.247212648391724077e+00 -5.531522631645202637e-01 9.000000000000000000e+00
1.584955573081969993e+00 3.999061822891234907e+00 -5.281817317008972168e-01 9.000000000000000000e+00
2.059306144714355025e+00 5.193267345428466797e+00 -4.887694120407103937e-01 8.000000000000000000e+00
2.976179122924805132e+00 7.497847080230712891e+00 -4.227698445320128839e-01 1.000000000000000000e+00
5.306199550628662109e+00 1.335423946380615057e+01 -2.508259713649749756e-01 2.000000000000000000e+00
8.321955204010009766e-01 2.084857225418090820e+00 -6.014954447746276855e-01 1.500000000000000000e+01
9.370958209037780762e-01 2.345280647277832031e+00 -5.830731391906738281e-01 1.000000000000000000e+01
1.088784456253051980e+00 2.723533630371094194e+00 -5.701372623443603516e-01 1.000000000000000000e+01
1.299023270606995073e+00 3.246146678924560991e+00 -5.537779927253723145e-01 9.000000000000000000e+00
1.601078510284424050e+00 3.996911287307738814e+00 -5.286692380905151367e-01 9.000000000000000000e+00
2.085738658905028853e+00 5.204178810119628906e+00 -4.905125200748444159e-01 9.000000000000000000e+00
3.008101940155028853e+00 7.498010158538818359e+00 -4.233978986740111750e-01 2.000000000000000000e+00
5.358090400695800781e+00 1.334212398529052912e+01 -2.509655952453612726e-01 2.000000000000000000e+00
8.387455344200134277e-01 2.080147981643677202e+00 -6.009778380393981934e-01 1.600000000000000000e+01
9.511117339134216309e-01 2.356451988220214844e+00 -5.866723656654357910e-01 1.100000000000000000e+01
1.099019765853882058e+00 2.721537113189696822e+00 -5.705189108848571777e-01 1.000000000000000000e+01
1.311827182769774947e+00 3.245255231857299805e+00 -5.544037222862243652e-01 9.000000000000000000e+00
1.616509795188904031e+00 3.994978427886962891e+00 -5.291566848754882812e-01 1.000000000000000000e+01
2.103891849517821822e+00 5.196866512298583984e+00 -4.905125200748444159e-01 9.000000000000000000e+00
3.028255462646483931e+00 7.472655773162841797e+00 -4.225605130195618231e-01 2.000000000000000000e+00
5.389596939086914062e+00 1.328627872467041016e+01 -2.502675056457520086e-01 2.000000000000000000e+00
8.434538245201110840e-01 2.071987390518188032e+00 -5.994248986244201660e-01 1.700000000000000000e+01
9.603915214538574219e-01 2.356894493103026900e+00 -5.875721573829650879e-01 1.100000000000000000e+01
1.105815291404723899e+00 2.712423563003540039e+00 -5.693740248680114746e-01 1.000000000000000000e+01
1.324074387550354004e+00 3.244545221328734907e+00 -5.550295114517211914e-01 9.000000000000000000e+00
1.625244617462157981e+00 3.978569984436035156e+00 -5.276942849159240723e-01 9.000000000000000000e+00
2.112068414688109907e+00 5.167729377746582031e+00 -4.884207844734191895e-01 9.000000000000000000e+00
3.056044101715087891e+00 7.469966888427734375e+00 -4.229792058467864990e-01 2.000000000000000000e+00
5.433626174926757812e+00 1.326833343505859020e+01 -2.502675056457520086e-01 2.000000000000000000e+00
8.506813049316406250e-01 2.069030523300170898e+00 -5.994248986244201660e-01 1.900000000000000000e+01
9.686127305030822754e-01 2.353527545928955078e+00 -5.875721573829650879e-01 1.000000000000000000e+01
1.114529132843018022e+00 2.706731796264647993e+00 -5.689924359321594238e-01 1.000000000000000000e+01
1.331628084182739036e+00 3.230771780014038086e+00 -5.534651279449462891e-01 9.000000000000000000e+00
1.647450566291809082e+00 3.993057966232299805e+00 -5.303753614425659180e-01 1.000000000000000000e+01
2.130094289779663086e+00 5.160325527191162109e+00 -4.884207844734191895e-01 9.000000000000000000e+00
3.082100629806518999e+00 7.459253787994384766e+00 -4.229792058467864990e-01 2.000000000000000000e+00
5.464622497558593750e+00 1.321232795715332031e+01 -2.495694160461426059e-01 2.000000000000000000e+00
8.608617186546325684e-01 2.073184967041016069e+00 -6.014954447746276855e-01 1.900000000000000000e+01
9.723345041275024414e-01 2.339335203170775923e+00 -5.848727226257324219e-01 1.100000000000000000e+01
1.128493547439574973e+00 2.713701248168944868e+00 -5.712821483612060547e-01 1.000000000000000000e+01
1.342138290405272993e+00 3.224280357360839844e+00 -5.531522631645202637e-01 9.000000000000000000e+00
1.659088492393494096e+00 3.981785774230957031e+00 -5.296441912651062012e-01 9.000000000000000000e+00
2.151160717010498047e+00 5.160214424133300781e+00 -4.891180396080017090e-01 9.000000000000000000e+00
3.097351551055908203e+00 7.422644615173339844e+00 -4.215137958526610773e-01 1.000000000000000000e+00
5.526123523712158203e+00 1.323007678985596058e+01 -2.502675056457520086e-01 2.000000000000000000e+00
8.665991425514221191e-01 2.066604375839232954e+00 -6.004601716995239258e-01 1.900000000000000000e+01
9.804943799972534180e-01 2.335927009582519975e+00 -5.848727226257324219e-01 1.100000000000000000e+01
1.132638216018676980e+00 2.697074890136719194e+00 -5.686107873916625977e-01 9.000000000000000000e+00
1.357977986335753950e+00 3.230501890182495117e+00 -5.550295114517211914e-01 9.000000000000000000e+00
1.671437621116637962e+00 3.972310781478881836e+00 -5.291566848754882812e-01 9.000000000000000000e+00
2.172252416610718218e+00 5.160019397735595703e+00 -4.898152649402617853e-01 9.000000000000000000e+00
3.127895832061768022e+00 7.422831058502197266e+00 -4.221418201923369806e-01 2.000000000000000000e+00
5.539630413055419922e+00 1.313332176208495916e+01 -2.488014996051788053e-01 2.000000000000000000e+00
8.719415068626403809e-01 2.060161113739014116e+00 -5.994248986244201660e-01 1.800000000000000000e+01
9.912759065628051758e-01 2.339840173721313032e+00 -5.866723656654357910e-01 1.000000000000000000e+01
1.139277338981627974e+00 2.687881231307982954e+00 -5.674659609794616699e-01 1.000000000000000000e+01
1.367911696434020996e+00 3.224162340164185014e+00 -5.547165870666503906e-01 8.000000000000000000e+00
1.686928868293761985e+00 3.972227811813354048e+00 -5.298879146575927734e-01 1.000000000000000000e+01
2.186235189437866211e+00 5.145452499389648438e+00 -4.891180396080017090e-01 9.000000000000000000e+00
3.160310506820679155e+00 7.430797100067138672e+00 -4.231885373592377264e-01 2.000000000000000000e+00
5.570619106292724609e+00 1.308544063568115057e+01 -2.482430338859558105e-01 2.000000000000000000e+00
8.745724558830261230e-01 2.046446323394774947e+00 -5.963190793991088867e-01 1.700000000000000000e+01
1.002503156661987083e+00 2.343532323837279829e+00 -5.884719491004943848e-01 1.100000000000000000e+01
1.155604958534240945e+00 2.700132131576538086e+00 -5.709004998207092285e-01 1.000000000000000000e+01
1.375268459320067915e+00 3.210289001464844194e+00 -5.531522631645202637e-01 9.000000000000000000e+00
1.703131318092345969e+00 3.971788406372069868e+00 -5.306191444396972656e-01 9.000000000000000000e+00
2.197898626327515093e+00 5.123141765594482422e+00 -4.877235293388367254e-01 9.000000000000000000e+00
3.179924726486206055e+00 7.405038833618164062e+00 -4.223511815071105957e-01 2.000000000000000000e+00
5.602837085723876953e+00 1.303468418121338068e+01 -2.476496547460556030e-01 2.000000000000000000e+00
8.863505125045776367e-01 2.056107044219971147e+00 -5.999425649642944336e-01 1.900000000000000000e+01
1.009860634803771973e+00 2.340371370315552202e+00 -5.884719491004943848e-01 1.000000000000000000e+01
1.161747574806212935e+00 2.691081047058105025e+00 -5.697556734085083008e-01 1.000000000000000000e+01
1.386130571365356001e+00 3.207765817642211914e+00 -5.534651279449462891e-01 9.000000000000000000e+00
1.710872292518615945e+00 3.955486536026000977e+00 -5.291566848754882812e-01 9.000000000000000000e+00
2.217147588729857954e+00 5.123526096343994141e+00 -4.884207844734191895e-01 8.000000000000000000e+00
3.206348180770874023e+00 7.402342796325683594e+00 -4.227698445320128839e-01 1.000000000000000000e+00
5.623077392578125000e+00 1.296931648254395064e+01 -2.467421293258666992e-01 2.000000000000000000e+00
8.942931890487670898e-01 2.054771900177001953e+00 -6.004601716995239258e-01 1.700000000000000000e+01
1.013354063034058061e+00 2.326112747192382812e+00 -5.857725739479064941e-01 1.100000000000000000e+01
1.178193926811218040e+00 2.703207015991210938e+00 -5.731902122497558594e-01 1.100000000000000000e+01
1.394949674606323020e+00 3.197476148605347124e+00 -5.525265336036682129e-01 9.000000000000000000e+00
1.727846741676331010e+00 3.956767082214355025e+00 -5.301316380500793457e-01 9.000000000000000000e+00
2.242995023727416992e+00 5.134012699127197266e+00 -4.901638925075531006e-01 9.000000000000000000e+00
3.214562177658081055e+00 7.350847244262695312e+00 -4.204670786857604980e-01 1.000000000000000000e+00
9.029541015625000000e-01 2.053091287612915039e+00 -6.009778380393981934e-01 1.500000000000000000e+01
1.020707964897155984e+00 2.318637371063231978e+00 -5.848727226257324219e-01 1.100000000000000000e+01
1.181442856788635032e+00 2.682492733001708984e+00 -5.697556734085083008e-01 1.000000000000000000e+01
1.411201000213623047e+00 3.201133966445922852e+00 -5.540908575057983398e-01 9.000000000000000000e+00
1.731807351112365945e+00 3.924677610397338867e+00 -5.267193317413330078e-01 9.000000000000000000e+00
2.261887073516846147e+00 5.123539924621582031e+00 -4.899895787239075262e-01 9.000000000000000000e+00
3.257294416427611861e+00 7.371333122253417969e+00 -4.223511815071105957e-01 2.000000000000000000e+00
5.727702140808104581e+00 1.294969463348389027e+01 -2.471609860658645907e-01 2.000000000000000000e+00
9.093313217163085938e-01 2.048161268234252930e+00 -6.004601716995239258e-01 1.800000000000000000e+01
1.033543586730957031e+00 2.325745105743408203e+00 -5.875721573829650879e-01 1.100000000000000000e+01
1.189204096794127974e+00 2.674764394760131836e+00 -5.689924359321594238e-01 9.000000000000000000e+00
1.419957041740417036e+00 3.190774202346802202e+00 -5.531522631645202637e-01 9.000000000000000000e+00
1.750342845916748047e+00 3.929488420486450195e+00 -5.281817317008972168e-01 9.000000000000000000e+00
2.271647691726685014e+00 5.097414493560791016e+00 -4.882464706897736151e-01 9.000000000000000000e+00
3.287887096405028853e+00 7.370862483978270596e+00 -4.229792058467864990e-01 2.000000000000000000e+00
5.779392242431640625e+00 1.294423007965088068e+01 -2.474402189254761020e-01 2.000000000000000000e+00
9.133149385452270508e-01 2.037922859191894975e+00 -5.983896255493164062e-01 1.500000000000000000e+01
1.040060400962830034e+00 2.318567276000977007e+00 -5.866723656654357910e-01 1.100000000000000000e+01
1.197729706764220969e+00 2.668806076049805132e+00 -5.686107873916625977e-01 9.000000000000000000e+00
1.432705163955688032e+00 3.189402103424071822e+00 -5.537779927253723145e-01 9.000000000000000000e+00
1.765676736831665039e+00 3.926975727081298828e+00 -5.286692380905151367e-01 9.000000000000000000e+00
2.290244340896606001e+00 5.091270923614501953e+00 -4.884207844734191895e-01 9.000000000000000000e+00
3.321796178817749023e+00 7.377552032470703125e+00 -4.240259230136870783e-01 1.000000000000000000e+00
5.821254253387451172e+00 1.291668415069580078e+01 -2.473005950450896939e-01 2.000000000000000000e+00
9.196268320083618164e-01 2.032962322235106978e+00 -5.978720188140869141e-01 1.400000000000000000e+01
1.048147439956665039e+00 2.314922571182250977e+00 -5.866723656654357910e-01 1.000000000000000000e+01
1.207038283348083052e+00 2.664608955383300781e+00 -5.686107873916625977e-01 1.100000000000000000e+01
1.438935160636902078e+00 3.173587083816527876e+00 -5.519008040428161621e-01 9.000000000000000000e+00
1.785936594009398970e+00 3.935249567031859907e+00 -5.306191444396972656e-01 9.000000000000000000e+00
2.304707527160644975e+00 5.075989246368408203e+00 -4.877235293388367254e-01 9.000000000000000000e+00
3.327696084976195845e+00 7.322272777557373047e+00 -4.215137958526610773e-01 2.000000000000000000e+00
5.869618415832520419e+00 1.290356731414794922e+01 -2.474402189254761020e-01 2.000000000000000000e+00
9.311755895614624023e-01 2.040446519851685014e+00 -6.009778380393981934e-01 1.600000000000000000e+01
1.054198861122130904e+00 2.307888984680175781e+00 -5.857725739479064941e-01 1.100000000000000000e+01
1.221579909324645996e+00 2.673090934753417969e+00 -5.712821483612060547e-01 1.000000000000000000e+01
1.452737927436829057e+00 3.175983428955078125e+00 -5.531522631645202637e-01 9.000000000000000000e+00
1.790712952613831010e+00 3.911256551742554155e+00 -5.281817317008972168e-01 9.000000000000000000e+00
2.329824447631835938e+00 5.086432456970214844e+00 -4.894666373729705811e-01 9.000000000000000000e+00
3.358618259429932085e+00 7.325722217559813565e+00 -4.223511815071105957e-01 1.000000000000000000e+00
5.895695209503173828e+00 1.284768199920653942e+01 -2.467421293258666992e-01 2.000000000000000000e+00
9.423332810401916504e-01 2.045957088470458984e+00 -6.035659909248352051e-01 1.500000000000000000e+01
1.063880205154418945e+00 2.307734489440917969e+00 -5.866723656654357910e-01 1.000000000000000000e+01
1.228436589241028054e+00 2.663462162017821822e+00 -5.701372623443603516e-01 9.000000000000000000e+00
1.465471267700195090e+00 3.174480199813843218e+00 -5.537779927253723145e-01 9.000000000000000000e+00
1.806020259857177956e+00 3.908585786819458008e+00 -5.286692380905151367e-01 1.000000000000000000e+01
2.345893383026123047e+00 5.074651718139648438e+00 -4.891180396080017090e-01 9.000000000000000000e+00
3.377459764480590820e+00 7.299452781677246094e+00 -4.215137958526610773e-01 1.000000000000000000e+00
5.940506458282470703e+00 1.282702445983887074e+01 -2.467421293258666992e-01 2.000000000000000000e+00
9.421405792236328125e-01 2.026888608932495117e+00 -5.989072918891906738e-01 1.500000000000000000e+01
1.070285081863403098e+00 2.300472974777222124e+00 -5.857725739479064941e-01 1.100000000000000000e+01
1.236069440841675027e+00 2.655598163604735884e+00 -5.693740248680114746e-01 9.000000000000000000e+00
1.479880213737488015e+00 3.176507711410522017e+00 -5.550295114517211914e-01 9.000000000000000000e+00
1.817974925041198953e+00 3.898659706115723100e+00 -5.281817317008972168e-01 9.000000000000000000e+00
2.366119861602783203e+00 5.071848869323729581e+00 -4.896409511566162109e-01 9.000000000000000000e+00
3.399538993835449219e+00 7.280379772186279297e+00 -4.210951030254364014e-01 1.000000000000000000e+00
5.985244750976563388e+00 1.280620956420898082e+01 -2.467421293258666992e-01 2.000000000000000000e+00
9.516712427139282227e-01 2.028834581375122070e+00 -6.004601716995239258e-01 1.700000000000000000e+01
1.078308701515197976e+00 2.296723127365111861e+00 -5.857725739479064941e-01 1.100000000000000000e+01
1.244496941566467063e+00 2.649490356445312944e+00 -5.689924359321594238e-01 1.000000000000000000e+01
1.487597465515136941e+00 3.164171934127808061e+00 -5.537779927253723145e-01 9.000000000000000000e+00
1.833263039588928001e+00 3.895882368087768999e+00 -5.286692380905151367e-01 9.000000000000000000e+00
2.376171827316284180e+00 5.047335147857666016e+00 -4.880721569061278742e-01 9.000000000000000000e+00
3.428336858749390093e+00 7.275695800781250000e+00 -4.215137958526610773e-01 2.000000000000000000e+00
6.019674301147460938e+00 1.276353549957275035e+01 -2.463232576847076138e-01 2.000000000000000000e+00
9.575676321983337402e-01 2.023921251296997070e+00 -5.999425649642944336e-01 1.900000000000000000e+01
1.085919022560120073e+00 2.293134689331055132e+00 -5.857725739479064941e-01 1.100000000000000000e+01
1.255797863006592019e+00 2.650671482086182085e+00 -5.701372623443603516e-01 1.000000000000000000e+01
1.491311073303223100e+00 3.144942522048950195e+00 -5.512750744819641113e-01 9.000000000000000000e+00
1.851279139518738015e+00 3.900541782379149947e+00 -5.301316380500793457e-01 1.000000000000000000e+01
2.401442289352416992e+00 5.057425975799561435e+00 -4.898152649402617853e-01 9.000000000000000000e+00
3.449015617370605025e+00 7.257071495056152344e+00 -4.210951030254364014e-01 2.000000000000000000e+00
6.055094718933104581e+00 1.272905731201172053e+01 -2.460440248250961026e-01 2.000000000000000000e+00
9.654589295387268066e-01 2.022309780120850053e+00 -6.004601716995239258e-01 1.700000000000000000e+01
1.088875889778136985e+00 2.278780221939086914e+00 -5.830731391906738281e-01 1.200000000000000000e+01
1.265042781829833984e+00 2.646271705627440962e+00 -5.701372623443603516e-01 1.000000000000000000e+01
1.505690217018126997e+00 3.146845340728760210e+00 -5.525265336036682129e-01 9.000000000000000000e+00
1.861453652381896973e+00 3.886894226074219194e+00 -5.291566848754882812e-01 9.000000000000000000e+00
2.419081449508666992e+00 5.049012184143066406e+00 -4.898152649402617853e-01 9.000000000000000000e+00
3.474326610565185991e+00 7.244987964630126953e+00 -4.210951030254364014e-01 2.000000000000000000e+00
6.087376117706298828e+00 1.268260478973389027e+01 -2.455553561449050903e-01 2.000000000000000000e+00
9.750273227691650391e-01 2.024148702621459961e+00 -6.020131111145019531e-01 1.600000000000000000e+01
1.101901531219481978e+00 2.285497665405272993e+00 -5.857725739479064941e-01 1.000000000000000000e+01
1.273419380187988059e+00 2.640071630477904829e+00 -5.697556734085083008e-01 1.000000000000000000e+01
1.516665577888488992e+00 3.141570329666138139e+00 -5.525265336036682129e-01 1.000000000000000000e+01
1.870691776275634988e+00 3.871436119079589844e+00 -5.279380083084106445e-01 1.000000000000000000e+01
2.434956789016724077e+00 5.036950111389160156e+00 -4.894666373729705811e-01 9.000000000000000000e+00
3.499595165252685991e+00 7.232816219329833984e+00 -4.210951030254364014e-01 1.000000000000000000e+00
6.131609439849854404e+00 1.266127777099609020e+01 -2.455553561449050903e-01 2.000000000000000000e+00
9.778648018836975098e-01 2.012045383453369141e+00 -5.994248986244201660e-01 1.600000000000000000e+01
1.108167886734009011e+00 2.278132438659667969e+00 -5.848727226257324219e-01 1.100000000000000000e+01
1.280049920082092063e+00 2.630314350128173828e+00 -5.686107873916625977e-01 9.000000000000000000e+00
1.532812595367432085e+00 3.146912574768065962e+00 -5.544037222862243652e-01 9.000000000000000000e+00
1.883324384689331055e+00 3.863098144531250000e+00 -5.276942849159240723e-01 9.000000000000000000e+00
2.456017732620238814e+00 5.035582542419433594e+00 -4.901638925075531006e-01 9.000000000000000000e+00
3.528325796127318892e+00 7.227735519409179688e+00 -4.215137958526610773e-01 1.000000000000000000e+00
6.170501232147216797e+00 1.262901782989501953e+01 -2.453459352254868109e-01 2.000000000000000000e+00
9.865831732749938965e-01 2.012088775634766069e+00 -6.004601716995239258e-01 1.600000000000000000e+01
1.122981667518615945e+00 2.288245916366577148e+00 -5.884719491004943848e-01 1.000000000000000000e+01
1.288358330726623979e+00 2.624068021774291992e+00 -5.682291984558105469e-01 1.000000000000000000e+01
1.541174411773682085e+00 3.136224031448363814e+00 -5.534651279449462891e-01 8.000000000000000000e+00
1.913443922996520996e+00 3.890345335006713867e+00 -5.323252677917480469e-01 1.000000000000000000e+01
2.466542959213256836e+00 5.012677192687988281e+00 -4.887694120407103937e-01 9.000000000000000000e+00
3.558828353881835938e+00 7.226125717163085938e+00 -4.221418201923369806e-01 1.000000000000000000e+00
6.205705642700195312e+00 1.258946514129639027e+01 -2.449968755245209018e-01 2.000000000000000000e+00
9.953137636184692383e-01 2.012095928192139116e+00 -6.014954447746276855e-01 1.700000000000000000e+01
1.129233002662658913e+00 2.280819177627563032e+00 -5.875721573829650879e-01 1.100000000000000000e+01
1.306224107742310014e+00 2.637147426605225053e+00 -5.720453858375549316e-01 1.000000000000000000e+01
1.547725439071655051e+00 3.121976137161254883e+00 -5.519008040428161621e-01 9.000000000000000000e+00
1.916424036026000977e+00 3.862303733825684038e+00 -5.294004082679748535e-01 1.000000000000000000e+01
2.491112709045410156e+00 5.018313884735107422e+00 -4.901638925075531006e-01 9.000000000000000000e+00
3.575143814086914062e+00 7.195772647857666016e+00 -4.210951030254364014e-01 2.000000000000000000e+00
6.249613285064697266e+00 1.256772708892822088e+01 -2.449968755245209018e-01 2.000000000000000000e+00
1.001468658447266069e+00 2.006880760192871094e+00 -6.009778380393981934e-01 1.600000000000000000e+01
1.135446190834044966e+00 2.273376703262329102e+00 -5.866723656654357910e-01 1.000000000000000000e+01
1.312788963317871094e+00 2.627303123474121094e+00 -5.709004998207092285e-01 1.000000000000000000e+01
1.560380935668945090e+00 3.120088100433350053e+00 -5.525265336036682129e-01 1.000000000000000000e+01
1.930782914161681907e+00 3.857365846633911133e+00 -5.296441912651062012e-01 9.000000000000000000e+00
2.500585556030272993e+00 4.993554115295410156e+00 -4.885950982570648193e-01 9.000000000000000000e+00
3.593080520629882812e+00 7.168964862823486328e+00 -4.202577173709868830e-01 1.000000000000000000e+00
6.279098987579345703e+00 1.251723670959473012e+01 -2.444384098052979071e-01 2.000000000000000000e+00
1.014548182487488015e+00 2.015451669692993164e+00 -6.046012639999389648e-01 1.600000000000000000e+01
1.143374800682068093e+00 2.269399404525756836e+00 -5.866723656654357910e-01 1.100000000000000000e+01
1.320184707641602007e+00 2.619198322296143022e+00 -5.701372623443603516e-01 1.000000000000000000e+01
1.573042035102844016e+00 3.118149757385253906e+00 -5.531522631645202637e-01 9.000000000000000000e+00
1.937972784042357954e+00 3.838198423385620117e+00 -5.279380083084106445e-01 1.000000000000000000e+01
2.526086091995238814e+00 5.000800609588623047e+00 -4.901638925075531006e-01 9.000000000000000000e+00
3.616280794143677202e+00 7.152813911437988281e+00 -4.200483858585358221e-01 2.000000000000000000e+00
6.317336559295654297e+00 1.248453617095947088e+01 -2.442289739847182950e-01 2.000000000000000000e+00
1.015980124473571999e+00 2.001740217208861861e+00 -6.014954447746276855e-01 1.800000000000000000e+01
1.149128913879394975e+00 2.262120485305786133e+00 -5.857725739479064941e-01 1.100000000000000000e+01
1.327973484992980957e+00 2.613055944442749023e+00 -5.697556734085083008e-01 1.000000000000000000e+01
1.585164666175842063e+00 3.116437435150146040e+00 -5.537779927253723145e-01 9.000000000000000000e+00
1.949789404869080034e+00 3.829981803894042969e+00 -5.276942849159240723e-01 9.000000000000000000e+00
2.540847063064575195e+00 4.988845348358154297e+00 -4.898152649402617853e-01 9.000000000000000000e+00
3.643608808517456055e+00 7.147900104522705078e+00 -4.204670786857604980e-01 2.000000000000000000e+00
6.369607448577880859e+00 1.248489379882813033e+01 -2.446478307247161865e-01 2.000000000000000000e+00
1.018559575080872026e+00 1.989583492279052956e+00 -5.989072918891906738e-01 1.900000000000000000e+01
1.162350058555603027e+00 2.268501520156859907e+00 -5.884719491004943848e-01 1.000000000000000000e+01
1.334399938583374023e+00 2.603163242340087891e+00 -5.686107873916625977e-01 9.000000000000000000e+00
1.596033453941344993e+00 3.110885381698607954e+00 -5.537779927253723145e-01 9.000000000000000000e+00
1.968587279319762962e+00 3.833747625350952148e+00 -5.291566848754882812e-01 9.000000000000000000e+00
2.552783489227294922e+00 4.969312191009520596e+00 -4.887694120407103937e-01 9.000000000000000000e+00
3.668537378311156782e+00 7.135138034820556641e+00 -4.204670786857604980e-01 2.000000000000000000e+00
6.391189575195313388e+00 1.241990947723389027e+01 -2.438101172447204867e-01 2.000000000000000000e+00
1.029929995536803977e+00 1.994598507881164995e+00 -6.014954447746276855e-01 1.900000000000000000e+01
1.164893388748168945e+00 2.254043102264403853e+00 -5.857725739479064941e-01 1.100000000000000000e+01
1.347085237503051980e+00 2.605465173721313032e+00 -5.701372623443603516e-01 9.000000000000000000e+00
1.603251338005065918e+00 3.098277568817139116e+00 -5.525265336036682129e-01 9.000000000000000000e+00
1.983783483505249023e+00 3.830378055572510210e+00 -5.296441912651062012e-01 9.000000000000000000e+00
2.576529979705810991e+00 4.972754478454589844e+00 -4.899895787239075262e-01 8.000000000000000000e+00
3.700776815414429155e+00 7.136473655700683594e+00 -4.213044345378875732e-01 2.000000000000000000e+00
6.434504032135009766e+00 1.239752483367919922e+01 -2.438101172447204867e-01 2.000000000000000000e+00
1.035993814468384011e+00 1.989277839660644975e+00 -6.009778380393981934e-01 2.100000000000000000e+01
1.172754406929015891e+00 2.249963045120238814e+00 -5.857725739479064941e-01 1.100000000000000000e+01
1.358895063400268999e+00 2.605969429016112837e+00 -5.712821483612060547e-01 1.000000000000000000e+01
1.621368288993835005e+00 3.106672048568726030e+00 -5.550295114517211914e-01 9.000000000000000000e+00
1.993465542793273926e+00 3.816391944885253906e+00 -5.286692380905151367e-01 9.000000000000000000e+00
2.592949867248535156e+00 4.961964607238770419e+00 -4.898152649402617853e-01 9.000000000000000000e+00
3.720111370086669922e+00 7.112893104553222656e+00 -4.206764101982117254e-01 2.000000000000000000e+00
6.481449604034423828e+00 1.238207530975341975e+01 -2.439497411251068115e-01 2.000000000000000000e+00
1.049219489097594993e+00 1.997621536254883035e+00 -6.046012639999389648e-01 2.000000000000000000e+01
1.178787589073180930e+00 2.242405891418457031e+00 -5.848727226257324219e-01 1.100000000000000000e+01
1.363414168357848899e+00 2.592522144317626953e+00 -5.693740248680114746e-01 9.000000000000000000e+00
1.626682281494141069e+00 3.090505361557006836e+00 -5.531522631645202637e-01 9.000000000000000000e+00
2.006775140762329102e+00 3.809410333633422852e+00 -5.286692380905151367e-01 9.000000000000000000e+00
2.606538772583007812e+00 4.945832729339599609e+00 -4.891180396080017090e-01 9.000000000000000000e+00
3.748644590377808061e+00 7.106930255889892578e+00 -4.210951030254364014e-01 2.000000000000000000e+00
6.505960464477539062e+00 1.232400703430175959e+01 -2.432516366243361872e-01 2.000000000000000000e+00
1.048047661781311035e+00 1.978582501411437988e+00 -5.999425649642944336e-01 1.900000000000000000e+01
1.190258860588073953e+00 2.245164394378662109e+00 -5.866723656654357910e-01 1.100000000000000000e+01
1.376134991645812988e+00 2.594684839248656782e+00 -5.709004998207092285e-01 1.000000000000000000e+01
1.643017292022705078e+00 3.095277070999145952e+00 -5.550295114517211914e-01 9.000000000000000000e+00
2.026579618453979048e+00 3.814653396606444868e+00 -5.303753614425659180e-01 1.000000000000000000e+01
2.626592397689818892e+00 4.941982269287109375e+00 -4.896409511566162109e-01 9.000000000000000000e+00
3.752794504165648970e+00 7.055008888244628906e+00 -4.187923073768615723e-01 2.000000000000000000e+00
6.548939704895020419e+00 1.230122184753417969e+01 -2.432516366243361872e-01 2.000000000000000000e+00
1.055513143539428933e+00 1.976800322532654031e+00 -6.004601716995239258e-01 1.900000000000000000e+01
1.200453042984009011e+00 2.246361255645751953e+00 -5.880220532417297363e-01 1.200000000000000000e+01
1.378252387046813965e+00 2.577987670898437944e+00 -5.682291984558105469e-01 9.000000000000000000e+00
1.651408672332763894e+00 3.086328268051147017e+00 -5.544037222862243652e-01 9.000000000000000000e+00
2.034532546997069868e+00 3.799162387847899947e+00 -5.291566848754882812e-01 9.000000000000000000e+00
2.634498119354248047e+00 4.917438983917236328e+00 -4.880721569061278742e-01 7.000000000000000000e+00
3.796932697296143022e+00 7.081249713897705078e+00 -4.210951030254364014e-01 2.000000000000000000e+00
6.604825496673583984e+00 1.230762958526610973e+01 -2.438101172447204867e-01 2.000000000000000000e+00
1.062407016754149947e+00 1.973103880882262962e+00 -6.004601716995239258e-01 2.000000000000000000e+01
1.211060404777527078e+00 2.247303724288939986e+00 -5.893717408180236816e-01 1.100000000000000000e+01
1.392832756042480025e+00 2.583529472351074219e+00 -5.705189108848571777e-01 9.000000000000000000e+00
1.659357786178589089e+00 3.075329542160034180e+00 -5.534651279449462891e-01 9.000000000000000000e+00
2.051554679870605025e+00 3.799024105072021040e+00 -5.301316380500793457e-01 9.000000000000000000e+00
2.657329082489014116e+00 4.918730258941650391e+00 -4.891180396080017090e-01 9.000000000000000000e+00
3.810228347778319868e+00 7.046870231628417969e+00 -4.198390543460845947e-01 2.000000000000000000e+00
6.632519245147705078e+00 1.225636005401610973e+01 -2.432516366243361872e-01 2.000000000000000000e+00
1.069287896156311035e+00 1.969383358955383079e+00 -6.004601716995239258e-01 1.900000000000000000e+01
1.213314890861511008e+00 2.232789039611815962e+00 -5.866723656654357910e-01 1.100000000000000000e+01
1.400904774665832964e+00 2.576927185058594194e+00 -5.701372623443603516e-01 9.000000000000000000e+00
1.669138550758362038e+00 3.067783355712891069e+00 -5.531522631645202637e-01 9.000000000000000000e+00
2.063853979110718218e+00 3.790096282958983931e+00 -5.298879146575927734e-01 1.000000000000000000e+01
2.672576189041138139e+00 4.905925273895263672e+00 -4.887694120407103937e-01 8.000000000000000000e+00
3.821418285369873047e+00 7.008976936340332031e+00 -4.183736443519591730e-01 2.000000000000000000e+00
6.659935951232910156e+00 1.220504760742188033e+01 -2.426931709051131925e-01 2.000000000000000000e+00
1.081722140312195046e+00 1.975805997848510964e+00 -6.035659909248352051e-01 2.000000000000000000e+01
1.219228506088257058e+00 2.225122213363647017e+00 -5.857725739479064941e-01 1.200000000000000000e+01
1.408947706222533958e+00 2.570299863815308061e+00 -5.697556734085083008e-01 1.100000000000000000e+01
1.679836869239806907e+00 3.061938285827637163e+00 -5.531522631645202637e-01 9.000000000000000000e+00
2.066561698913574219e+00 3.763728380203247070e+00 -5.272067785263061523e-01 9.000000000000000000e+00
2.701195716857910156e+00 4.917521953582763672e+00 -4.908611476421356201e-01 9.000000000000000000e+00
3.859331607818603960e+00 7.020098209381104404e+00 -4.198390543460845947e-01 2.000000000000000000e+00
6.694787025451660156e+00 1.216770935058593928e+01 -2.424139231443404874e-01 2.000000000000000000e+00
1.084191799163817915e+00 1.965631484985352007e+00 -6.014954447746276855e-01 1.900000000000000000e+01
1.226212859153748003e+00 2.221280813217163086e+00 -5.857725739479064941e-01 1.100000000000000000e+01
1.414168238639831987e+00 2.560704946517943892e+00 -5.686107873916625977e-01 1.100000000000000000e+01
1.695181369781493919e+00 3.067019224166870117e+00 -5.550295114517211914e-01 9.000000000000000000e+00
2.089905977249145952e+00 3.778062105178833008e+00 -5.301316380500793457e-01 9.000000000000000000e+00
2.708913326263428178e+00 4.895065307617188388e+00 -4.894666373729705811e-01 9.000000000000000000e+00
3.889108180999755859e+00 7.021916389465332031e+00 -4.206764101982117254e-01 2.000000000000000000e+00
6.732979774475097656e+00 1.214661788940430043e+01 -2.424139231443404874e-01 2.000000000000000000e+00
1.082596182823180930e+00 1.946640014648437944e+00 -5.968367457389831543e-01 1.900000000000000000e+01
1.238697886466979980e+00 2.225500822067261186e+00 -5.880220532417297363e-01 1.300000000000000000e+01
1.425008416175842063e+00 2.559183597564696822e+00 -5.693740248680114746e-01 1.100000000000000000e+01
1.702030539512634055e+00 3.054181098937987837e+00 -5.537779927253723145e-01 9.000000000000000000e+00
2.103081226348876953e+00 3.770743846893310991e+00 -5.301316380500793457e-01 1.000000000000000000e+01
2.724042415618896040e+00 4.882100105285645419e+00 -4.891180396080017090e-01 9.000000000000000000e+00
3.898015260696411133e+00 6.980397701263427734e+00 -4.190016686916350763e-01 2.000000000000000000e+00
6.765583038330078125e+00 1.210558509826659979e+01 -2.420648783445357999e-01 2.000000000000000000e+00
1.092218995094299094e+00 1.947904348373413086e+00 -5.983896255493164062e-01 1.900000000000000000e+01
1.245505094528198020e+00 2.219463825225830078e+00 -5.875721573829650879e-01 1.200000000000000000e+01
1.435855031013488992e+00 2.557617664337158203e+00 -5.701372623443603516e-01 1.100000000000000000e+01
1.706875562667846902e+00 3.037888288497924805e+00 -5.519008040428161621e-01 9.000000000000000000e+00
2.120122671127318892e+00 3.770300865173339844e+00 -5.311065912246704102e-01 1.000000000000000000e+01
2.744974851608275923e+00 4.879507541656494141e+00 -4.898152649402617853e-01 8.000000000000000000e+00
3.922357559204102007e+00 6.966748237609863281e+00 -4.190016686916350763e-01 2.000000000000000000e+00
6.813687801361083984e+00 1.209234809875487926e+01 -2.422742992639541904e-01 2.000000000000000000e+00
1.101863980293273926e+00 1.949125170707703081e+00 -5.999425649642944336e-01 1.900000000000000000e+01
1.251325607299804910e+00 2.211710691452025923e+00 -5.866723656654357910e-01 1.100000000000000000e+01
1.449609279632567915e+00 2.561132669448852983e+00 -5.720453858375549316e-01 1.100000000000000000e+01
1.718443036079406960e+00 3.033630371093750000e+00 -5.522136688232421875e-01 9.000000000000000000e+00
2.121522426605225053e+00 3.742154836654663086e+00 -5.281817317008972168e-01 9.000000000000000000e+00
2.764939546585083008e+00 4.875095367431640625e+00 -4.903382062911986750e-01 9.000000000000000000e+00
3.950595855712891069e+00 6.959962368011474609e+00 -4.194203615188599188e-01 2.000000000000000000e+00
6.841040611267089844e+00 1.204240894317626953e+01 -2.417507320642471036e-01 2.000000000000000000e+00
1.118226647377013938e+00 1.962051033973694070e+00 -6.051189303398132324e-01 2.100000000000000000e+01
1.260969400405884011e+00 2.210714578628540039e+00 -5.875721573829650879e-01 1.000000000000000000e+01
1.455621480941772017e+00 2.550941467285155806e+00 -5.709004998207092285e-01 1.100000000000000000e+01
1.733919978141784890e+00 3.036190271377563032e+00 -5.537779927253723145e-01 9.000000000000000000e+00
2.132601976394652876e+00 3.731279611587523970e+00 -5.276942849159240723e-01 9.000000000000000000e+00
2.780951023101807085e+00 4.863684654235839844e+00 -4.901638925075531006e-01 9.000000000000000000e+00
3.970898866653441939e+00 6.939195632934570312e+00 -4.190016686916350763e-01 2.000000000000000000e+00
6.869121551513671875e+00 1.199416255950927912e+01 -2.412620633840560913e-01 2.000000000000000000e+00
