-5.873605728149414062e+00 -3.109065592288970947e-01 -7.221977114677429199e-01 1.100000000000000000e+01
-8.619044303894042969e+00 -4.547218978404998779e-01 -7.551173567771911621e-01 2.000000000000000000e+00
-3.475963211059570312e+01 -1.809508562088012917e+00 -6.075531840324401855e-01 1.300000000000000000e+01
-2.579577922821044922e+00 -1.306757777929306030e-01 -6.920821070671081543e-01 2.100000000000000000e+01
-2.993376731872559038e+00 -1.505903750658035001e-01 -6.919494271278381348e-01 2.400000000000000000e+01
-4.494739532470703125e+01 -2.261207342147827148e+00 2.358572244644165039e+00 3.400000000000000000e+01
-3.560798168182373047e+00 -1.785130798816680908e-01 -6.930182576179504395e-01 1.200000000000000000e+01
-4.481073379516602273e+01 -2.238650798797606978e+00 3.925320386886597124e+00 5.400000000000000000e+01
-4.458829402923583984e+00 -2.219736874103545865e-01 -7.070837616920471191e-01 8.000000000000000000e+00
-5.856811046600341797e+00 -2.895198762416840155e-01 -7.200040817260742188e-01 1.100000000000000000e+01
-8.604659080505371094e+00 -4.238488674163817804e-01 -7.537228465080261230e-01 2.000000000000000000e+00
-1.710206031799316051e+01 -8.364302515983581543e-01 -8.973522782325744629e-01 5.000000000000000000e+00
-3.472578811645507812e+01 -1.686223983764647993e+00 -6.068550944328308105e-01 2.000000000000000000e+01
-2.566510438919066939e+00 -1.210335567593574940e-01 -6.884586811065673828e-01 1.900000000000000000e+01
-2.991937637329102007e+00 -1.400495022535324097e-01 -6.914995312690734863e-01 2.300000000000000000e+01
-4.494341278076171875e+01 -2.095893383026123047e+00 2.357944250106811968e+00 3.400000000000000000e+01
-3.551593780517578125e+00 -1.656252145767211914e-01 -6.911101937294006348e-01 1.800000000000000000e+01
-4.481429290771483664e+01 -2.082033634185791016e+00 3.924971818923950195e+00 5.400000000000000000e+01
-4.443790912628173828e+00 -2.056774646043776911e-01 -7.045808434486389160e-01 8.000000000000000000e+00
-5.849853992462158203e+00 -2.687096893787384033e-01 -7.190291285514831543e-01 1.100000000000000000e+01
-8.590164184570312500e+00 -3.930818140506743830e-01 -7.523283958435058594e-01 2.000000000000000000e+00
-3.470349502563477273e+01 -1.563737869262695090e+00 -6.063663959503173828e-01 1.300000000000000000e+01
-2.555337190628052202e+00 -1.115684285759925981e-01 -6.853528022766113281e-01 1.900000000000000000e+01
-4.479683303833007812e+01 -1.948038578033447044e+00 7.826706171035766602e-01 4.800000000000000000e+01
-2.988514423370360884e+00 -1.294361948966979980e-01 -6.905997395515441895e-01 2.300000000000000000e+01
-4.487828063964843750e+01 -1.943732976913451926e+00 2.354176044464110884e+00 3.400000000000000000e+01
-3.552150487899779829e+00 -1.532268226146697998e-01 -6.911101937294006348e-01 2.000000000000000000e+01
-4.482526779174804688e+01 -1.925760865211487038e+00 3.925320386886597124e+00 5.400000000000000000e+01
-4.440534591674804688e+00 -1.899956017732619962e-01 -7.039551138877868652e-01 1.000000000000000000e+01
-5.854722976684570312e+00 -2.484565824270248136e-01 -7.195165753364562988e-01 1.100000000000000000e+01
-8.607408523559570312e+00 -3.637671768665314276e-01 -7.537228465080261230e-01 2.000000000000000000e+00
-3.470874404907227273e+01 -1.442590594291687012e+00 -6.063663959503173828e-01 1.300000000000000000e+01
-2.559571743011475053e+00 -1.028030142188072066e-01 -6.863881349563598633e-01 1.900000000000000000e+01
-4.471144866943358664e+01 -1.787981152534485085e+00 7.810649871826171875e-01 4.800000000000000000e+01
-2.990895271301269975e+00 -1.190810725092888017e-01 -6.910496354103088379e-01 2.400000000000000000e+01
-3.554625272750854048e+00 -1.409043371677398959e-01 -6.914917826652526855e-01 1.900000000000000000e+01
-4.481977462768554688e+01 -1.768808364868164062e+00 3.924274444580078125e+00 5.400000000000000000e+01
-4.427353858947753906e+00 -1.739512085914612094e-01 -7.017650008201599121e-01 1.600000000000000000e+01
-5.847620010375976562e+00 -2.277092933654784879e-01 -7.185416221618652344e-01 1.100000000000000000e+01
-8.588716506958007812e+00 -3.329477012157440186e-01 -7.519797682762145996e-01 2.000000000000000000e+00
-3.472155761718750000e+01 -1.321729898452759011e+00 -6.065060496330261230e-01 1.300000000000000000e+01
-2.563776016235352007e+00 -9.400939941406250000e-02 -6.874234080314636230e-01 2.000000000000000000e+01
-4.472541046142578125e+01 -1.632189869880676047e+00 7.812046408653259277e-01 4.800000000000000000e+01
-2.983502864837646040e+00 -1.083572581410408020e-01 -6.892500519752502441e-01 2.200000000000000000e+01
-3.570791244506835938e+00 -1.290628314018250067e-01 -6.945447325706481934e-01 1.900000000000000000e+01
-4.483363723754882812e+01 -1.612633824348449929e+00 3.924971818923950195e+00 5.400000000000000000e+01
-4.422011852264404297e+00 -1.582838147878647128e-01 -7.008264064788818359e-01 1.300000000000000000e+01
-5.848379611968994141e+00 -2.072959095239639005e-01 -7.185416221618652344e-01 1.100000000000000000e+01
-8.587835311889648438e+00 -3.028952479362487793e-01 -7.518054246902465820e-01 3.000000000000000000e+00
-3.467399978637695312e+01 -1.198724627494812012e+00 -6.055985093116760254e-01 1.300000000000000000e+01
-2.567950010299683061e+00 -8.518768101930618286e-02 -6.884586811065673828e-01 2.000000000000000000e+01
-4.472283935546875000e+01 -1.475795269012450950e+00 7.810649871826171875e-01 4.800000000000000000e+01
-2.981915235519409180e+00 -9.787829965353012085e-02 -6.888001561164855957e-01 2.300000000000000000e+01
-3.557484626770019975e+00 -1.161492094397545000e-01 -6.918734312057495117e-01 1.800000000000000000e+01
-4.481111526489257812e+01 -1.455220103263854980e+00 3.922531366348267046e+00 5.400000000000000000e+01
-4.428460597991943359e+00 -1.430384665727615079e-01 -7.017650008201599121e-01 1.700000000000000000e+01
-5.823274612426757812e+00 -1.860558986663818082e-01 -7.153730392456054688e-01 1.300000000000000000e+01
-8.570918083190917969e+00 -2.723467648029326837e-01 -7.502366304397583008e-01 3.000000000000000000e+00
-3.465798568725585938e+01 -1.077061414718627930e+00 -6.052494645118713379e-01 2.000000000000000000e+01
-2.558576822280883789e+00 -7.593678683042526245e-02 -6.858704686164855957e-01 2.100000000000000000e+01
-4.473571395874022727e+01 -1.319910287857056108e+00 7.812046408653259277e-01 4.800000000000000000e+01
-2.980290889739989790e+00 -8.741173893213272095e-02 -6.883502006530761719e-01 2.400000000000000000e+01
-3.548056125640869141e+00 -1.034444868564605990e-01 -6.899653077125549316e-01 2.000000000000000000e+01
-4.481592178344727273e+01 -1.298791170120239036e+00 3.922531366348267046e+00 5.400000000000000000e+01
-4.428932666778563565e+00 -1.275793761014938077e-01 -7.017650008201599121e-01 1.600000000000000000e+01
-5.815951347351074219e+00 -1.655018776655196866e-01 -7.143980860710144043e-01 1.300000000000000000e+01
-8.559866905212402344e+00 -2.420890480279921930e-01 -7.491907477378845215e-01 2.000000000000000000e+00
-3.466153335571289062e+01 -9.560758471488952637e-01 -6.052494645118713379e-01 1.300000000000000000e+01
-2.553009271621704102e+00 -6.774468719959259033e-02 -6.843175292015075684e-01 2.300000000000000000e+01
-4.475563430786132812e+01 -1.179784178733825906e+00 7.814838290214538574e-01 4.800000000000000000e+01
-2.984446763992310014e+00 -7.815048843622207642e-02 -6.892500519752502441e-01 2.400000000000000000e+01
-3.544438600540161133e+00 -9.219534695148468018e-02 -6.892020702362060547e-01 2.000000000000000000e+01
-4.481978225708007812e+01 -1.157991647720336914e+00 3.922531366348267046e+00 5.400000000000000000e+01
-4.437210559844970703e+00 -1.138675659894942960e-01 -7.030164599418640137e-01 1.700000000000000000e+01
-5.818427085876464844e+00 -1.472799628973006925e-01 -7.146418094635009766e-01 1.500000000000000000e+01
-8.532700538635253906e+00 -2.144953161478042880e-01 -7.467504143714904785e-01 3.000000000000000000e+00
-3.464037704467772727e+01 -8.465926051139831543e-01 -6.048306226730346680e-01 1.300000000000000000e+01
-2.555161476135253906e+00 -5.887711048126220703e-02 -6.848351955413818359e-01 2.100000000000000000e+01
-4.470350265502929688e+01 -1.022270679473876953e+00 7.805064916610717773e-01 4.800000000000000000e+01
-2.980804920196533203e+00 -6.764392554759979248e-02 -6.883502006530761719e-01 2.100000000000000000e+01
-3.546701431274414062e+00 -7.986658066511154175e-02 -6.895837187767028809e-01 2.000000000000000000e+01
-4.482355117797852273e+01 -1.001534342765808105e+00 3.922531366348267046e+00 5.400000000000000000e+01
-4.417831897735595703e+00 -9.794030338525772095e-02 -6.998878121376037598e-01 1.600000000000000000e+01
-5.828828811645507812e+00 -1.271854937076568881e-01 -7.158605456352233887e-01 1.300000000000000000e+01
-8.529413223266601562e+00 -1.846230924129486084e-01 -7.464017868041992188e-01 3.000000000000000000e+00
-3.465911483764647727e+01 -7.260050177574157715e-01 -6.051098108291625977e-01 2.000000000000000000e+01
-2.563077449798583984e+00 -5.010861903429030678e-02 -6.869057416915893555e-01 2.200000000000000000e+01
-4.471879196166992188e+01 -8.664525151252746582e-01 7.807159423828125000e-01 4.800000000000000000e+01
-2.969332695007324219e+00 -5.701410025358200073e-02 -6.856508255004882812e-01 2.200000000000000000e+01
-3.554810285568236861e+00 -6.763518601655960083e-02 -6.911101937294006348e-01 2.000000000000000000e+01
-4.482677459716796875e+01 -8.450648784637451172e-01 3.922531366348267046e+00 5.400000000000000000e+01
-4.418147087097167969e+00 -8.251859247684478760e-02 -6.998878121376037598e-01 1.600000000000000000e+01
-5.809389591217041016e+00 -1.064745411276817044e-01 -7.134231328964233398e-01 1.300000000000000000e+01
-8.518054008483886719e+00 -1.546317934989928922e-01 -7.453559041023254395e-01 4.000000000000000000e+00
-1.670042991638183949e+01 -2.973384559154509943e-01 -8.753712177276611328e-01 5.000000000000000000e+00
-3.465744018554688211e+01 -6.049478650093078613e-01 -6.050400137901306152e-01 1.300000000000000000e+01
-2.561305046081542969e+00 -4.113048315048217773e-02 -6.863881349563598633e-01 2.000000000000000000e+01
-4.474953842163085938e+01 -7.107941508293151855e-01 7.812046408653259277e-01 4.800000000000000000e+01
-2.969513654708861861e+00 -4.664884507656096718e-02 -6.856508255004882812e-01 1.500000000000000000e+01
-3.547172546386719194e+00 -5.510419234633445740e-02 -6.895837187767028809e-01 1.200000000000000000e+01
-4.484937286376953125e+01 -6.888910531997680664e-01 3.924274444580078125e+00 5.400000000000000000e+01
-4.424333572387695312e+00 -6.718585640192031860e-02 -7.008264064788818359e-01 1.100000000000000000e+01
-5.805756092071533203e+00 -8.613644540309906006e-02 -7.129356861114501953e-01 1.300000000000000000e+01
-8.504596710205078125e+00 -1.246928274631499967e-01 -7.441357374191284180e-01 3.000000000000000000e+00
-1.666142654418944957e+01 -2.384696155786514005e-01 -8.732777833938598633e-01 5.000000000000000000e+00
-3.462734985351563211e+01 -4.835204184055327814e-01 -6.044815778732299805e-01 1.300000000000000000e+01
-2.553700685501099077e+00 -3.253821283578872681e-02 -6.843175292015075684e-01 2.000000000000000000e+01
-4.473165512084960938e+01 -5.621441006660461426e-01 7.808555960655212402e-01 4.800000000000000000e+01
-2.971600532531737837e+00 -3.682547807693480751e-02 -6.861007213592529297e-01 1.400000000000000000e+01
-4.497291946411132812e+01 -5.494751930236816406e-01 2.357106685638428178e+00 3.400000000000000000e+01
-3.533594131469727007e+00 -4.317314550280570984e-02 -6.869123578071594238e-01 1.100000000000000000e+01
-4.483148574829102273e+01 -5.399214625358581543e-01 3.922531366348267046e+00 5.400000000000000000e+01
-4.438358783721923828e+00 -5.267797783017159202e-02 -7.030164599418640137e-01 1.000000000000000000e+01
-5.774250507354736328e+00 -6.651753187179565430e-02 -7.090358138084411621e-01 9.000000000000000000e+00
-8.495001792907714844e+00 -9.637687355279922485e-02 -7.432641983032226562e-01 2.000000000000000000e+00
-1.662218284606933949e+01 -1.827778071165085116e-01 -8.711843490600585938e-01 5.000000000000000000e+00
-3.460276794433593750e+01 -3.684125840663909912e-01 -6.040278077125549316e-01 2.000000000000000000e+01
-2.536412715911864790e+00 -2.346310764551163067e-02 -6.796588301658630371e-01 2.500000000000000000e+01
-4.474134063720703125e+01 -4.060706794261931818e-01 7.809951901435852051e-01 4.800000000000000000e+01
-2.977556943893433061e+00 -2.650446817278862000e-02 -6.874504089355468750e-01 1.300000000000000000e+01
-3.539612770080565962e+00 -3.088973276317119945e-02 -6.880572438240051270e-01 1.200000000000000000e+01
-4.483309936523438211e+01 -3.834270834922791082e-01 3.922531366348267046e+00 5.400000000000000000e+01
-4.426663875579833984e+00 -3.708560019731522300e-02 -7.011392712593078613e-01 1.000000000000000000e+01
-5.806207656860351562e+00 -4.661622643470764160e-02 -7.129356861114501953e-01 9.000000000000000000e+00
-8.463409423828125000e+00 -6.647282838821411133e-02 -7.404751777648925781e-01 2.000000000000000000e+00
-1.662271881103515980e+01 -1.247544512152671953e-01 -8.711843490600585938e-01 5.000000000000000000e+00
-3.462983703613281250e+01 -2.478101551532745084e-01 -6.044815778732299805e-01 1.300000000000000000e+01
-2.542279481887816939e+00 -1.375519018620252956e-02 -6.812117099761962891e-01 2.900000000000000000e+01
-4.473057174682617188e+01 -2.342108786106109897e-01 7.807857394218444824e-01 4.800000000000000000e+01
-2.973739385604857954e+00 -1.505157630890608007e-02 -6.865506172180175781e-01 1.300000000000000000e+01
-4.497973251342772727e+01 -2.198141962289809903e-01 2.357316255569458008e+00 3.400000000000000000e+01
-3.527925968170166016e+00 -1.724083535373210907e-02 -6.857675313949584961e-01 1.100000000000000000e+01
-4.483423995971679688e+01 -2.112779468297958096e-01 3.922531366348267046e+00 5.400000000000000000e+01
-4.414921283721923828e+00 -2.003441564738750111e-02 -6.992620825767517090e-01 1.000000000000000000e+01
-5.796418666839599609e+00 -2.428012341260910034e-02 -7.117169499397277832e-01 1.100000000000000000e+01
-8.455632209777832031e+00 -3.394326567649841309e-02 -7.397779226303100586e-01 2.000000000000000000e+00
-3.459054183959960938e+01 -1.147070005536078990e-01 -6.037834286689758301e-01 2.000000000000000000e+01
-2.551971435546875000e+00 -4.899439401924610138e-03 -6.837999224662780762e-01 3.700000000000000000e+01
-4.474311447143554688e+01 -7.809154689311981201e-02 7.809951901435852051e-01 4.800000000000000000e+01
-2.960132598876953125e+00 -4.649769049137830734e-03 -6.834012866020202637e-01 1.200000000000000000e+01
-4.505212783813477273e+01 -6.290467828512191772e-02 2.361084222793579102e+00 3.500000000000000000e+01
-3.541707515716553178e+00 -4.945159889757633209e-03 -6.884388327598571777e-01 1.200000000000000000e+01
-4.483470535278320312e+01 -5.477595329284667969e-02 3.922531366348267046e+00 5.400000000000000000e+01
-4.418915271759033203e+00 -4.627478774636983871e-03 -6.998878121376037598e-01 1.000000000000000000e+01
-5.796468257904052734e+00 -4.046699032187461853e-03 -7.117169499397277832e-01 1.100000000000000000e+01
-8.463668823242187500e+00 -4.431567154824733734e-03 -7.404751777648925781e-01 2.000000000000000000e+00
-3.457473373413085938e+01 6.034429185092449188e-03 -6.035042405128479004e-01 1.300000000000000000e+01
-2.553905963897705078e+00 3.120186273008584976e-03 -6.843175292015075684e-01 3.600000000000000000e+01
-4.474713897705078125e+01 6.247883290052413940e-02 7.810649871826171875e-01 4.800000000000000000e+01
-2.964030027389525923e+00 4.655891563743352890e-03 -6.843010783195495605e-01 1.300000000000000000e+01
-4.495223999023438211e+01 7.845654338598251343e-02 2.355850696563721147e+00 3.400000000000000000e+01
-3.529926061630249023e+00 6.160889286547899246e-03 -6.861491203308105469e-01 1.200000000000000000e+01
-4.486653518676757812e+01 8.613766729831695557e-02 3.925320386886597124e+00 5.400000000000000000e+01
-4.407055854797363281e+00 9.230129420757293701e-03 -6.980105638504028320e-01 1.000000000000000000e+01
-5.780571460723876953e+00 1.412462908774613987e-02 -7.097670435905456543e-01 1.100000000000000000e+01
-8.439732551574707031e+00 2.209521830081940044e-02 -7.383834719657897949e-01 3.000000000000000000e+00
-3.458054351806641336e+01 1.146738380193710050e-01 -6.036089062690734863e-01 2.000000000000000000e+01
-2.550015926361083984e+00 1.201675552874804064e-02 -6.832822561264038086e-01 4.000000000000000000e+01
-4.475464630126953125e+01 2.187142074108124057e-01 7.812046408653259277e-01 4.800000000000000000e+01
-2.963995695114136186e+00 1.500225905328989029e-02 -6.843010783195495605e-01 1.400000000000000000e+01
-4.491574478149414062e+01 2.351804375648499090e-01 2.353966712951660156e+00 3.400000000000000000e+01
-3.522030115127563032e+00 1.844147406518458973e-02 -6.846227049827575684e-01 1.200000000000000000e+01
-4.483408355712891336e+01 2.425781041383743009e-01 3.922531366348267046e+00 5.400000000000000000e+01
-4.408971786499023438e+00 2.462460100650787007e-02 -6.983234286308288574e-01 1.100000000000000000e+01
-5.782472133636474609e+00 3.431428223848342896e-02 -7.100107669830322266e-01 1.100000000000000000e+01
-8.431634902954101562e+00 5.150656402111052773e-02 -7.376862168312072754e-01 2.000000000000000000e+00
-3.454793548583983664e+01 2.351639717817307074e-01 -6.030504703521728516e-01 2.000000000000000000e+01
-2.540292024612427202e+00 2.172539569437504162e-02 -6.806941032409667969e-01 3.500000000000000000e+01
-4.474547958374022727e+01 3.904878795146942139e-01 7.810649871826171875e-01 4.800000000000000000e+01
-2.967813730239868164e+00 2.641773782670497894e-02 -6.852009296417236328e-01 1.400000000000000000e+01
-4.501037216186522727e+01 4.085124135017395020e-01 2.358990907669066939e+00 3.400000000000000000e+01
-3.521933317184447798e+00 3.196493163704872131e-02 -6.846227049827575684e-01 1.200000000000000000e+01
-4.480891418457031250e+01 4.145052433013916016e-01 3.920439720153809038e+00 5.400000000000000000e+01
-4.391067504882813388e+00 4.138606041669846275e-02 -6.955076456069946289e-01 1.000000000000000000e+01
-5.770387649536132812e+00 5.640066415071486733e-02 -7.085483670234680176e-01 1.100000000000000000e+01
-8.427390098571777344e+00 8.384161442518234253e-02 -7.373375892639160156e-01 2.000000000000000000e+00
-3.453278350830078125e+01 3.676674365997313898e-01 -6.028060913085937500e-01 2.000000000000000000e+01
-2.534405469894409180e+00 3.052274323999882091e-02 -6.791411638259887695e-01 2.800000000000000000e+01
-4.471984863281250000e+01 5.463832020759582520e-01 7.806461453437805176e-01 4.800000000000000000e+01
-2.952114582061768022e+00 3.658399730920792320e-02 -6.816017031669616699e-01 1.400000000000000000e+01
-4.500867462158203125e+01 5.656254291534423828e-01 2.358990907669066939e+00 3.400000000000000000e+01
-3.527689456939696822e+00 4.433258622884749672e-02 -6.857675313949584961e-01 1.200000000000000000e+01
-4.480719375610352273e+01 5.709150433540344238e-01 3.920439720153809038e+00 5.400000000000000000e+01
-4.386945724487304688e+00 5.666247010231018066e-02 -6.948819160461425781e-01 9.000000000000000000e+00
-5.766185760498046875e+00 7.649007439613342285e-02 -7.080608606338500977e-01 1.100000000000000000e+01
-8.423061370849609375e+00 1.132046356797218045e-01 -7.369889616966247559e-01 2.000000000000000000e+00
-3.451329421997070312e+01 4.879526793956757147e-01 -6.024919748306274414e-01 2.000000000000000000e+01
-2.540091991424560991e+00 3.857264667749404907e-02 -6.806941032409667969e-01 2.500000000000000000e+01
-4.474190521240233664e+01 6.872403621673583984e-01 7.810649871826171875e-01 4.800000000000000000e+01
-2.948088169097899947e+00 4.579760506749153137e-02 -6.807019114494323730e-01 1.400000000000000000e+01
-4.489883422851563211e+01 7.053272724151611328e-01 2.353338718414307085e+00 3.400000000000000000e+01
-3.529495954513549805e+00 5.544575303792952797e-02 -6.861491203308105469e-01 1.100000000000000000e+01
-4.482908248901367188e+01 7.120576500892639160e-01 3.922531366348267046e+00 5.400000000000000000e+01
-4.374895095825195312e+00 7.025385648012161255e-02 -6.930046677589416504e-01 9.000000000000000000e+00
-5.765917301177979404e+00 9.460467100143432617e-02 -7.080608606338500977e-01 1.100000000000000000e+01
-8.418680191040039062e+00 1.395998001098633090e-01 -7.366403341293334961e-01 3.000000000000000000e+00
-3.450159454345703125e+01 5.962040424346923828e-01 -6.023174524307250977e-01 2.000000000000000000e+01
-2.536078929901123047e+00 4.736683890223503113e-02 -6.796588301658630371e-01 2.400000000000000000e+01
-4.472723770141602273e+01 8.431884646415710449e-01 7.808555960655212402e-01 4.800000000000000000e+01
-2.957652330398560014e+00 5.627342686057090759e-02 -6.829513907432556152e-01 1.500000000000000000e+01
-4.499594497680664062e+01 8.639662861824035645e-01 2.358572244644165039e+00 3.400000000000000000e+01
-3.513577699661254883e+00 6.746413558721542358e-02 -6.830962300300598145e-01 1.200000000000000000e+01
-4.485819625854492188e+01 8.691535592079162598e-01 3.925320386886597124e+00 5.400000000000000000e+01
-4.378573417663574219e+00 8.560188859701156616e-02 -6.936303973197937012e-01 9.000000000000000000e+00
-5.735781192779541016e+00 1.141384840011596957e-01 -7.044048309326171875e-01 1.100000000000000000e+01
-8.402205467224121094e+00 1.686657220125198087e-01 -7.352458238601684570e-01 2.000000000000000000e+00
-1.622035217285155895e+01 3.312713801860808771e-01 -8.502499461174011230e-01 4.000000000000000000e+00
-3.450130081176757812e+01 7.166749835014343262e-01 -6.023523807525634766e-01 2.000000000000000000e+01
-2.541692256927489790e+00 5.634757131338120201e-02 -6.812117099761962891e-01 2.300000000000000000e+01
-4.474401473999022727e+01 9.997572302818298340e-01 7.812046408653259277e-01 4.800000000000000000e+01
-2.959386110305786133e+00 6.664109230041503906e-02 -6.834012866020202637e-01 1.400000000000000000e+01
-4.500082015991210938e+01 1.013353347778320090e+00 2.358990907669066939e+00 3.400000000000000000e+01
-3.509395360946654829e+00 7.963932305574417114e-02 -6.823329925537109375e-01 1.200000000000000000e+01
-4.482302093505858664e+01 1.025003790855407937e+00 3.922531366348267046e+00 5.400000000000000000e+01
-4.378247737884520596e+00 1.008854433894156993e-01 -6.936303973197937012e-01 9.000000000000000000e+00
-5.741301536560058594e+00 1.342986673116683960e-01 -7.051360011100769043e-01 1.100000000000000000e+01
-8.401565551757812500e+00 1.979938745498656949e-01 -7.352458238601684570e-01 2.000000000000000000e+00
-1.621909713745116832e+01 3.878889381885529120e-01 -8.502499461174011230e-01 4.000000000000000000e+00
-3.448059844970703125e+01 8.366660475730895996e-01 -6.020382046699523926e-01 2.000000000000000000e+01
-2.527961492538452148e+00 6.487247347831726074e-02 -6.775882840156555176e-01 2.100000000000000000e+01
-4.476424026489257812e+01 1.156556606292725053e+00 7.816234827041625977e-01 4.800000000000000000e+01
-2.955239295959473100e+00 7.686952501535415649e-02 -6.825014948844909668e-01 1.300000000000000000e+01
-4.498482513427733664e+01 1.177969098091125044e+00 2.358362913131713867e+00 3.400000000000000000e+01
-3.516946315765380859e+00 9.209448099136352539e-02 -6.838594675064086914e-01 1.100000000000000000e+01
-4.484705352783203125e+01 1.182194113731384055e+00 3.924971818923950195e+00 5.400000000000000000e+01
-4.381818294525145596e+00 1.162725612521171986e-01 -6.942561268806457520e-01 9.000000000000000000e+00
-5.744766712188720703e+00 1.544454395771026889e-01 -7.056235074996948242e-01 1.100000000000000000e+01
-8.404807090759277344e+00 2.274273931980133057e-01 -7.355944514274597168e-01 2.000000000000000000e+00
-1.621764564514160156e+01 4.445017874240875244e-01 -8.502499461174011230e-01 4.000000000000000000e+00
-3.451144790649414062e+01 9.579640030860900879e-01 -6.026315689086914062e-01 2.000000000000000000e+01
-2.545099020004272017e+00 7.420301437377929688e-02 -6.822469830513000488e-01 1.700000000000000000e+01
-4.474793624877929688e+01 1.312454223632812944e+00 7.814140319824218750e-01 4.800000000000000000e+01
-2.958848714828491211e+00 8.729971200227737427e-02 -6.834012866020202637e-01 1.400000000000000000e+01
-4.503257751464843750e+01 1.328669071197509988e+00 2.361084222793579102e+00 3.500000000000000000e+01
-3.524452924728393999e+00 1.046033203601837019e-01 -6.853858828544616699e-01 1.100000000000000000e+01
-4.484663772583007812e+01 1.338851213455199973e+00 3.925320386886597124e+00 5.400000000000000000e+01
-4.359666347503662109e+00 1.309150457382201871e-01 -6.908146142959594727e-01 1.000000000000000000e+01
-5.760066032409667969e+00 1.749796718358994085e-01 -7.075734138488769531e-01 1.100000000000000000e+01
-8.380064010620117188e+00 2.560341060161591131e-01 -7.335027456283569336e-01 2.000000000000000000e+00
-3.452988052368164062e+01 1.079112648963928001e+00 -6.030155420303344727e-01 1.300000000000000000e+01
-2.554478645324707031e+00 8.340181410312652588e-02 -6.848351955413818359e-01 1.600000000000000000e+01
-4.473109054565429688e+01 1.468252062797545943e+00 7.812046408653259277e-01 4.800000000000000000e+01
-2.942944526672362837e+00 9.711331874132156372e-02 -6.798020601272583008e-01 1.300000000000000000e+01
-4.498773956298828125e+01 1.484536647796631081e+00 2.358990907669066939e+00 3.400000000000000000e+01
-3.527990579605102983e+00 1.170355007052421986e-01 -6.861491203308105469e-01 1.100000000000000000e+01
-4.483770751953125000e+01 1.495254278182982954e+00 3.924971818923950195e+00 5.400000000000000000e+01
-4.359182834625244141e+00 1.461323350667952936e-01 -6.908146142959594727e-01 1.000000000000000000e+01
-5.735612392425537109e+00 1.942785680294036865e-01 -7.046485543251037598e-01 1.100000000000000000e+01
-8.375137329101562500e+00 2.851488590240479071e-01 -7.331541180610656738e-01 2.000000000000000000e+00
-1.611434173583984020e+01 5.542776584625244141e-01 -8.450163602828979492e-01 4.000000000000000000e+00
-3.450191879272460938e+01 1.198804616928101030e+00 -6.025967001914978027e-01 1.300000000000000000e+01
-2.546449661254882812e+00 9.203898161649703979e-02 -6.827646493911743164e-01 1.500000000000000000e+01
-4.473768615722656250e+01 1.624819278717041016e+00 7.814140319824218750e-01 4.800000000000000000e+01
-2.938692569732666016e+00 1.072433814406394958e-01 -6.789022684097290039e-01 1.400000000000000000e+01
-4.502191543579102273e+01 1.650878667831420898e+00 2.361084222793579102e+00 3.500000000000000000e+01
-3.511865139007567915e+00 1.287742555141448975e-01 -6.830962300300598145e-01 1.100000000000000000e+01
-4.484416198730468750e+01 1.652198076248168945e+00 3.926017522811890093e+00 5.400000000000000000e+01
-4.368516445159912109e+00 1.617131978273392001e-01 -6.923789381980895996e-01 9.000000000000000000e+00
-5.719029903411865234e+00 2.137054055929183960e-01 -7.026986479759216309e-01 1.100000000000000000e+01
-8.354180335998535156e+00 3.136343359947205145e-01 -7.314109802246093750e-01 3.000000000000000000e+00
-3.446555328369141336e+01 1.318008780479430930e+00 -6.020382046699523926e-01 2.000000000000000000e+01
-2.542252063751221147e+00 1.007741540670395036e-01 -6.817293763160705566e-01 1.600000000000000000e+01
-4.476770782470703125e+01 1.782405018806457964e+00 7.820423245429992676e-01 4.800000000000000000e+01
-2.946089029312133789e+00 1.178121492266654968e-01 -6.807019114494323730e-01 1.200000000000000000e+01
-4.501619338989257812e+01 1.800167679786681907e+00 2.361084222793579102e+00 3.500000000000000000e+01
-3.501585960388184038e+00 1.406382173299788874e-01 -6.811881065368652344e-01 1.200000000000000000e+01
-4.487793731689453125e+01 1.810329437255858931e+00 3.929503917694091797e+00 5.400000000000000000e+01
-4.354109287261962891e+00 1.764014363288879117e-01 -6.901888847351074219e-01 1.000000000000000000e+01
-5.722215652465820312e+00 2.338293492794036865e-01 -7.031860947608947754e-01 1.100000000000000000e+01
-8.349053382873535156e+00 3.426305651664733887e-01 -7.310623526573181152e-01 2.000000000000000000e+00
-3.440879821777343750e+01 1.436139941215514915e+00 -6.011306643486022949e-01 1.300000000000000000e+01
-2.539973735809326172e+00 1.091210916638374051e-01 -6.812117099761962891e-01 1.800000000000000000e+01
-4.474956130981445312e+01 1.930333137512207031e+00 7.818328738212585449e-01 4.800000000000000000e+01
-2.951523065567017046e+00 1.278340518474579135e-01 -6.820515990257263184e-01 1.200000000000000000e+01
-4.500798034667968750e+01 1.949350476264954057e+00 2.360979557037353960e+00 3.500000000000000000e+01
-3.495216131210327148e+00 1.519932448863982877e-01 -6.800432801246643066e-01 1.200000000000000000e+01
-4.485974121093750000e+01 1.958618640899657981e+00 3.928457975387572798e+00 5.400000000000000000e+01
-4.357447147369384766e+00 1.910122185945510864e-01 -6.908146142959594727e-01 1.000000000000000000e+01
-5.737274169921875000e+00 2.535046339035034180e-01 -7.051360011100769043e-01 1.100000000000000000e+01
-8.323986053466796875e+00 3.692555725574492853e-01 -7.289706468582153320e-01 2.000000000000000000e+00
-3.440983963012695312e+01 1.550505757331847922e+00 -6.012353897094726562e-01 2.000000000000000000e+01
-2.545366764068603960e+00 1.182555556297301969e-01 -6.827646493911743164e-01 2.100000000000000000e+01
-4.474255371093750000e+01 2.086526632308959961e+00 7.818328738212585449e-01 4.800000000000000000e+01
-2.939379215240478960e+00 1.375893056392669955e-01 -6.793521642684936523e-01 1.200000000000000000e+01
-4.500090408325195312e+01 2.106445789337158203e+00 2.360979557037353960e+00 3.500000000000000000e+01
-3.500547409057617188e+00 1.644693166017532071e-01 -6.811881065368652344e-01 1.200000000000000000e+01
-4.481681060791016336e+01 2.113507032394409180e+00 3.925320386886597124e+00 5.400000000000000000e+01
-4.344914913177490234e+00 2.056609988212584894e-01 -6.889373660087585449e-01 1.000000000000000000e+01
-5.724457263946533203e+00 2.729625999927520752e-01 -7.036736011505126953e-01 1.100000000000000000e+01
-8.314685821533203125e+00 3.979285061359406073e-01 -7.282733917236328125e-01 2.000000000000000000e+00
-3.437425613403320312e+01 1.669154167175292969e+00 -6.007118225097656250e-01 1.300000000000000000e+01
-2.560351610183715820e+00 1.283578127622604093e-01 -6.869057416915893555e-01 2.400000000000000000e+01
-4.474658584594727273e+01 2.251105070114136186e+00 7.820423245429992676e-01 4.800000000000000000e+01
-2.940801382064818892e+00 1.484599858522414884e-01 -6.798020601272583008e-01 1.400000000000000000e+01
-3.505803346633911133e+00 1.775963306427001953e-01 -6.823329925537109375e-01 1.300000000000000000e+01
-4.484855651855468750e+01 2.279777765274047852e+00 3.928806543350220171e+00 5.400000000000000000e+01
-4.332294940948486328e+00 2.209807634353637973e-01 -6.870601773262023926e-01 1.000000000000000000e+01
-5.699628829956054688e+00 2.927201688289641779e-01 -7.007487416267395020e-01 1.000000000000000000e+01
-8.297253608703613281e+00 4.275803864002227783e-01 -7.268788814544677734e-01 3.000000000000000000e+00
-3.434793853759766336e+01 1.794087886810302956e+00 -6.003627777099609375e-01 1.900000000000000000e+01
-2.561817169189453125e+00 1.373977959156036099e-01 -6.874234080314636230e-01 2.600000000000000000e+01
-4.476641082763671875e+01 2.408790349960327148e+00 7.825310230255126953e-01 4.800000000000000000e+01
-2.938319444656372070e+00 1.586193591356276911e-01 -6.793521642684936523e-01 1.200000000000000000e+01
-3.501241207122803178e+00 1.896204501390456876e-01 -6.815697550773620605e-01 1.100000000000000000e+01
-4.484032821655272727e+01 2.436314344406127930e+00 3.928806543350220171e+00 5.400000000000000000e+01
-4.331497192382813388e+00 2.361019402742385864e-01 -6.870601773262023926e-01 1.000000000000000000e+01
-5.698572158813476562e+00 3.126138150691986084e-01 -7.007487416267395020e-01 1.000000000000000000e+01
-8.309636116027832031e+00 4.573069512844086248e-01 -7.280990481376647949e-01 3.000000000000000000e+00
-1.580405902862549006e+01 8.752834200859069824e-01 -8.295249342918395996e-01 4.000000000000000000e+00
-3.434745407104492188e+01 1.914307475090027078e+00 -6.004675030708312988e-01 1.900000000000000000e+01
-2.551652908325194868e+00 1.462337374687195102e-01 -6.848351955413818359e-01 2.500000000000000000e+01
-4.474929809570313211e+01 2.572391986846923828e+00 7.823913693428039551e-01 4.800000000000000000e+01
-2.933827161788939986e+00 1.691634058952332098e-01 -6.784523725509643555e-01 1.200000000000000000e+01
-3.488762855529785156e+00 2.017717361450195035e-01 -6.792800426483154297e-01 1.100000000000000000e+01
-4.484302902221679688e+01 2.601338386535644975e+00 3.929852485656737837e+00 5.400000000000000000e+01
-4.338490962982177734e+00 2.524350583553314209e-01 -6.883116364479064941e-01 1.000000000000000000e+01
-5.699369907379150391e+00 3.336140215396881104e-01 -7.009924650192260742e-01 1.100000000000000000e+01
-8.282048225402832031e+00 4.862421751022338867e-01 -7.258329987525939941e-01 2.000000000000000000e+00
-3.433621597290039062e+01 2.039947032928466797e+00 -6.003977060317993164e-01 1.900000000000000000e+01
-2.539557218551636186e+00 1.544362008571625033e-01 -6.817293763160705566e-01 1.900000000000000000e+01
-4.474802780151367188e+01 2.729067564010620117e+00 7.825310230255126953e-01 4.800000000000000000e+01
-2.939054250717163086e+00 1.797602474689483920e-01 -6.798020601272583008e-01 1.300000000000000000e+01
-3.480199098587036133e+00 2.134677767753601074e-01 -6.777535676956176758e-01 1.200000000000000000e+01
-4.486549377441406250e+01 2.759811162948607954e+00 3.932641506195067915e+00 5.400000000000000000e+01
-4.325753688812255859e+00 2.668479382991790771e-01 -6.864344477653503418e-01 1.000000000000000000e+01
-5.688263893127441406e+00 3.528919219970703125e-01 -6.997737884521484375e-01 1.000000000000000000e+01
-8.240529060363769531e+00 5.126746892929077148e-01 -7.223467826843261719e-01 3.000000000000000000e+00
-3.432090377807617188e+01 2.159288167953491211e+00 -6.002580523490905762e-01 1.900000000000000000e+01
-2.537131547927856001e+00 1.622903645038605014e-01 -6.812117099761962891e-01 1.700000000000000000e+01
-4.473524475097656250e+01 2.869377851486206055e+00 7.824611663818359375e-01 4.800000000000000000e+01
-2.938474893569945845e+00 1.889926642179489136e-01 -6.798020601272583008e-01 1.200000000000000000e+01
-3.495184659957886186e+00 2.254108935594558993e-01 -6.808065176010131836e-01 1.200000000000000000e+01
-4.488046264648438211e+01 2.902289390563964844e+00 3.934733152389525923e+00 5.400000000000000000e+01
-4.305181503295898438e+00 2.791581451892852783e-01 -6.833057403564453125e-01 1.000000000000000000e+01
-5.695050716400145596e+00 3.712769150733947754e-01 -7.007487416267395020e-01 1.000000000000000000e+01
-8.254783630371093750e+00 5.396001935005187988e-01 -7.237412929534912109e-01 3.000000000000000000e+00
-3.432392883300781250e+01 2.267758846282958984e+00 -6.004325747489929199e-01 1.900000000000000000e+01
-2.528839588165283203e+00 1.706254184246062955e-01 -6.791411638259887695e-01 1.400000000000000000e+01
-4.475288772583007812e+01 3.027405023574829102e+00 7.829498648643493652e-01 4.800000000000000000e+01
-2.924187421798706055e+00 1.983256489038467130e-01 -6.766527891159057617e-01 1.200000000000000000e+01
-3.494376659393310991e+00 2.376099824905396063e-01 -6.808065176010131836e-01 1.100000000000000000e+01
-4.485018157958983664e+01 3.057578563690185991e+00 3.932990074157714844e+00 5.400000000000000000e+01
-4.306151866912841797e+00 2.943190336227416992e-01 -6.836186051368713379e-01 9.000000000000000000e+00
-5.681837558746337891e+00 3.903377652168273926e-01 -6.992862820625305176e-01 1.000000000000000000e+01
-8.221046447753906250e+00 5.662210583686828613e-01 -7.209523320198059082e-01 2.000000000000000000e+00
-3.433176040649414062e+01 2.388668298721313032e+00 -6.007118225097656250e-01 1.900000000000000000e+01
-2.534009695053101030e+00 1.798620074987410944e-01 -6.806941032409667969e-01 1.400000000000000000e+01
-4.476996994018554688e+01 3.185590267181396040e+00 7.834385037422180176e-01 4.800000000000000000e+01
-2.923477411270142046e+00 2.085317522287369052e-01 -6.766527891159057617e-01 1.300000000000000000e+01
-3.481776475906372070e+00 2.489660382270812988e-01 -6.785168051719665527e-01 1.100000000000000000e+01
-4.487897872924804688e+01 3.216965198516846147e+00 3.936476230621337891e+00 5.400000000000000000e+01
-4.305098056793212891e+00 3.093485236167908270e-01 -6.836186051368713379e-01 1.000000000000000000e+01
-4.497484588623046875e+01 3.239617109298706055e+00 5.536524295806884766e+00 3.800000000000000000e+01
-5.676480770111083984e+00 4.098827838897705078e-01 -6.987988352775573730e-01 1.200000000000000000e+01
-8.242866516113281250e+00 5.966404676437377930e-01 -7.230440378189086914e-01 3.000000000000000000e+00
-3.431523513793945312e+01 2.507910966873168945e+00 -6.005722284317016602e-01 1.300000000000000000e+01
-2.525660276412963867e+00 1.881322413682937900e-01 -6.786235570907592773e-01 1.500000000000000000e+01
-4.474262619018554688e+01 3.340656280517578125e+00 7.831593155860900879e-01 4.800000000000000000e+01
-2.932448148727416992e+00 2.194624990224837979e-01 -6.789022684097290039e-01 1.400000000000000000e+01
-3.476970672607421875e+00 2.608244717121124268e-01 -6.777535676956176758e-01 1.100000000000000000e+01
-4.485953140258789062e+01 3.373004913330078125e+00 3.935779094696044922e+00 5.400000000000000000e+01
-4.319750308990479404e+00 3.255618810653687079e-01 -6.861215829849243164e-01 1.000000000000000000e+01
-4.496326446533203125e+01 3.396589040756226030e+00 5.536524295806884766e+00 3.800000000000000000e+01
-5.659179687500000000e+00 4.284958839416503906e-01 -6.968489289283752441e-01 1.000000000000000000e+01
-8.204973220825195312e+00 6.226958632469177246e-01 -7.199064493179321289e-01 2.000000000000000000e+00
-3.432820510864257812e+01 2.629358053207397017e+00 -6.009561419486999512e-01 2.000000000000000000e+01
-2.515358209609984907e+00 1.961961537599563876e-01 -6.760353446006774902e-01 1.400000000000000000e+01
-4.475062942504882812e+01 3.498375177383422852e+00 7.835083603858947754e-01 4.800000000000000000e+01
-2.921950340270996094e+00 2.289362251758574884e-01 -6.766527891159057617e-01 1.300000000000000000e+01
-4.495174026489257812e+01 3.529884576797484907e+00 2.363073110580443892e+00 3.500000000000000000e+01
-3.472124576568603960e+00 2.726523876190186102e-01 -6.769903302192687988e-01 1.200000000000000000e+01
-4.483556365966796875e+01 3.528635501861571822e+00 3.934733152389525923e+00 5.400000000000000000e+01
-4.308741092681884766e+00 3.398619890213013250e-01 -6.845571994781494141e-01 1.000000000000000000e+01
-4.491155242919921875e+01 3.550390481948852983e+00 5.531649589538574219e+00 3.800000000000000000e+01
-5.657649517059326172e+00 4.482474923133850098e-01 -6.968489289283752441e-01 1.000000000000000000e+01
-8.192818641662597656e+00 6.505442261695861816e-01 -7.190348505973815918e-01 3.000000000000000000e+00
-3.432081222534179688e+01 2.749329566955565962e+00 -6.009910702705383301e-01 2.000000000000000000e+01
-2.514658212661743164e+00 2.049752026796340942e-01 -6.760353446006774902e-01 1.400000000000000000e+01
-4.469828414916992188e+01 3.651306629180908203e+00 7.828102111816406250e-01 4.800000000000000000e+01
-2.926959991455078125e+00 2.396113425493240079e-01 -6.780024766921997070e-01 1.400000000000000000e+01
-3.478978395462036133e+00 2.854127883911132812e-01 -6.785168051719665527e-01 1.100000000000000000e+01
-4.488254547119141336e+01 3.690016984939575195e+00 3.939962625503540039e+00 5.400000000000000000e+01
-4.299654006958007812e+00 3.542514145374298096e-01 -6.833057403564453125e-01 1.000000000000000000e+01
-4.483953475952147727e+01 3.702239036560059038e+00 5.524337291717529297e+00 3.700000000000000000e+01
-5.663963794708251953e+00 4.686484038829802912e-01 -6.978238821029663086e-01 1.000000000000000000e+01
-8.176599502563476562e+00 6.779860854148864746e-01 -7.178146839141845703e-01 2.000000000000000000e+00
-1.557464981079101918e+01 1.296890735626220925e+00 -8.190577030181884766e-01 4.000000000000000000e+00
-3.433093261718750000e+01 2.870780944824219194e+00 -6.013401150703430176e-01 2.000000000000000000e+01
-2.519701957702637163e+00 2.142427563667297086e-01 -6.775882840156555176e-01 1.500000000000000000e+01
-4.472113037109375000e+01 3.810366392135620117e+00 7.834385037422180176e-01 4.800000000000000000e+01
-2.910572290420531782e+00 2.485006600618361872e-01 -6.744032502174377441e-01 1.400000000000000000e+01
-3.481873035430908203e+00 2.978896796703339178e-01 -6.792800426483154297e-01 1.100000000000000000e+01
-4.484159851074218750e+01 3.844281196594237837e+00 3.937522172927856001e+00 5.400000000000000000e+01
-4.282646179199218750e+00 3.679052591323853094e-01 -6.808027625083923340e-01 1.000000000000000000e+01
-4.484216308593750000e+01 3.860097885131835938e+00 5.526287078857421875e+00 3.800000000000000000e+01
-5.646471500396729404e+00 4.870517253875731867e-01 -6.958739757537841797e-01 1.000000000000000000e+01
-8.170212745666503906e+00 7.061804533004760742e-01 -7.174660563468933105e-01 3.000000000000000000e+00
-3.430078125000000000e+01 2.988864898681641069e+00 -6.009910702705383301e-01 2.000000000000000000e+01
-2.524711847305297852e+00 2.235480099916458130e-01 -6.791411638259887695e-01 1.300000000000000000e+01
-4.472747421264647727e+01 3.968216180801392046e+00 7.837875485420227051e-01 4.800000000000000000e+01
-2.913569450378417969e+00 2.590040564537047785e-01 -6.753030419349670410e-01 1.400000000000000000e+01
-3.474945545196533203e+00 3.095193207263947088e-01 -6.781351566314697266e-01 1.200000000000000000e+01
-4.485569000244141336e+01 4.003263950347900391e+00 3.939962625503540039e+00 5.400000000000000000e+01
-4.297075748443604404e+00 3.842597901821135919e-01 -6.833057403564453125e-01 1.000000000000000000e+01
-4.484423065185546875e+01 4.018019676208496094e+00 5.528237342834472656e+00 3.800000000000000000e+01
-5.628919601440429688e+00 5.053386092185974121e-01 -6.939240694046020508e-01 1.000000000000000000e+01
-8.151823043823242188e+00 7.332675457000732422e-01 -7.160716056823730469e-01 2.000000000000000000e+00
-1.536629962921142933e+01 1.387627005577086958e+00 -8.085905313491821289e-01 4.000000000000000000e+00
-3.429810714721679688e+01 3.109301090240478960e+00 -6.011306643486022949e-01 1.300000000000000000e+01
-2.518104314804077148e+00 2.322677224874495905e-01 -6.775882840156555176e-01 1.300000000000000000e+01
-4.475643539428710938e+01 4.136172294616699219e+00 7.845554947853088379e-01 4.800000000000000000e+01
-2.912600517272949219e+00 2.696810662746428888e-01 -6.753030419349670410e-01 1.300000000000000000e+01
-3.460103750228881836e+00 3.209841251373291016e-01 -6.754638552665710449e-01 1.100000000000000000e+01
-4.489229583740233664e+01 4.172435283660888672e+00 3.944494724273682085e+00 5.400000000000000000e+01
-4.295638561248779297e+00 4.000067710876464844e-01 -6.833057403564453125e-01 1.000000000000000000e+01
-4.486082839965820312e+01 4.185305595397949219e+00 5.532136917114257812e+00 3.800000000000000000e+01
-5.634935855865479404e+00 5.267052054405212402e-01 -6.948990225791931152e-01 1.000000000000000000e+01
-8.143129348754882812e+00 7.625832557678222656e-01 -7.155486345291137695e-01 2.000000000000000000e+00
-1.528952503204346058e+01 1.437208890914916992e+00 -8.048223257064819336e-01 4.000000000000000000e+00
-3.431435012817382812e+01 3.237618684768677202e+00 -6.016193628311157227e-01 2.000000000000000000e+01
-2.513432264328002930e+00 2.406878322362900058e-01 -6.765530109405517578e-01 1.400000000000000000e+01
-4.476163101196289062e+01 4.294285774230957031e+00 7.849045395851135254e-01 4.900000000000000000e+01
-2.921340465545653853e+00 2.807784974575042725e-01 -6.775525808334350586e-01 1.400000000000000000e+01
-3.460916519165039062e+00 3.332483470439910889e-01 -6.758454442024230957e-01 1.100000000000000000e+01
-4.488142395019531250e+01 4.329495906829833984e+00 3.944843292236328125e+00 5.400000000000000000e+01
-4.294216156005859375e+00 4.149989187717437744e-01 -6.833057403564453125e-01 1.000000000000000000e+01
-4.489731597900391336e+01 4.346847534179688388e+00 5.538474082946777344e+00 3.800000000000000000e+01
-5.637014389038085938e+00 5.467548966407775879e-01 -6.953864693641662598e-01 1.000000000000000000e+01
-8.130502700805664062e+00 7.900399565696716309e-01 -7.146770954132080078e-01 2.000000000000000000e+00
-1.522875595092773082e+01 1.485142588615417036e+00 -8.018915057182312012e-01 4.000000000000000000e+00
-3.427895736694335938e+01 3.355041027069091797e+00 -6.012005209922790527e-01 2.000000000000000000e+01
-2.512620210647583008e+00 2.490213513374328891e-01 -6.765530109405517578e-01 1.200000000000000000e+01
-4.474714660644531250e+01 4.442697048187255859e+00 7.849045395851135254e-01 4.900000000000000000e+01
-2.908758163452147993e+00 2.893072366714478094e-01 -6.748531460762023926e-01 1.400000000000000000e+01
-3.459792375564575195e+00 3.447233140468596857e-01 -6.758454442024230957e-01 1.000000000000000000e+01
-4.485095977783203125e+01 4.476721286773681641e+00 3.943448781967163086e+00 5.400000000000000000e+01
-4.284954071044921875e+00 4.284506142139434814e-01 -6.820542812347412109e-01 1.000000000000000000e+01
-4.484710311889647727e+01 4.492146968841552734e+00 5.534086704254150391e+00 3.800000000000000000e+01
-5.643071174621582031e+00 5.662376880645751953e-01 -6.963614225387573242e-01 1.000000000000000000e+01
-8.104049682617187500e+00 8.146061301231384277e-01 -7.125853300094604492e-01 3.000000000000000000e+00
-1.515220928192139027e+01 1.528418660163878950e+00 -7.981233596801757812e-01 4.000000000000000000e+00
-3.423183059692382812e+01 3.465070724487305132e+00 -6.005722284317016602e-01 1.300000000000000000e+01
-2.517500877380371094e+00 2.583822309970856268e-01 -6.781058907508850098e-01 1.500000000000000000e+01
-4.476716995239257812e+01 4.602548122406005859e+00 7.855328321456909180e-01 4.900000000000000000e+01
-2.890284299850463867e+00 2.976621985435485840e-01 -6.708040237426757812e-01 1.500000000000000000e+01
-3.470285177230834961e+00 3.580069541931151789e-01 -6.781351566314697266e-01 1.000000000000000000e+01
-4.484695053100585938e+01 4.634481430053710938e+00 3.944494724273682085e+00 5.400000000000000000e+01
-4.267713546752929688e+00 4.417780935764312744e-01 -6.795513033866882324e-01 1.000000000000000000e+01
-4.486273956298828125e+01 4.651941299438476562e+00 5.537986755371093750e+00 7.600000000000000000e+01
-5.597621917724609375e+00 5.814203023910522461e-01 -6.909991502761840820e-01 1.000000000000000000e+01
-8.109083175659179688e+00 8.437142968177795410e-01 -7.132825851440429688e-01 2.000000000000000000e+00
-1.514678192138672053e+01 1.581300377845763938e+00 -7.981233596801757812e-01 4.000000000000000000e+00
-3.420759582519531250e+01 3.583291053771973100e+00 -6.003627777099609375e-01 1.300000000000000000e+01
-2.520425796508789062e+00 2.675762474536895752e-01 -6.791411638259887695e-01 1.300000000000000000e+01
-4.475083160400391336e+01 4.758786678314208984e+00 7.855328321456909180e-01 4.900000000000000000e+01
-2.895040988922119141e+00 3.083685636520385742e-01 -6.721537709236145020e-01 1.300000000000000000e+01
-4.509466934204102273e+01 4.803309917449951172e+00 2.376680374145507812e+00 3.500000000000000000e+01
-3.451444864273070845e+00 3.682437837123870850e-01 -6.747006177902221680e-01 1.100000000000000000e+01
-4.484238815307617188e+01 4.792268753051757812e+00 3.945540428161621094e+00 5.400000000000000000e+01
-4.281858444213867188e+00 4.583545625209807794e-01 -6.820542812347412109e-01 1.000000000000000000e+01
-4.485609817504882812e+01 4.809571266174316406e+00 5.539205551147460938e+00 7.600000000000000000e+01
-5.587663173675537109e+00 6.001082062721252441e-01 -6.900241971015930176e-01 1.000000000000000000e+01
-8.106088638305664062e+00 8.720151782035827637e-01 -7.132825851440429688e-01 2.000000000000000000e+00
-3.423464202880858664e+01 3.706981420516968218e+00 -6.010608673095703125e-01 1.300000000000000000e+01
-2.511795043945312944e+00 2.755299508571624756e-01 -6.770706176757812500e-01 1.400000000000000000e+01
-4.476177597045897727e+01 4.918024539947509766e+00 7.860214710235595703e-01 4.900000000000000000e+01
-2.905569076538085938e+00 3.197512626647949219e-01 -6.748531460762023926e-01 1.300000000000000000e+01
-3.448186874389647993e+00 3.800742328166962225e-01 -6.743189692497253418e-01 1.200000000000000000e+01
-4.484519195556641336e+01 4.950954914093017578e+00 3.947283506393433061e+00 5.400000000000000000e+01
-4.274342536926270419e+00 4.726469218730927069e-01 -6.811156868934631348e-01 1.000000000000000000e+01
