-1.032992267608642933e+01 1.519431495666504084e+01 -3.207054138183593750e-01 3.000000000000000000e+00
-1.312613606452941895e+00 1.936537265777587891e+00 -6.268597245216369629e-01 1.900000000000000000e+01
-1.489515423774719016e+00 2.199178218841553178e+00 -6.132165789604187012e-01 1.500000000000000000e+01
-1.735767602920532005e+00 2.563718080520629883e+00 -6.018115878105163574e-01 1.200000000000000000e+01
-2.096472740173339844e+00 3.098806619644165039e+00 -5.925737619400024414e-01 9.000000000000000000e+00
-2.631565093994141069e+00 3.892656326293944868e+00 -5.769294500350952148e-01 1.000000000000000000e+01
-3.475003719329833984e+00 5.142219543457031250e+00 -5.429802536964416504e-01 6.000000000000000000e+00
-5.202986240386962891e+00 7.705039024353027344e+00 -4.872477650642395020e-01 1.000000000000000000e+00
-1.025445175170898082e+01 1.519712829589843928e+01 -3.200073242187500000e-01 3.000000000000000000e+00
-1.300454258918761985e+00 1.933092832565308061e+00 -6.242715120315551758e-01 1.700000000000000000e+01
-1.479655504226685014e+00 2.201129674911499023e+00 -6.123167872428894043e-01 1.500000000000000000e+01
-1.726807951927185059e+00 2.569761276245117188e+00 -6.018115878105163574e-01 1.200000000000000000e+01
-2.090047836303710938e+00 3.112665653228760210e+00 -5.938252210617065430e-01 9.000000000000000000e+00
-2.626809358596802202e+00 3.915005922317504883e+00 -5.788793563842773438e-01 8.000000000000000000e+00
-3.458142757415771040e+00 5.155972957611083984e+00 -5.431545972824096680e-01 8.000000000000000000e+00
-5.158267974853515625e+00 7.696608066558837891e+00 -4.855729937553405762e-01 1.000000000000000000e+00
-1.017241096496582031e+01 1.518963050842284979e+01 -3.190998136997222900e-01 3.000000000000000000e+00
-1.286189436912537065e+00 1.926373958587646040e+00 -6.206480860710144043e-01 1.600000000000000000e+01
-1.482778429985045943e+00 2.222491979598999023e+00 -6.168158054351806641e-01 1.500000000000000000e+01
-1.713470101356505904e+00 2.569240093231201172e+00 -6.002851128578186035e-01 1.300000000000000000e+01
-2.074788093566894975e+00 3.113367080688477007e+00 -5.925737619400024414e-01 9.000000000000000000e+00
-2.613127470016479048e+00 3.924151420593262163e+00 -5.788793563842773438e-01 8.000000000000000000e+00
-3.426875591278076172e+00 5.148109912872313565e+00 -5.410628318786621094e-01 8.000000000000000000e+00
-5.135795116424561435e+00 7.721218585968017578e+00 -4.859916865825653076e-01 1.000000000000000000e+00
-1.014810657501221058e+01 1.526834678649901988e+01 -3.200073242187500000e-01 3.000000000000000000e+00
-1.283725738525391069e+00 1.937293410301208052e+00 -6.227186322212219238e-01 1.600000000000000000e+01
-1.471783757209778054e+00 2.222779750823975053e+00 -6.154660582542419434e-01 1.400000000000000000e+01
-1.707742094993591087e+00 2.580116748809814009e+00 -6.014299392700195312e-01 1.200000000000000000e+01
-2.055190086364746094e+00 3.107409715652465820e+00 -5.900707840919494629e-01 9.000000000000000000e+00
-2.596130132675170898e+00 3.928280591964722124e+00 -5.781481862068176270e-01 1.000000000000000000e+01
-3.407786369323730025e+00 5.158378601074218750e+00 -5.408885478973388672e-01 8.000000000000000000e+00
-5.102209568023681641e+00 7.729097843170166016e+00 -4.853636622428894043e-01 1.000000000000000000e+00
-1.009474849700927912e+01 1.530367755889892933e+01 -3.200073242187500000e-01 3.000000000000000000e+00
-1.278017044067383035e+00 1.943376779556273970e+00 -6.232362389564514160e-01 1.600000000000000000e+01
-1.457594752311706987e+00 2.218132257461547852e+00 -6.127666831016540527e-01 1.400000000000000000e+01
-1.700881123542786089e+00 2.589344024658203125e+00 -6.021931767463684082e-01 1.200000000000000000e+01
-2.044330596923828125e+00 3.114564657211304155e+00 -5.900707840919494629e-01 9.000000000000000000e+00
-2.580224752426147017e+00 3.933999061584473100e+00 -5.776606798171997070e-01 1.000000000000000000e+01
-3.393036603927611861e+00 5.175240993499755859e+00 -5.414114594459533691e-01 6.000000000000000000e+00
-5.075199127197265625e+00 7.746860980987548828e+00 -4.853636622428894043e-01 1.000000000000000000e+00
-9.986504554748535156e+00 1.525516700744629084e+01 -3.182620704174041748e-01 3.000000000000000000e+00
-1.277560591697693093e+00 1.957532763481139915e+00 -6.263421177864074707e-01 1.700000000000000000e+01
-1.447714209556580034e+00 2.219942092895507812e+00 -6.118668913841247559e-01 1.300000000000000000e+01
-1.691832304000854048e+00 2.595265388488769975e+00 -6.021931767463684082e-01 1.100000000000000000e+01
-2.037759065628052202e+00 3.128302335739136186e+00 -5.913223028182983398e-01 9.000000000000000000e+00
-2.553481817245482954e+00 3.923017263412476030e+00 -5.747358202934265137e-01 1.000000000000000000e+01
-3.378210783004761186e+00 5.192063331604003906e+00 -5.419344305992126465e-01 6.000000000000000000e+00
-5.050303936004638672e+00 7.767878532409667969e+00 -4.855729937553405762e-01 1.000000000000000000e+00
-9.933193206787109375e+00 1.528993415832520064e+01 -3.182620704174041748e-01 3.000000000000000000e+00
-1.265468835830688032e+00 1.953873038291930930e+00 -6.237539052963256836e-01 1.600000000000000000e+01
-1.442073941230773926e+00 2.228254079818726030e+00 -6.127666831016540527e-01 1.300000000000000000e+01
-1.678497195243835005e+00 2.594561815261840820e+00 -6.006667017936706543e-01 1.100000000000000000e+01
-2.028971672058105025e+00 3.138714313507080078e+00 -5.919480323791503906e-01 9.000000000000000000e+00
-2.546235084533690962e+00 3.941911458969116211e+00 -5.761982798576354980e-01 1.000000000000000000e+01
-3.361147403717041016e+00 5.205497741699218750e+00 -5.421087145805358887e-01 6.000000000000000000e+00
-5.023158073425292969e+00 7.785459995269775391e+00 -4.855729937553405762e-01 1.000000000000000000e+00
-9.853755950927734375e+00 1.528417778015137074e+01 -3.174243569374083918e-01 3.000000000000000000e+00
-1.251329183578490989e+00 1.946902513504028098e+00 -6.201304197311401367e-01 1.800000000000000000e+01
-1.439552426338196023e+00 2.241472721099853960e+00 -6.150161623954772949e-01 1.500000000000000000e+01
-1.668369650840759055e+00 2.598752737045288086e+00 -6.002851128578186035e-01 1.100000000000000000e+01
-2.013736724853516069e+00 3.139127016067504883e+00 -5.906965136528015137e-01 1.000000000000000000e+01
-2.535673379898070845e+00 3.955789327621459961e+00 -5.769294500350952148e-01 1.000000000000000000e+01
-3.330057382583618164e+00 5.197067737579345703e+00 -5.400170087814331055e-01 6.000000000000000000e+00
-4.983027935028076172e+00 7.782762050628662109e+00 -4.843169450759888250e-01 1.000000000000000000e+00
-9.772324562072753906e+00 1.527468395233153942e+01 -3.165168464183806818e-01 3.000000000000000000e+00
-1.248680949211121050e+00 1.957773685455322044e+00 -6.222009658813476562e-01 1.600000000000000000e+01
-1.423340678215027078e+00 2.233337163925170898e+00 -6.114169359207153320e-01 1.200000000000000000e+01
-1.659288167953490989e+00 2.604560613632202148e+00 -6.002851128578186035e-01 1.200000000000000000e+01
-1.996402025222778098e+00 3.136138677597045898e+00 -5.888193249702453613e-01 9.000000000000000000e+00
-2.517588138580321822e+00 3.957916498184204102e+00 -5.759544968605041504e-01 1.000000000000000000e+01
-3.317241191864014116e+00 5.217066764831542969e+00 -5.408885478973388672e-01 6.000000000000000000e+00
-4.930124759674072266e+00 7.759650230407714844e+00 -4.818048179149628241e-01 1.000000000000000000e+00
-9.757531166076660156e+00 1.536947822570800959e+01 -3.177734017372130793e-01 3.000000000000000000e+00
-1.245972037315369096e+00 1.968649983406066895e+00 -6.242715120315551758e-01 1.700000000000000000e+01
-1.417619466781615989e+00 2.241585969924927202e+00 -6.123167872428894043e-01 1.500000000000000000e+01
-1.657529950141906960e+00 2.621953010559082031e+00 -6.029564142227172852e-01 1.100000000000000000e+01
-1.987552642822266069e+00 3.146428585052489790e+00 -5.894450545310974121e-01 9.000000000000000000e+00
-2.501637935638428178e+00 3.963323116302489790e+00 -5.754670500755310059e-01 1.000000000000000000e+01
-3.289441585540771040e+00 5.213449001312255859e+00 -5.393197536468505859e-01 6.000000000000000000e+00
-4.898747920989990234e+00 7.770054340362548828e+00 -4.813861250877379816e-01 1.000000000000000000e+00
-9.665450096130371094e+00 1.534253501892090021e+01 -3.165168464183806818e-01 3.000000000000000000e+00
-1.242174863815308061e+00 1.977895140647887962e+00 -6.258244514465332031e-01 1.900000000000000000e+01
-1.404606938362122026e+00 2.238267421722412109e+00 -6.100672483444213867e-01 1.300000000000000000e+01
-1.644194483757019043e+00 2.621070623397827148e+00 -6.014299392700195312e-01 1.100000000000000000e+01
-1.974459171295166016e+00 3.149999856948852983e+00 -5.888193249702453613e-01 9.000000000000000000e+00
-2.480412006378173828e+00 3.960254907608031782e+00 -5.737608671188354492e-01 1.000000000000000000e+01
-3.271223068237305132e+00 5.224899768829345703e+00 -5.393197536468505859e-01 6.000000000000000000e+00
-4.869476795196533203e+00 7.783720016479492188e+00 -4.811767935752869207e-01 1.000000000000000000e+00
-9.543997764587402344e+00 1.526765823364257990e+01 -3.142829239368439276e-01 3.000000000000000000e+00
-1.228111147880553977e+00 1.970742225646973100e+00 -6.222009658813476562e-01 1.800000000000000000e+01
-1.402965903282165971e+00 2.253082275390625000e+00 -6.127666831016540527e-01 1.300000000000000000e+01
-1.624660611152648926e+00 2.610126495361328125e+00 -5.976137518882751465e-01 1.100000000000000000e+01
-1.969711303710937944e+00 3.166937112808227983e+00 -5.906965136528015137e-01 9.000000000000000000e+00
-2.470764398574829102e+00 3.975632905960083008e+00 -5.747358202934265137e-01 1.000000000000000000e+01
-3.250862121582030806e+00 5.232902050018311435e+00 -5.389711260795593262e-01 6.000000000000000000e+00
-4.827529907226563388e+00 7.776913642883300781e+00 -4.797113835811614990e-01 1.000000000000000000e+00
-9.505401611328125000e+00 1.532467079162598012e+01 -3.147715926170349121e-01 3.000000000000000000e+00
-1.215128540992737038e+00 1.965158462524414062e+00 -6.190951466560363770e-01 1.900000000000000000e+01
-1.390995383262634055e+00 2.251334428787231001e+00 -6.109670400619506836e-01 1.300000000000000000e+01
-1.618634581565856934e+00 2.620792627334595171e+00 -5.987586379051208496e-01 1.200000000000000000e+01
-1.952420115470886008e+00 3.163707256317139116e+00 -5.888193249702453613e-01 9.000000000000000000e+00
-2.459997653961182085e+00 3.989302396774291992e+00 -5.754670500755310059e-01 8.000000000000000000e+00
-3.214803218841553178e+00 5.215384483337402344e+00 -5.360078215599060059e-01 6.000000000000000000e+00
-4.794069766998291016e+00 7.783514022827148438e+00 -4.790833294391632080e-01 1.000000000000000000e+00
-9.420407295227050781e+00 1.530666732788085938e+01 -3.137244582176207941e-01 3.000000000000000000e+00
-1.213312745094299094e+00 1.977621316909790039e+00 -6.216833591461181641e-01 1.900000000000000000e+01
-1.386183857917786089e+00 2.261160373687744141e+00 -6.123167872428894043e-01 1.200000000000000000e+01
-1.614605426788330078e+00 2.634796619415283203e+00 -6.006667017936706543e-01 1.100000000000000000e+01
-1.939301729202270952e+00 3.167133808135985884e+00 -5.881935954093933105e-01 9.000000000000000000e+00
-2.450201511383057085e+00 4.004638195037841797e+00 -5.764420032501220703e-01 8.000000000000000000e+00
-3.213211059570312944e+00 5.253769874572753906e+00 -5.387967824935913086e-01 6.000000000000000000e+00
-4.760622024536132812e+00 7.789975643157958984e+00 -4.784553050994873047e-01 1.000000000000000000e+00
-9.398184776306152344e+00 1.539065742492675959e+01 -3.147715926170349121e-01 3.000000000000000000e+00
-1.206402063369750977e+00 1.981844544410706010e+00 -6.216833591461181641e-01 1.900000000000000000e+01
-1.371193528175354004e+00 2.254330873489379883e+00 -6.091674566268920898e-01 1.300000000000000000e+01
-1.605398416519165039e+00 2.640416622161864790e+00 -6.006667017936706543e-01 1.200000000000000000e+01
-1.926183223724365012e+00 3.170507431030272993e+00 -5.875678658485412598e-01 9.000000000000000000e+00
-2.434147596359252930e+00 4.009772777557373047e+00 -5.759544968605041504e-01 8.000000000000000000e+00
-3.189684391021728960e+00 5.256437301635742188e+00 -5.379252433776855469e-01 4.000000000000000000e+00
-4.723045349121093750e+00 7.789467811584472656e+00 -4.774085879325867254e-01 1.000000000000000000e+00
-1.200475573539734109e+00 1.987697243690490945e+00 -6.222009658813476562e-01 1.800000000000000000e+01
-1.362309217453002930e+00 2.257434844970703125e+00 -6.087175607681274414e-01 1.200000000000000000e+01
-1.589073300361633079e+00 2.634236812591553178e+00 -5.979954004287719727e-01 1.200000000000000000e+01
-1.917143940925597922e+00 3.180595397949219194e+00 -5.881935954093933105e-01 9.000000000000000000e+00
-2.410918474197388139e+00 4.002940654754638672e+00 -5.737608671188354492e-01 1.000000000000000000e+01
-3.172344207763671875e+00 5.269246101379395419e+00 -5.380995273590087891e-01 6.000000000000000000e+00
-4.693767547607421875e+00 7.802483558654785156e+00 -4.771992564201354980e-01 3.000000000000000000e+00
-1.191543936729430930e+00 1.988561272621155007e+00 -6.211656928062438965e-01 1.700000000000000000e+01
-1.355422019958496094e+00 2.263848543167113814e+00 -6.091674566268920898e-01 1.400000000000000000e+01
-1.578860163688659890e+00 2.638082981109619141e+00 -5.976137518882751465e-01 1.100000000000000000e+01
-1.908057570457458052e+00 3.190658807754517046e+00 -5.888193249702453613e-01 9.000000000000000000e+00
-2.397948980331420898e+00 4.013036251068115234e+00 -5.740045905113220215e-01 1.000000000000000000e+01
-3.144736766815185991e+00 5.264893531799316406e+00 -5.365307331085205078e-01 8.000000000000000000e+00
-4.666502952575683594e+00 7.818820476531982422e+00 -4.771992564201354980e-01 3.000000000000000000e+00
-9.134078979492187500e+00 1.531648159027099965e+01 -3.112811148166655939e-01 3.000000000000000000e+00
-1.180993318557739036e+00 1.985859990119934082e+00 -6.190951466560363770e-01 1.800000000000000000e+01
-1.353880405426024947e+00 2.278382539749145952e+00 -6.118668913841247559e-01 1.200000000000000000e+01
-1.576118946075439009e+00 2.653431892395019975e+00 -5.999034643173217773e-01 1.100000000000000000e+01
-1.898474693298340066e+00 3.198667287826538086e+00 -5.891321897506713867e-01 1.000000000000000000e+01
-2.383615493774414062e+00 4.019258499145507812e+00 -5.737608671188354492e-01 1.000000000000000000e+01
-3.117100477218627930e+00 5.258153915405273438e+00 -5.347876548767089844e-01 6.000000000000000000e+00
-4.640549182891845703e+00 7.834252357482910156e+00 -4.771992564201354980e-01 3.000000000000000000e+00
-9.097496986389160156e+00 1.537077903747558949e+01 -3.117697834968566895e-01 3.000000000000000000e+00
-3.163768005371094105e+01 5.345380020141602273e+01 1.664361763000487926e+01 2.700000000000000000e+01
-1.175035834312438965e+00 1.991634249687195046e+00 -6.196128129959106445e-01 1.900000000000000000e+01
-1.345919132232666016e+00 2.283094406127930132e+00 -6.118668913841247559e-01 1.200000000000000000e+01
-1.565850496292114036e+00 2.657226085662841797e+00 -5.995218753814697266e-01 1.200000000000000000e+01
-1.879279494285583052e+00 3.191657066345214844e+00 -5.866292715072631836e-01 1.000000000000000000e+01
-2.377624034881591797e+00 4.041242122650145596e+00 -5.757107734680175781e-01 1.000000000000000000e+01
-3.099736928939818892e+00 5.270720005035400391e+00 -5.349619388580322266e-01 6.000000000000000000e+00
-4.613174438476563388e+00 7.850402832031250000e+00 -4.771992564201354980e-01 3.000000000000000000e+00
-9.041762351989746094e+00 1.539899253845215021e+01 -3.116999864578247070e-01 3.000000000000000000e+00
-3.145089912414551137e+01 5.356391143798828125e+01 1.664361763000487926e+01 2.700000000000000000e+01
-1.169052362442017046e+00 1.997390985488892046e+00 -6.201304197311401367e-01 1.800000000000000000e+01
-1.328103661537169966e+00 2.270956754684447798e+00 -6.073678731918334961e-01 1.100000000000000000e+01
-1.555574655532836914e+00 2.660980701446533203e+00 -5.991402268409729004e-01 1.100000000000000000e+01
-1.869123339653014915e+00 3.199903249740601030e+00 -5.869421362876892090e-01 1.000000000000000000e+01
-2.351495504379272017e+00 4.028943538665770596e+00 -5.727859139442443848e-01 1.000000000000000000e+01
-3.086339950561522993e+00 5.290112495422363281e+00 -5.358334779739379883e-01 6.000000000000000000e+00
-4.593790054321289062e+00 7.880261898040770596e+00 -4.780366122722625732e-01 1.000000000000000000e+00
-8.961786270141601562e+00 1.538553428649901988e+01 -3.107924461364746094e-01 3.000000000000000000e+00
-1.167893171310425027e+00 2.011483669281005859e+00 -6.232362389564514160e-01 1.800000000000000000e+01
-1.323102116584778054e+00 2.280635833740233931e+00 -6.087175607681274414e-01 1.300000000000000000e+01
-1.544306874275207964e+00 2.662997722625731978e+00 -5.983769893646240234e-01 1.100000000000000000e+01
-1.855961441993712935e+00 3.202989816665648970e+00 -5.863163471221923828e-01 9.000000000000000000e+00
-2.335428237915039062e+00 4.033691406250000000e+00 -5.722984075546264648e-01 1.000000000000000000e+01
-3.067855119705200195e+00 5.300853729248046875e+00 -5.358334779739379883e-01 9.000000000000000000e+00
-4.562255382537841797e+00 7.889333248138427734e+00 -4.776179492473601740e-01 1.000000000000000000e+00
-8.835993766784667969e+00 1.529205989837645951e+01 -3.082793056964874268e-01 3.000000000000000000e+00
-1.157007932662964089e+00 2.008851766586304155e+00 -6.211656928062438965e-01 1.700000000000000000e+01
-1.315133213996886985e+00 2.285240411758422852e+00 -6.087175607681274414e-01 1.300000000000000000e+01
-1.528149127960205078e+00 2.656459808349608931e+00 -5.957056879997253418e-01 1.100000000000000000e+01
-1.855598092079163042e+00 3.228287696838378906e+00 -5.897579193115234375e-01 1.000000000000000000e+01
-2.320345163345336914e+00 4.040097713470458984e+00 -5.720546841621398926e-01 8.000000000000000000e+00
-3.050325155258179155e+00 5.313258171081542969e+00 -5.360078215599060059e-01 9.000000000000000000e+00
-4.530713558197020596e+00 7.898280620574951172e+00 -4.771992564201354980e-01 1.000000000000000000e+00
-8.818358421325683594e+00 1.538526630401610973e+01 -3.095358908176422119e-01 3.000000000000000000e+00
-1.147113680839539018e+00 2.007846117019652876e+00 -6.196128129959106445e-01 1.900000000000000000e+01
-1.313910961151123047e+00 2.301663875579833984e+00 -6.118668913841247559e-01 1.100000000000000000e+01
-1.524705171585083008e+00 2.672008991241455078e+00 -5.979954004287719727e-01 1.100000000000000000e+01
-1.837468981742859109e+00 3.222733020782471147e+00 -5.875678658485412598e-01 9.000000000000000000e+00
-2.308193683624268022e+00 4.051621913909912109e+00 -5.725421905517578125e-01 8.000000000000000000e+00
-3.014012813568114790e+00 5.292709350585938388e+00 -5.328702330589294434e-01 8.000000000000000000e+00
-4.505091190338134766e+00 7.917519569396972656e+00 -4.774085879325867254e-01 1.000000000000000000e+00
-8.729020118713378906e+00 1.535337352752686080e+01 -3.082793056964874268e-01 3.000000000000000000e+00
-1.134732604026793990e+00 2.001555681228638139e+00 -6.165069937705993652e-01 1.900000000000000000e+01
-1.302429199218750000e+00 2.299226045608520952e+00 -6.100672483444213867e-01 1.300000000000000000e+01
-1.518738150596619096e+00 2.682175636291503906e+00 -5.991402268409729004e-01 1.100000000000000000e+01
-1.820935606956481934e+00 3.218492746353148970e+00 -5.856906175613403320e-01 9.000000000000000000e+00
-2.295722246170043945e+00 4.060982227325438565e+00 -5.727859139442443848e-01 1.000000000000000000e+01
-2.995464801788330078e+00 5.300940513610839844e+00 -5.326958894729614258e-01 6.000000000000000000e+00
-4.470955371856688565e+00 7.918501853942871094e+00 -4.765712320804595947e-01 1.000000000000000000e+00
-8.664302825927734375e+00 1.535785198211669922e+01 -3.077906370162963867e-01 3.000000000000000000e+00
-1.133420348167418990e+00 2.015607595443726030e+00 -6.196128129959106445e-01 1.900000000000000000e+01
-1.290577173233032005e+00 2.296962499618529829e+00 -6.082676649093627930e-01 1.400000000000000000e+01
-1.503597974777221902e+00 2.677190065383911133e+00 -5.968505144119262695e-01 1.200000000000000000e+01
-1.811623334884643999e+00 3.228274822235106978e+00 -5.863163471221923828e-01 9.000000000000000000e+00
-2.276678323745727983e+00 4.060313701629638672e+00 -5.715672373771667480e-01 8.000000000000000000e+00
-2.980839490890502930e+00 5.318316459655761719e+00 -5.333931446075439453e-01 9.000000000000000000e+00
-4.431576251983642578e+00 7.913149356842041016e+00 -4.753151535987854004e-01 1.000000000000000000e+00
-8.610640525817871094e+00 1.538800239562987926e+01 -3.077906370162963867e-01 3.000000000000000000e+00
-1.123203039169311968e+00 2.014686346054077148e+00 -6.180598735809326172e-01 1.800000000000000000e+01
-1.282149672508239968e+00 2.301677227020264116e+00 -6.082676649093627930e-01 1.400000000000000000e+01
-1.499506115913390891e+00 2.692974567413330078e+00 -5.991402268409729004e-01 1.100000000000000000e+01
-1.799778938293457031e+00 3.234893083572388139e+00 -5.863163471221923828e-01 9.000000000000000000e+00
-2.258887767791748047e+00 4.063425540924072266e+00 -5.708360075950622559e-01 1.000000000000000000e+01
-2.967133283615111861e+00 5.339655399322509766e+00 -5.344390273094177246e-01 9.000000000000000000e+00
-4.396726608276367188e+00 7.918861389160156250e+00 -4.746871292591094971e-01 1.000000000000000000e+00
-8.540601730346679688e+00 1.539497756958007990e+01 -3.073019683361052912e-01 3.000000000000000000e+00
-1.117098450660706010e+00 2.020285367965697798e+00 -6.185775399208068848e-01 1.600000000000000000e+01
-1.278819441795348899e+00 2.314667463302611861e+00 -6.105171442031860352e-01 1.300000000000000000e+01
-1.481554746627808061e+00 2.682725191116333008e+00 -5.957056879997253418e-01 1.000000000000000000e+01
-1.794202208518981934e+00 3.251533031463623047e+00 -5.881935954093933105e-01 9.000000000000000000e+00
-2.247565269470214844e+00 4.076500892639160156e+00 -5.715672373771667480e-01 1.000000000000000000e+01
-2.939821243286132812e+00 5.334275722503662109e+00 -5.328702330589294434e-01 9.000000000000000000e+00
-4.376764774322509766e+00 7.948156833648681641e+00 -4.755244851112365723e-01 1.000000000000000000e+00
-8.432828903198242188e+00 1.532658386230468928e+01 -3.053472936153411865e-01 2.000000000000000000e+00
-1.104817509651184082e+00 2.013816356658935991e+00 -6.154716610908508301e-01 1.900000000000000000e+01
-1.269263267517090066e+00 2.315477848052978960e+00 -6.096173524856567383e-01 1.300000000000000000e+01
-1.473593831062316895e+00 2.689345121383666992e+00 -5.960872769355773926e-01 1.100000000000000000e+01
-1.779615402221679910e+00 3.250534057617187944e+00 -5.869421362876892090e-01 9.000000000000000000e+00
-2.227366209030150923e+00 4.071741104125976562e+00 -5.698610544204711914e-01 1.000000000000000000e+01
-2.911601305007935014e+00 5.324765682220458984e+00 -5.309528112411499023e-01 9.000000000000000000e+00
-4.344638347625732422e+00 7.952110767364501953e+00 -4.748964607715607245e-01 1.000000000000000000e+00
-8.364710807800292969e+00 1.532287025451659979e+01 -3.047190308570861816e-01 2.000000000000000000e+00
-1.098704576492310014e+00 2.019357681274414062e+00 -6.159893274307250977e-01 1.800000000000000000e+01
-1.262103796005249023e+00 2.321606397628784180e+00 -6.100672483444213867e-01 1.400000000000000000e+01
-1.466072082519531028e+00 2.697922468185424805e+00 -5.968505144119262695e-01 1.100000000000000000e+01
-1.762602686882019043e+00 3.246310234069824219e+00 -5.850648880004882812e-01 9.000000000000000000e+00
-2.215032577514647993e+00 4.082980632781982422e+00 -5.703485012054443359e-01 1.000000000000000000e+01
-2.900594949722290039e+00 5.348908424377441406e+00 -5.323472619056701660e-01 9.000000000000000000e+00
-4.322562694549561435e+00 7.977764606475830078e+00 -4.755244851112365723e-01 1.000000000000000000e+00
-8.313076972961425781e+00 1.535549259185791016e+01 -3.047888278961182196e-01 2.000000000000000000e+00
-1.093483686447143999e+00 2.026580810546875000e+00 -6.170246005058288574e-01 1.800000000000000000e+01
-1.246593952178955078e+00 2.312275171279906782e+00 -6.064680218696594238e-01 1.300000000000000000e+01
-1.459439635276793990e+00 2.708208560943603960e+00 -5.979954004287719727e-01 1.100000000000000000e+01
-1.752196669578552024e+00 3.254182577133179155e+00 -5.853777527809143066e-01 1.000000000000000000e+01
-2.197945356369018999e+00 4.085443496704101562e+00 -5.696173310279846191e-01 8.000000000000000000e+00
-2.876244068145751953e+00 5.348472118377686435e+00 -5.313013792037963867e-01 9.000000000000000000e+00
-4.270109653472900391e+00 7.947060585021972656e+00 -4.728030264377593994e-01 1.000000000000000000e+00
-8.217807769775390625e+00 1.530689525604248047e+01 -3.032530248165131170e-01 2.000000000000000000e+00
-1.091871380805969016e+00 2.040605545043944868e+00 -6.201304197311401367e-01 1.700000000000000000e+01
-1.242190122604369895e+00 2.323486566543579102e+00 -6.082676649093627930e-01 1.400000000000000000e+01
-1.450902700424193892e+00 2.715018033981322798e+00 -5.983769893646240234e-01 1.100000000000000000e+01
-1.738035559654236062e+00 3.255051374435424805e+00 -5.844391584396362305e-01 9.000000000000000000e+00
-2.178999185562133789e+00 4.084333419799804688e+00 -5.683985948562622070e-01 1.000000000000000000e+01
-2.858494520187377930e+00 5.360237598419188565e+00 -5.314757227897644043e-01 9.000000000000000000e+00
-4.225437641143798828e+00 7.930190086364746094e+00 -4.709189236164093018e-01 1.000000000000000000e+00
-8.164326667785644531e+00 1.533548831939697088e+01 -3.032530248165131170e-01 2.000000000000000000e+00
-1.083643198013306108e+00 2.040613412857056108e+00 -6.190951466560363770e-01 1.800000000000000000e+01
-1.235798001289367898e+00 2.329098939895629883e+00 -6.087175607681274414e-01 1.200000000000000000e+01
-1.435007095336914062e+00 2.705687284469604048e+00 -5.953240394592285156e-01 1.200000000000000000e+01
-1.733350634574889915e+00 3.270968198776245117e+00 -5.863163471221923828e-01 9.000000000000000000e+00
-2.170801639556885210e+00 4.099930763244628906e+00 -5.696173310279846191e-01 8.000000000000000000e+00
-2.845368623733520952e+00 5.376235008239746094e+00 -5.321729779243469238e-01 9.000000000000000000e+00
-4.200503826141357422e+00 7.943425655364990234e+00 -4.709189236164093018e-01 1.000000000000000000e+00
-8.097424507141113281e+00 1.532569980621338068e+01 -3.025549054145812988e-01 2.000000000000000000e+00
-1.072013020515441895e+00 2.035836696624755859e+00 -6.165069937705993652e-01 1.900000000000000000e+01
-1.233104586601257102e+00 2.343746185302733931e+00 -6.114169359207153320e-01 1.200000000000000000e+01
-1.428295135498047097e+00 2.715892791748046875e+00 -5.964689254760742188e-01 1.100000000000000000e+01
-1.721003413200377974e+00 3.275250196456909180e+00 -5.860034823417663574e-01 1.000000000000000000e+01
-2.150940418243408203e+00 4.096937656402587891e+00 -5.681548714637756348e-01 1.000000000000000000e+01
-2.817326545715332031e+00 5.368492603302001953e+00 -5.304298400878906250e-01 1.100000000000000000e+01
-4.180170059204101562e+00 7.972190380096436435e+00 -4.717563092708588202e-01 1.000000000000000000e+00
-8.019750595092773438e+00 1.530781745910645064e+01 -3.016473948955535889e-01 2.000000000000000000e+00
-1.063111901283263938e+00 2.036141395568848100e+00 -6.154716610908508301e-01 1.900000000000000000e+01
-1.214099764823914018e+00 2.327303171157836914e+00 -6.060181260108947754e-01 1.200000000000000000e+01
-1.422437191009521040e+00 2.727825164794921875e+00 -5.979954004287719727e-01 1.100000000000000000e+01
-1.703171014785767046e+00 3.268974542617797852e+00 -5.838134288787841797e-01 9.000000000000000000e+00
-2.137542963027954102e+00 4.106181621551513672e+00 -5.683985948562622070e-01 1.000000000000000000e+01
-2.796730279922484907e+00 5.374759197235107422e+00 -5.300812125205993652e-01 9.000000000000000000e+00
-4.139418125152587891e+00 7.961924076080322266e+00 -4.702908992767333984e-01 1.000000000000000000e+00
-7.934926033020020419e+00 1.527538299560547053e+01 -3.004606366157531738e-01 2.000000000000000000e+00
-1.062214851379394975e+00 2.051849126815795898e+00 -6.190951466560363770e-01 1.900000000000000000e+01
-1.203282713890075906e+00 2.326334238052368164e+00 -6.046684384346008301e-01 1.200000000000000000e+01
-1.413808345794677956e+00 2.734517574310303178e+00 -5.983769893646240234e-01 1.100000000000000000e+01
-1.689936518669127974e+00 3.271389722824097124e+00 -5.831876993179321289e-01 1.000000000000000000e+01
-2.126838445663452148e+00 4.120674133300781250e+00 -5.693735480308532715e-01 1.000000000000000000e+01
-2.774297952651977983e+00 5.377406597137451172e+00 -5.293839573860168457e-01 9.000000000000000000e+00
-4.109770774841308594e+00 7.972774505615234375e+00 -4.700815677642822266e-01 1.000000000000000000e+00
-7.844932556152343750e+00 1.523187732696533025e+01 -2.990644276142119806e-01 2.000000000000000000e+00
-1.056810379028320090e+00 2.058981657028197798e+00 -6.201304197311401367e-01 2.000000000000000000e+01
-1.193376421928405984e+00 2.327052116394042969e+00 -6.037686467170715332e-01 1.200000000000000000e+01
-1.399776577949523926e+00 2.730700731277465820e+00 -5.964689254760742188e-01 1.200000000000000000e+01
-1.683009386062622070e+00 3.286059617996215820e+00 -5.847520232200622559e-01 1.000000000000000000e+01
-2.104303121566772017e+00 4.112168788909912109e+00 -5.671799182891845703e-01 1.000000000000000000e+01
-2.755510330200194868e+00 5.387057781219482422e+00 -5.293839573860168457e-01 1.100000000000000000e+01
-4.069190502166748047e+00 7.962173461914063388e+00 -4.686161577701569159e-01 1.000000000000000000e+00
-7.820816040039063388e+00 1.531615924835205078e+01 -3.001813888549805243e-01 2.000000000000000000e+00
-1.045236110687256081e+00 2.054049491882324219e+00 -6.175422668457031250e-01 2.100000000000000000e+01
-1.192311763763427956e+00 2.345100641250609907e+00 -6.073678731918334961e-01 1.300000000000000000e+01
-1.385788798332213911e+00 2.726819276809691939e+00 -5.945608019828796387e-01 1.200000000000000000e+01
-1.669739961624145952e+00 3.288391828536986861e+00 -5.841262936592102051e-01 1.000000000000000000e+01
-2.096222877502440962e+00 4.131881237030029297e+00 -5.688861012458801270e-01 1.000000000000000000e+01
-2.733084917068481001e+00 5.389535427093505859e+00 -5.286867618560791016e-01 1.100000000000000000e+01
-4.041372776031494141e+00 7.976328849792479581e+00 -4.686161577701569159e-01 1.000000000000000000e+00
-7.738403320312500000e+00 1.528627395629882990e+01 -2.990644276142119806e-01 2.000000000000000000e+00
-1.031968832015990989e+00 2.045611858367919922e+00 -6.139187812805175781e-01 1.900000000000000000e+01
-1.187627077102660911e+00 2.356209039688109907e+00 -6.091674566268920898e-01 1.300000000000000000e+01
-1.378028750419616921e+00 2.735146522521973100e+00 -5.953240394592285156e-01 1.200000000000000000e+01
-1.660027503967284934e+00 3.297729253768920898e+00 -5.847520232200622559e-01 1.000000000000000000e+01
-2.078219413757324219e+00 4.132079601287841797e+00 -5.679111480712890625e-01 1.000000000000000000e+01
-2.707095861434936968e+00 5.384802341461181641e+00 -5.272922515869140625e-01 9.000000000000000000e+00
-4.002748012542724609e+00 7.968970298767089844e+00 -4.673600792884827215e-01 1.000000000000000000e+00
-7.684997558593750000e+00 1.531319236755370916e+01 -2.990644276142119806e-01 2.000000000000000000e+00
-1.027414441108704057e+00 2.054385185241699219e+00 -6.154716610908508301e-01 1.900000000000000000e+01
-1.171555757522583008e+00 2.344651222229003906e+00 -6.051183342933654785e-01 1.200000000000000000e+01
-1.370227336883544922e+00 2.743452787399291992e+00 -5.960872769355773926e-01 1.100000000000000000e+01
-1.646742105484009011e+00 3.299968481063843218e+00 -5.841262936592102051e-01 1.000000000000000000e+01
-2.063783168792725053e+00 4.139308452606201172e+00 -5.679111480712890625e-01 1.000000000000000000e+01
-2.686505556106566939e+00 5.390652656555175781e+00 -5.269436240196228027e-01 1.100000000000000000e+01
-3.974906444549560991e+00 7.982893943786621094e+00 -4.673600792884827215e-01 1.000000000000000000e+00
-7.572711467742919922e+00 1.522176074981688920e+01 -2.967607080936431885e-01 2.000000000000000000e+00
-1.023171186447143999e+00 2.062973022460937944e+00 -6.170246005058288574e-01 1.700000000000000000e+01
-1.162908911705017090e+00 2.346777200698852983e+00 -6.046684384346008301e-01 1.400000000000000000e+01
-1.364607810974121094e+00 2.755018711090087891e+00 -5.976137518882751465e-01 1.200000000000000000e+01
-1.634913802146912065e+00 3.303640842437744141e+00 -5.838134288787841797e-01 1.000000000000000000e+01
-2.048285722732543945e+00 4.142570495605468750e+00 -5.674236416816711426e-01 1.000000000000000000e+01
-2.676559686660767046e+00 5.415606975555419922e+00 -5.285124182701110840e-01 1.100000000000000000e+01
-3.937800884246826172e+00 7.974541187286376953e+00 -4.661040306091309149e-01 3.000000000000000000e+00
-7.554043769836425781e+00 1.531134796142577947e+01 -2.980172932147979736e-01 2.000000000000000000e+00
-1.015963912010193093e+00 2.066531896591186968e+00 -6.170246005058288574e-01 1.800000000000000000e+01
-1.155569195747375044e+00 2.352571249008179155e+00 -6.051183342933654785e-01 1.300000000000000000e+01
-1.354982614517211914e+00 2.759765148162841797e+00 -5.976137518882751465e-01 1.200000000000000000e+01
-1.625981926918030007e+00 3.314648151397705078e+00 -5.847520232200622559e-01 1.000000000000000000e+01
-2.026823759078979048e+00 4.135435104370117188e+00 -5.654737353324890137e-01 1.000000000000000000e+01
-2.659392356872559038e+00 5.428495407104492188e+00 -5.288610458374023438e-01 1.100000000000000000e+01
-3.909940481185913086e+00 7.988238334655761719e+00 -4.661040306091309149e-01 1.000000000000000000e+00
-7.482981204986572266e+00 1.530169582366943004e+01 -2.973192036151885986e-01 2.000000000000000000e+00
-1.008744120597838911e+00 2.070065736770629883e+00 -6.170246005058288574e-01 1.700000000000000000e+01
-1.148203253746032937e+00 2.358342647552489790e+00 -6.055682301521301270e-01 1.100000000000000000e+01
-1.334172725677490012e+00 2.741528987884521040e+00 -5.926527380943298340e-01 1.000000000000000000e+01
-1.613538026809691939e+00 3.318526983261107954e+00 -5.844391584396362305e-01 1.000000000000000000e+01
-2.011508703231811968e+00 4.140699386596679688e+00 -5.652300119400024414e-01 1.000000000000000000e+01
-2.628243446350098100e+00 5.412653446197509766e+00 -5.264207124710083008e-01 1.100000000000000000e+01
-3.875058174133300781e+00 7.987462043762207031e+00 -4.652666449546813965e-01 3.000000000000000000e+00
-7.408589839935302734e+00 1.528453636169433949e+01 -2.964814901351929266e-01 2.000000000000000000e+00
-9.947905540466308594e-01 2.059657573699951172e+00 -6.128835082054138184e-01 1.800000000000000000e+01
-1.145045638084412065e+00 2.372866868972777876e+00 -6.082676649093627930e-01 1.100000000000000000e+01
-1.330565452575684038e+00 2.758547544479370117e+00 -5.953240394592285156e-01 1.200000000000000000e+01
-1.598514080047606978e+00 3.317021131515502930e+00 -5.831876993179321289e-01 1.000000000000000000e+01
-1.997903943061829057e+00 4.149484157562255859e+00 -5.654737353324890137e-01 8.000000000000000000e+00
-2.604149580001831055e+00 5.411023139953613281e+00 -5.253748297691345215e-01 1.100000000000000000e+01
-3.854077100753784180e+00 8.015339851379394531e+00 -4.661040306091309149e-01 3.000000000000000000e+00
-7.332677364349365234e+00 1.526343917846680043e+01 -2.955739498138427734e-01 2.000000000000000000e+00
-9.909314513206481934e-01 2.070087432861328125e+00 -6.149540543556213379e-01 1.900000000000000000e+01
-1.132551789283751997e+00 2.368059158325194868e+00 -6.060181260108947754e-01 1.200000000000000000e+01
-1.322621703147887962e+00 2.766717910766602007e+00 -5.960872769355773926e-01 1.100000000000000000e+01
-1.581817626953125000e+00 3.311885833740233931e+00 -5.813104510307312012e-01 1.000000000000000000e+01
-1.986827015876770020e+00 4.163599014282226562e+00 -5.664486885070800781e-01 8.000000000000000000e+00
-2.589534282684326172e+00 5.429071903228759766e+00 -5.262463688850402832e-01 1.100000000000000000e+01
-3.812327623367310014e+00 7.999896049499511719e+00 -4.644292891025543213e-01 3.000000000000000000e+00
-7.279353618621826172e+00 1.528894233703612926e+01 -2.955739498138427734e-01 2.000000000000000000e+00
-9.836994409561157227e-01 2.073534011840819868e+00 -6.149540543556213379e-01 1.900000000000000000e+01
-1.120940208435059038e+00 2.364954233169556108e+00 -6.042185425758361816e-01 1.200000000000000000e+01
-1.315477609634398970e+00 2.776640415191649947e+00 -5.972321629524230957e-01 1.200000000000000000e+01
-1.577008366584778054e+00 3.331670761108397993e+00 -5.838134288787841797e-01 9.000000000000000000e+00
-1.970583915710448997e+00 4.166920185089111328e+00 -5.659612417221069336e-01 8.000000000000000000e+00
-2.572270631790161133e+00 5.441680431365966797e+00 -5.265949964523315430e-01 1.100000000000000000e+01
-3.789496898651123047e+00 8.023990631103515625e+00 -4.650573134422302246e-01 1.000000000000000000e+00
-7.208874225616455078e+00 1.527808856964110973e+01 -2.948758602142333984e-01 2.000000000000000000e+00
-9.789212942123413086e-01 2.082199811935424805e+00 -6.165069937705993652e-01 1.900000000000000000e+01
-1.110192656517029031e+00 2.363561153411864790e+00 -6.028688549995422363e-01 1.200000000000000000e+01
-1.299936771392822044e+00 2.768775463104248047e+00 -5.945608019828796387e-01 1.100000000000000000e+01
-1.560335755348206010e+00 3.326424837112427202e+00 -5.819361805915832520e-01 9.000000000000000000e+00
-1.945917963981627974e+00 4.152203559875488281e+00 -5.630363821983337402e-01 8.000000000000000000e+00
-2.556640625000000000e+00 5.457843303680419922e+00 -5.272922515869140625e-01 1.100000000000000000e+01
-3.768237829208374023e+00 8.051641464233398438e+00 -4.658946692943572998e-01 1.000000000000000000e+00
-7.140254020690917969e+00 1.527055358886718928e+01 -2.942475676536560059e-01 2.000000000000000000e+00
-9.675679206848144531e-01 2.076848506927489790e+00 -6.139187812805175781e-01 2.000000000000000000e+01
-1.107691884040832964e+00 2.379789113998413086e+00 -6.060181260108947754e-01 1.200000000000000000e+01
-1.286951422691344993e+00 2.766175985336304155e+00 -5.930343866348266602e-01 1.200000000000000000e+01
-1.553710699081420898e+00 3.342599153518677202e+00 -5.838134288787841797e-01 1.000000000000000000e+01
-1.937265038490294966e+00 4.171573638916015625e+00 -5.647425651550292969e-01 1.000000000000000000e+01
-2.529184818267821822e+00 5.448662281036376953e+00 -5.255491137504577637e-01 9.000000000000000000e+00
-3.740109205245972124e+00 8.064745903015136719e+00 -4.658946692943572998e-01 1.000000000000000000e+00
-7.063367366790770596e+00 1.524458122253417969e+01 -2.932702302932739258e-01 2.000000000000000000e+00
-9.583306312561035156e-01 2.076872825622559038e+00 -6.128835082054138184e-01 1.900000000000000000e+01
-1.096514582633971946e+00 2.378523826599121094e+00 -6.046684384346008301e-01 1.100000000000000000e+01
-1.276804208755492942e+00 2.770874500274658203e+00 -5.930343866348266602e-01 1.100000000000000000e+01
-1.537318587303162065e+00 3.339299440383911133e+00 -5.822491049766540527e-01 1.100000000000000000e+01
-1.923621416091918945e+00 4.182252883911132812e+00 -5.652300119400024414e-01 1.000000000000000000e+01
-2.506700754165648970e+00 5.452465057373046875e+00 -5.250262022018432617e-01 1.100000000000000000e+01
-3.697187185287476030e+00 8.049360275268554688e+00 -4.642199277877808172e-01 1.000000000000000000e+00
-7.020790100097656250e+00 1.529944705963134943e+01 -2.938287258148192804e-01 2.000000000000000000e+00
-9.518784284591674805e-01 2.081962108612060991e+00 -6.134011149406433105e-01 1.900000000000000000e+01
-1.089824557304382102e+00 2.385882139205933061e+00 -6.055682301521301270e-01 1.400000000000000000e+01
-1.274462938308716042e+00 2.791387796401977983e+00 -5.964689254760742188e-01 1.200000000000000000e+01
-1.522373676300049050e+00 3.337456464767456055e+00 -5.809975862503051758e-01 1.000000000000000000e+01
-1.906541347503662109e+00 4.183523178100585938e+00 -5.644987821578979492e-01 8.000000000000000000e+00
-2.486826896667480025e+00 5.459368705749511719e+00 -5.248518586158752441e-01 9.000000000000000000e+00
-3.670721769332886186e+00 8.065853118896484375e+00 -4.644292891025543213e-01 1.000000000000000000e+00
-6.949133396148681641e+00 1.528381252288818004e+01 -2.930608093738555908e-01 2.000000000000000000e+00
-9.481589198112487793e-01 2.092145681381226030e+00 -6.154716610908508301e-01 2.200000000000000000e+01
-1.076280236244202104e+00 2.377056360244750977e+00 -6.024188995361328125e-01 1.200000000000000000e+01
-1.266008734703063965e+00 2.797387123107910156e+00 -5.968505144119262695e-01 1.100000000000000000e+01
-1.511297941207885964e+00 3.342486619949340820e+00 -5.809975862503051758e-01 1.000000000000000000e+01
-1.887754559516906960e+00 4.178967952728270596e+00 -5.630363821983337402e-01 1.000000000000000000e+01
-2.471168994903564009e+00 5.473032951354979581e+00 -5.253748297691345215e-01 9.000000000000000000e+00
-3.640669107437133789e+00 8.070698738098144531e+00 -4.640105962753295898e-01 1.000000000000000000e+00
-6.908271789550781250e+00 1.532864952087401988e+01 -2.934796810150145929e-01 2.000000000000000000e+00
-9.416414499282836914e-01 2.097204923629761186e+00 -6.159893274307250977e-01 1.900000000000000000e+01
-1.071964144706726074e+00 2.389688968658446822e+00 -6.046684384346008301e-01 1.100000000000000000e+01
-1.248204112052917036e+00 2.783875226974486861e+00 -5.930343866348266602e-01 1.100000000000000000e+01
-1.503659009933471902e+00 3.356755495071411133e+00 -5.825619697570800781e-01 1.000000000000000000e+01
-1.870723009109497070e+00 4.180096149444580078e+00 -5.623051524162292480e-01 1.000000000000000000e+01
-2.452049493789672852e+00 5.481625556945800781e+00 -5.253748297691345215e-01 9.000000000000000000e+00
-3.602696180343627930e+00 8.061476707458496094e+00 -4.627545177936553955e-01 1.000000000000000000e+00
-6.835156440734863281e+00 1.530884742736816051e+01 -2.926419377326964777e-01 2.000000000000000000e+00
-9.311745762825012207e-01 2.093418598175048828e+00 -6.139187812805175781e-01 2.000000000000000000e+01
-1.061241865158081055e+00 2.388073682785034180e+00 -6.033187508583068848e-01 1.300000000000000000e+01
-1.235291123390197976e+00 2.781038284301757812e+00 -5.915079116821289062e-01 1.000000000000000000e+01
-1.494336366653441939e+00 3.367400407791138139e+00 -5.835005640983581543e-01 1.000000000000000000e+01
-1.856120347976685014e+00 4.186600685119628906e+00 -5.623051524162292480e-01 1.000000000000000000e+01
-2.425635337829589844e+00 5.473757266998291016e+00 -5.238060355186462402e-01 9.000000000000000000e+00
-3.579385519027709961e+00 8.084960937500000000e+00 -4.633825421333312988e-01 1.000000000000000000e+00
-6.784912586212158203e+00 1.533992862701416016e+01 -2.927815616130828857e-01 2.000000000000000000e+00
-9.215245842933654785e-01 2.091352701187133789e+00 -6.123658418655395508e-01 1.900000000000000000e+01
-1.055254936218261941e+00 2.397114276885985884e+00 -6.046684384346008301e-01 1.200000000000000000e+01
-1.232692241668700950e+00 2.801506280899047852e+00 -5.949424505233764648e-01 1.000000000000000000e+01
-1.474623441696166992e+00 3.354512453079224077e+00 -5.803718566894531250e-01 1.000000000000000000e+01
-1.841495037078856978e+00 4.193054199218750000e+00 -5.623051524162292480e-01 1.000000000000000000e+01
-2.407314538955688032e+00 5.484015464782714844e+00 -5.239803194999694824e-01 9.000000000000000000e+00
-3.551141977310181108e+00 8.097406387329101562e+00 -4.633825421333312988e-01 1.000000000000000000e+00
-6.715274810791015625e+00 1.532688713073729936e+01 -2.920834720134735107e-01 2.000000000000000000e+00
-9.122650027275085449e-01 2.089086055755614790e+00 -6.108129620552062988e-01 2.000000000000000000e+01
-1.045741558074950950e+00 2.397028207778931108e+00 -6.037686467170715332e-01 1.400000000000000000e+01
-1.222610592842102051e+00 2.803778886795043945e+00 -5.945608019828796387e-01 1.100000000000000000e+01
-1.459546566009521040e+00 3.350329160690308061e+00 -5.788075327873229980e-01 1.100000000000000000e+01
-1.829164624214171919e+00 4.202778339385986328e+00 -5.627925992012023926e-01 1.000000000000000000e+01
-2.393089532852172852e+00 5.501103401184082031e+00 -5.248518586158752441e-01 9.000000000000000000e+00
-3.517901897430419922e+00 8.094483375549316406e+00 -4.625451862812042236e-01 1.000000000000000000e+00
-6.686711788177490234e+00 1.540043067932129084e+01 -2.930608093738555908e-01 2.000000000000000000e+00
-9.080348610877990723e-01 2.099349975585937944e+00 -6.128835082054138184e-01 2.000000000000000000e+01
-1.032729983329772949e+00 2.389930725097655806e+00 -6.010692119598388672e-01 1.200000000000000000e+01
-1.214372992515563965e+00 2.811634302139281782e+00 -5.953240394592285156e-01 1.100000000000000000e+01
-1.450973391532897949e+00 3.362658500671387163e+00 -5.800589919090270996e-01 1.000000000000000000e+01
-1.812911391258239968e+00 4.205491542816162109e+00 -5.623051524162292480e-01 1.000000000000000000e+01
-2.373084068298339844e+00 5.507593631744384766e+00 -5.246775746345520020e-01 8.000000000000000000e+00
-3.489625453948975053e+00 8.106714248657226562e+00 -4.625451862812042236e-01 1.000000000000000000e+00
-6.610793113708496094e+00 1.537224102020264027e+01 -2.920834720134735107e-01 2.000000000000000000e+00
-9.052656292915344238e-01 2.113161563873291016e+00 -6.159893274307250977e-01 2.000000000000000000e+01
-1.025914788246155007e+00 2.397104024887084961e+00 -6.019690036773681641e-01 1.200000000000000000e+01
-1.203779101371764915e+00 2.814051151275635210e+00 -5.949424505233764648e-01 1.200000000000000000e+01
-1.436897754669189009e+00 3.362253427505493164e+00 -5.791203975677490234e-01 1.000000000000000000e+01
-1.797441005706787109e+00 4.209968566894531250e+00 -5.620614290237426758e-01 8.000000000000000000e+00
-2.362446546554564986e+00 5.536001205444335938e+00 -5.265949964523315430e-01 8.000000000000000000e+00
-3.458173274993896040e+00 8.111496925354003906e+00 -4.621264934539794922e-01 1.000000000000000000e+00
-6.557094097137451172e+00 1.539522361755370916e+01 -2.920834720134735107e-01 2.000000000000000000e+00
-8.948656916618347168e-01 2.109194993972777876e+00 -6.139187812805175781e-01 2.000000000000000000e+01
-1.020583033561706987e+00 2.407847404479980025e+00 -6.037686467170715332e-01 1.100000000000000000e+01
-1.190119624137877974e+00 2.809197187423706055e+00 -5.930343866348266602e-01 1.100000000000000000e+01
-1.429772257804871050e+00 3.378163576126099077e+00 -5.809975862503051758e-01 1.000000000000000000e+01
-1.781188368797302024e+00 4.212560653686523438e+00 -5.615739226341247559e-01 8.000000000000000000e+00
-2.336903095245360884e+00 5.529531955718994141e+00 -5.252004861831665039e-01 9.000000000000000000e+00
-3.426730394363402876e+00 8.116158485412597656e+00 -4.617078006267548163e-01 1.000000000000000000e+00
-6.503314495086669922e+00 1.541801834106444957e+01 -2.920834720134735107e-01 2.000000000000000000e+00
-8.841233253479003906e-01 2.103246212005614790e+00 -6.113305687904357910e-01 2.100000000000000000e+01
-1.017120003700255904e+00 2.421998977661132812e+00 -6.064680218696594238e-01 1.100000000000000000e+01
-1.180797457695007102e+00 2.813128471374512163e+00 -5.930343866348266602e-01 1.100000000000000000e+01
-1.417034149169922097e+00 3.379242897033690962e+00 -5.803718566894531250e-01 1.000000000000000000e+01
-1.768743276596068892e+00 4.222105979919433594e+00 -5.620614290237426758e-01 8.000000000000000000e+00
-2.313936710357666016e+00 5.526224136352539062e+00 -5.241546630859375000e-01 8.000000000000000000e+00
-3.407505035400391069e+00 8.145902633666992188e+00 -4.627545177936553955e-01 1.000000000000000000e+00
-6.452150821685791016e+00 1.543949890136718928e+01 -2.920834720134735107e-01 2.000000000000000000e+00
-8.782610297203063965e-01 2.109886646270751953e+00 -6.123658418655395508e-01 2.200000000000000000e+01
-1.002673268318176047e+00 2.411139965057373047e+00 -6.028688549995422363e-01 1.100000000000000000e+01
-1.172477602958678977e+00 2.820858716964722124e+00 -5.937975645065307617e-01 1.200000000000000000e+01
-1.401442050933837891e+00 3.375046968460083008e+00 -5.788075327873229980e-01 1.100000000000000000e+01
-1.755515813827515093e+00 4.231921195983886719e+00 -5.625488758087158203e-01 8.000000000000000000e+00
