2.316029787063599077e+00 7.685602188110351562e+00 -4.206764101982117254e-01 2.000000000000000000e+00
4.122049331665039062e+00 1.366150283813476918e+01 -2.490807473659515103e-01 2.000000000000000000e+00
6.452800631523132324e-01 2.127871751785277876e+00 -5.958014130592346191e-01 1.500000000000000000e+01
7.388617396354675293e-01 2.433407306671143022e+00 -5.871222615242004395e-01 1.100000000000000000e+01
8.509470224380493164e-01 2.800796508789062944e+00 -5.689924359321594238e-01 8.000000000000000000e+00
1.013559341430664062e+00 3.331835031509398970e+00 -5.515879392623901367e-01 8.000000000000000000e+00
1.253963708877563032e+00 4.116945266723632812e+00 -5.284254550933837891e-01 9.000000000000000000e+00
1.625233292579651101e+00 5.332537651062011719e+00 -4.877235293388367254e-01 9.000000000000000000e+00
2.346341133117675781e+00 7.688932895660400391e+00 -4.213044345378875732e-01 2.000000000000000000e+00
4.156856536865234375e+00 1.360495758056640980e+01 -2.483128458261489868e-01 2.000000000000000000e+00
6.538379788398742676e-01 2.129299879074097124e+00 -5.968367457389831543e-01 1.600000000000000000e+01
7.462060451507568359e-01 2.427088022232056108e+00 -5.862224698066711426e-01 1.000000000000000000e+01
8.607184290885925293e-01 2.797809123992919922e+00 -5.689924359321594238e-01 1.000000000000000000e+01
1.023438930511475053e+00 3.322613239288330078e+00 -5.506493449211120605e-01 9.000000000000000000e+00
1.271252036094665971e+00 4.122027397155761719e+00 -5.296441912651062012e-01 1.000000000000000000e+01
1.643837332725524902e+00 5.326832294464111328e+00 -4.877235293388367254e-01 9.000000000000000000e+00
2.371987104415893999e+00 7.676878929138183594e+00 -4.210951030254364014e-01 2.000000000000000000e+00
4.207867622375488281e+00 1.360182666778563920e+01 -2.485222667455672940e-01 2.000000000000000000e+00
6.635606884956359863e-01 2.134383678436278853e+00 -5.989072918891906738e-01 1.700000000000000000e+01
7.558320164680480957e-01 2.428189754486083984e+00 -5.871222615242004395e-01 1.000000000000000000e+01
8.716470003128051758e-01 2.798536300659180132e+00 -5.697556734085083008e-01 9.000000000000000000e+00
1.037383198738097922e+00 3.326563596725463867e+00 -5.519008040428161621e-01 9.000000000000000000e+00
1.283857941627501997e+00 4.111880302429199219e+00 -5.289129614830017090e-01 9.000000000000000000e+00
1.664798021316528098e+00 5.328668594360351562e+00 -4.884207844734191895e-01 9.000000000000000000e+00
2.389229536056518999e+00 7.638053894042968750e+00 -4.194203615188599188e-01 2.000000000000000000e+00
4.255321025848388672e+00 1.358705520629882990e+01 -2.485222667455672940e-01 2.000000000000000000e+00
6.733268499374389648e-01 2.139425277709960938e+00 -6.009778380393981934e-01 1.500000000000000000e+01
7.607893347740173340e-01 2.414384603500366211e+00 -5.844228267669677734e-01 1.100000000000000000e+01
8.796393275260925293e-01 2.789859533309936968e+00 -5.686107873916625977e-01 9.000000000000000000e+00
1.050178050994873047e+00 3.326689720153809038e+00 -5.525265336036682129e-01 9.000000000000000000e+00
1.296408534049988015e+00 4.101695537567138672e+00 -5.281817317008972168e-01 1.000000000000000000e+01
1.683388471603393999e+00 5.322824954986572266e+00 -4.884207844734191895e-01 9.000000000000000000e+00
2.427935123443603960e+00 7.667748928070068359e+00 -4.215137958526610773e-01 1.000000000000000000e+00
4.302722930908203125e+00 1.357211875915526988e+01 -2.485222667455672940e-01 2.000000000000000000e+00
6.760996580123901367e-01 2.122336149215697798e+00 -5.968367457389831543e-01 1.500000000000000000e+01
7.715811133384704590e-01 2.419140815734862837e+00 -5.862224698066711426e-01 1.000000000000000000e+01
8.851941227912902832e-01 2.773679733276367188e+00 -5.659394860267639160e-01 9.000000000000000000e+00
1.062986493110656960e+00 3.326766967773437944e+00 -5.531522631645202637e-01 9.000000000000000000e+00
1.307089090347290039e+00 4.085801124572753906e+00 -5.267193317413330078e-01 9.000000000000000000e+00
1.697099089622498003e+00 5.301735877990722656e+00 -4.870263040065764826e-01 9.000000000000000000e+00
2.449809312820435014e+00 7.644011497497558594e+00 -4.206764101982117254e-01 2.000000000000000000e+00
4.337852954864501953e+00 1.351893520355224965e+01 -2.478241771459578913e-01 2.000000000000000000e+00
6.811326742172241211e-01 2.112608671188354048e+00 -5.947661399841308594e-01 1.600000000000000000e+01
7.800207734107971191e-01 2.416432619094849077e+00 -5.862224698066711426e-01 1.000000000000000000e+01
8.990946412086486816e-01 2.783650636672974077e+00 -5.686107873916625977e-01 1.000000000000000000e+01
1.075808167457581010e+00 3.326795339584351030e+00 -5.537779927253723145e-01 9.000000000000000000e+00
1.323789000511168990e+00 4.088767528533936435e+00 -5.276942849159240723e-01 9.000000000000000000e+00
1.715595245361327903e+00 5.295779705047607422e+00 -4.870263040065764826e-01 9.000000000000000000e+00
2.485103607177733931e+00 7.662011146545410156e+00 -4.221418201923369806e-01 2.000000000000000000e+00
4.383780956268311435e+00 1.349990749359131037e+01 -2.477543652057647983e-01 2.000000000000000000e+00
6.908997893333435059e-01 2.117564439773560014e+00 -5.968367457389831543e-01 1.600000000000000000e+01
7.896611690521240234e-01 2.417399883270264116e+00 -5.871222615242004395e-01 1.000000000000000000e+01
9.088059067726135254e-01 2.780495166778564009e+00 -5.686107873916625977e-01 1.000000000000000000e+01
1.081270694732666016e+00 3.304245710372924805e+00 -5.506493449211120605e-01 9.000000000000000000e+00
1.340525507926940918e+00 4.091667652130126953e+00 -5.286692380905151367e-01 9.000000000000000000e+00
1.732829213142395020e+00 5.285972118377686435e+00 -4.866776764392852783e-01 9.000000000000000000e+00
2.500623226165771040e+00 7.619131565093994141e+00 -4.202577173709868830e-01 2.000000000000000000e+00
4.428380966186523438e+00 1.347692394256591975e+01 -2.476147413253783902e-01 2.000000000000000000e+00
6.985234022140502930e-01 2.117096424102783203e+00 -5.973543524742126465e-01 1.400000000000000000e+01
7.952282428741455078e-01 2.407366514205933061e+00 -5.853226184844970703e-01 1.200000000000000000e+01
9.211019873619079590e-01 2.786786556243896040e+00 -5.705189108848571777e-01 1.000000000000000000e+01
1.095945477485656960e+00 3.311893939971923828e+00 -5.525265336036682129e-01 9.000000000000000000e+00
1.353462338447571023e+00 4.085315227508544922e+00 -5.284254550933837891e-01 9.000000000000000000e+00
1.755990862846374956e+00 5.297217845916748047e+00 -4.882464706897736151e-01 9.000000000000000000e+00
2.530908346176147017e+00 7.625962257385253906e+00 -4.210951030254364014e-01 2.000000000000000000e+00
4.457914829254150391e+00 1.341662025451659979e+01 -2.467770278453826904e-01 2.000000000000000000e+00
7.077443003654479980e-01 2.120142459869385210e+00 -5.989072918891906738e-01 1.500000000000000000e+01
8.011558651924133301e-01 2.397182941436768022e+00 -5.835230350494384766e-01 1.100000000000000000e+01
9.302014708518981934e-01 2.781692504882812944e+00 -5.701372623443603516e-01 1.000000000000000000e+01
1.110008001327515093e+00 3.315541028976439986e+00 -5.537779927253723145e-01 9.000000000000000000e+00
1.365821957588196023e+00 4.074919700622558594e+00 -5.276942849159240723e-01 1.000000000000000000e+01
1.770036339759827104e+00 5.277832984924316406e+00 -4.870263040065764826e-01 9.000000000000000000e+00
2.557512521743773970e+00 7.617081165313720703e+00 -4.210951030254364014e-01 1.000000000000000000e+00
4.545498371124267578e+00 1.352228736877441051e+01 -2.490109354257583896e-01 2.000000000000000000e+00
7.163768410682678223e-01 2.121319770812987837e+00 -5.999425649642944336e-01 1.600000000000000000e+01
8.095186948776245117e-01 2.394371747970581055e+00 -5.835230350494384766e-01 1.100000000000000000e+01
9.399057030677795410e-01 2.778428554534912109e+00 -5.701372623443603516e-01 1.000000000000000000e+01
1.120307326316833052e+00 3.307904243469237837e+00 -5.531522631645202637e-01 9.000000000000000000e+00
1.381312608718872070e+00 4.073886871337890625e+00 -5.281817317008972168e-01 9.000000000000000000e+00
1.791008949279784934e+00 5.279169082641601562e+00 -4.877235293388367254e-01 9.000000000000000000e+00
2.578946828842163086e+00 7.592978000640869141e+00 -4.202577173709868830e-01 1.000000000000000000e+00
4.639023780822753906e+00 1.364265155792235973e+01 -2.515240907669066828e-01 2.000000000000000000e+00
7.187814116477966309e-01 2.104181051254272017e+00 -5.958014130592346191e-01 1.600000000000000000e+01
8.229163885116577148e-01 2.406282663345336914e+00 -5.871222615242004395e-01 1.100000000000000000e+01
9.483273029327392578e-01 2.771415710449219194e+00 -5.693740248680114746e-01 1.000000000000000000e+01
1.132487416267395020e+00 3.305842161178588867e+00 -5.534651279449462891e-01 8.000000000000000000e+00
1.395524740219115989e+00 4.069040775299072266e+00 -5.281817317008972168e-01 9.000000000000000000e+00
1.802958965301513894e+00 5.254040241241455078e+00 -4.859804213047028143e-01 9.000000000000000000e+00
2.602839708328247070e+00 7.576374053955078125e+00 -4.198390543460845947e-01 2.000000000000000000e+00
4.680113792419433594e+00 1.360746574401854936e+01 -2.511750459671021063e-01 2.000000000000000000e+00
7.286454439163208008e-01 2.108963012695312944e+00 -5.978720188140869141e-01 1.500000000000000000e+01
8.300368189811706543e-01 2.399712085723876953e+00 -5.862224698066711426e-01 1.000000000000000000e+01
9.567113518714904785e-01 2.764377832412720171e+00 -5.686107873916625977e-01 1.000000000000000000e+01
1.139493107795715110e+00 3.288803339004517046e+00 -5.512750744819641113e-01 9.000000000000000000e+00
1.414273500442505105e+00 4.077272891998291016e+00 -5.298879146575927734e-01 1.000000000000000000e+01
1.817368507385253906e+00 5.236421108245849609e+00 -4.849345386028289795e-01 9.000000000000000000e+00
2.633203506469727007e+00 7.578562259674072266e+00 -4.204670786857604980e-01 1.000000000000000000e+00
4.730211734771729404e+00 1.359860038757324041e+01 -2.513146400451660156e-01 2.000000000000000000e+00
7.372770905494689941e-01 2.110054254531859907e+00 -5.989072918891906738e-01 1.600000000000000000e+01
8.345476388931274414e-01 2.385763406753540039e+00 -5.835230350494384766e-01 1.000000000000000000e+01
9.695978164672851562e-01 2.770286560058594194e+00 -5.705189108848571777e-01 9.000000000000000000e+00
1.153579115867614968e+00 3.292262792587279829e+00 -5.525265336036682129e-01 9.000000000000000000e+00
1.421269416809082031e+00 4.051706314086914062e+00 -5.272067785263061523e-01 9.000000000000000000e+00
1.850152134895324929e+00 5.271404743194580078e+00 -4.887694120407103937e-01 9.000000000000000000e+00
2.662290096282958984e+00 7.576861381530761719e+00 -4.208857715129851740e-01 1.000000000000000000e+00
4.800212383270263672e+00 1.364614295959473012e+01 -2.525014281272888184e-01 2.000000000000000000e+00
7.446380853652954102e-01 2.107467651367187944e+00 -5.989072918891906738e-01 1.500000000000000000e+01
8.389712572097778320e-01 2.371812582015991211e+00 -5.808236002922058105e-01 1.100000000000000000e+01
9.766419529914855957e-01 2.759482145309447798e+00 -5.689924359321594238e-01 9.000000000000000000e+00
1.161105871200561968e+00 3.277044057846068892e+00 -5.506493449211120605e-01 9.000000000000000000e+00
1.432749390602112038e+00 4.039236545562744141e+00 -5.262318253517150879e-01 1.000000000000000000e+01
1.863210320472717063e+00 5.249893188476563388e+00 -4.873749017715454102e-01 9.000000000000000000e+00
2.680697917938231978e+00 7.544938087463378906e+00 -4.196296930313109796e-01 1.000000000000000000e+00
4.827712535858154297e+00 1.357278251647949041e+01 -2.514542639255524237e-01 2.000000000000000000e+00
7.500401139259338379e-01 2.099397897720336914e+00 -5.973543524742126465e-01 1.400000000000000000e+01
8.577456474304199219e-01 2.398228168487548828e+00 -5.880220532417297363e-01 1.200000000000000000e+01
9.849454164505004883e-01 2.752359390258789062e+00 -5.682291984558105469e-01 9.000000000000000000e+00
1.176535129547118919e+00 3.284129142761230025e+00 -5.525265336036682129e-01 9.000000000000000000e+00
1.450861096382140891e+00 4.045422077178955078e+00 -5.276942849159240723e-01 9.000000000000000000e+00
1.882870435714721902e+00 5.247107982635498047e+00 -4.877235293388367254e-01 9.000000000000000000e+00
2.719172477722167969e+00 7.569368839263916016e+00 -4.215137958526610773e-01 1.000000000000000000e+00
4.872354030609130859e+00 1.354832077026367010e+01 -2.513146400451660156e-01 2.000000000000000000e+00
7.569978833198547363e-01 2.096899032592772993e+00 -5.973543524742126465e-01 1.500000000000000000e+01
8.643690347671508789e-01 2.391705274581909180e+00 -5.871222615242004395e-01 1.000000000000000000e+01
9.960699677467346191e-01 2.754616737365723100e+00 -5.693740248680114746e-01 1.000000000000000000e+01
1.188763976097106934e+00 3.283924341201781782e+00 -5.531522631645202637e-01 9.000000000000000000e+00
1.462239146232604980e+00 4.034989833831787109e+00 -5.269630551338195801e-01 1.000000000000000000e+01
1.892110347747802956e+00 5.218358516693115234e+00 -4.856317937374114990e-01 9.000000000000000000e+00
2.738806724548339844e+00 7.545290946960449219e+00 -4.206764101982117254e-01 1.000000000000000000e+00
4.910425662994384766e+00 1.351329517364501953e+01 -2.509655952453612726e-01 2.000000000000000000e+00
7.623258233070373535e-01 2.088799715042113814e+00 -5.958014130592346191e-01 1.600000000000000000e+01
8.727123737335205078e-01 2.388673305511475053e+00 -5.871222615242004395e-01 1.100000000000000000e+01
1.005679249763488992e+00 2.751123189926147017e+00 -5.693740248680114746e-01 1.000000000000000000e+01
1.195467829704284890e+00 3.266769170761107954e+00 -5.509622097015380859e-01 9.000000000000000000e+00
1.482460618019104004e+00 4.046636581420898438e+00 -5.291566848754882812e-01 9.000000000000000000e+00
1.914428353309630904e+00 5.222946166992188388e+00 -4.866776764392852783e-01 9.000000000000000000e+00
2.767880201339722124e+00 7.543184757232666016e+00 -4.210951030254364014e-01 1.000000000000000000e+00
4.957565784454345703e+00 1.349607181549072088e+01 -2.509655952453612726e-01 2.000000000000000000e+00
7.736243605613708496e-01 2.097000598907471147e+00 -5.989072918891906738e-01 1.700000000000000000e+01
8.769943118095397949e-01 2.374644279479980025e+00 -5.844228267669677734e-01 1.100000000000000000e+01
1.016637325286865012e+00 2.751278877258300781e+00 -5.701372623443603516e-01 1.000000000000000000e+01
1.208919644355773926e+00 3.268134355545043945e+00 -5.519008040428161621e-01 9.000000000000000000e+00
1.491062164306641069e+00 4.026544570922851562e+00 -5.272067785263061523e-01 9.000000000000000000e+00
1.937493681907654031e+00 5.229309558868408203e+00 -4.878978431224822998e-01 7.000000000000000000e+00
2.781692028045653853e+00 7.499770164489746094e+00 -4.192110002040863037e-01 1.000000000000000000e+00
4.999077320098876953e+00 1.346368694305419922e+01 -2.506863772869110107e-01 2.000000000000000000e+00
7.836394309997558594e-01 2.101527690887451172e+00 -6.009778380393981934e-01 1.700000000000000000e+01
8.839150071144104004e-01 2.367917060852050781e+00 -5.835230350494384766e-01 1.100000000000000000e+01
1.024174213409424050e+00 2.742196083068848100e+00 -5.689924359321594238e-01 1.000000000000000000e+01
1.222395539283751997e+00 3.269445419311522993e+00 -5.528393983840942383e-01 8.000000000000000000e+00
1.502324938774109109e+00 4.013878822326660156e+00 -5.262318253517150879e-01 1.000000000000000000e+01
1.960626602172852007e+00 5.235575675964354581e+00 -4.891180396080017090e-01 9.000000000000000000e+00
2.812060594558715820e+00 7.501235485076904297e+00 -4.198390543460845947e-01 2.000000000000000000e+00
5.037612915039063388e+00 1.342368888854979936e+01 -2.502675056457520086e-01 2.000000000000000000e+00
7.861537933349609375e-01 2.088207721710205078e+00 -5.978720188140869141e-01 1.700000000000000000e+01
8.954731225967407227e-01 2.376069784164429155e+00 -5.862224698066711426e-01 1.100000000000000000e+01
1.030705928802490012e+00 2.733453989028931108e+00 -5.678475499153137207e-01 1.000000000000000000e+01
1.231963157653809038e+00 3.263741016387939009e+00 -5.525265336036682129e-01 9.000000000000000000e+00
1.517734289169311968e+00 4.016567230224609375e+00 -5.272067785263061523e-01 9.000000000000000000e+00
1.967905402183532937e+00 5.205163002014160156e+00 -4.868519902229309082e-01 7.000000000000000000e+00
2.837026357650756836e+00 7.496099948883056641e+00 -4.200483858585358221e-01 2.000000000000000000e+00
5.052837848663330078e+00 1.333673667907715021e+01 -2.489411234855652133e-01 2.000000000000000000e+00
7.920642495155334473e-01 2.081839561462401900e+00 -5.968367457389831543e-01 2.000000000000000000e+01
9.037616848945617676e-01 2.372929334640502930e+00 -5.862224698066711426e-01 1.000000000000000000e+01
1.044435739517211914e+00 2.740846872329711914e+00 -5.701372623443603516e-01 1.000000000000000000e+01
1.241236090660094993e+00 3.253883838653564009e+00 -5.515879392623901367e-01 9.000000000000000000e+00
1.533869862556457964e+00 4.016808032989501953e+00 -5.279380083084106445e-01 1.000000000000000000e+01
1.987484931945801003e+00 5.201983928680419922e+00 -4.872005879878997803e-01 9.000000000000000000e+00
2.863175392150878906e+00 7.486151218414306641e+00 -4.200483858585358221e-01 2.000000000000000000e+00
5.097930908203125000e+00 1.331528282165526988e+01 -2.488713115453720093e-01 5.000000000000000000e+00
7.986331582069396973e-01 2.077258825302124023e+00 -5.963190793991088867e-01 1.600000000000000000e+01
9.134391546249389648e-01 2.373397588729857954e+00 -5.871222615242004395e-01 1.000000000000000000e+01
1.052585721015929954e+00 2.733520269393920898e+00 -5.693740248680114746e-01 1.000000000000000000e+01
1.254007697105407937e+00 3.253217697143555132e+00 -5.522136688232421875e-01 8.000000000000000000e+00
1.550025701522826926e+00 4.016985416412354404e+00 -5.286692380905151367e-01 9.000000000000000000e+00
2.009219169616699219e+00 5.204308032989501953e+00 -4.880721569061278742e-01 9.000000000000000000e+00
2.887849569320679155e+00 7.472385406494140625e+00 -4.198390543460845947e-01 2.000000000000000000e+00
5.122733592987061435e+00 1.324145698547362926e+01 -2.478241771459578913e-01 5.000000000000000000e+00
8.093770146369934082e-01 2.083462238311768022e+00 -5.989072918891906738e-01 1.500000000000000000e+01
9.160678982734680176e-01 2.355664730072021040e+00 -5.835230350494384766e-01 1.200000000000000000e+01
1.063544869422913042e+00 2.733488559722899947e+00 -5.701372623443603516e-01 1.100000000000000000e+01
1.260337471961975098e+00 3.235935688018798828e+00 -5.500235557556152344e-01 9.000000000000000000e+00
1.558269500732422097e+00 3.996754646301269975e+00 -5.267193317413330078e-01 9.000000000000000000e+00
2.019408464431763139e+00 5.176845073699951172e+00 -4.861547350883483887e-01 9.000000000000000000e+00
2.913915395736693892e+00 7.462259292602539062e+00 -4.198390543460845947e-01 2.000000000000000000e+00
5.166011333465576172e+00 1.321604442596436080e+01 -2.476845532655715942e-01 2.000000000000000000e+00
8.166447281837463379e-01 2.080624341964722124e+00 -5.989072918891906738e-01 1.300000000000000000e+01
9.242851734161376953e-01 2.352452754974364790e+00 -5.835230350494384766e-01 1.200000000000000000e+01
1.071643471717834029e+00 2.726105213165283203e+00 -5.693740248680114746e-01 1.000000000000000000e+01
1.278135418891906960e+00 3.248060226440430132e+00 -5.528393983840942383e-01 8.000000000000000000e+00
1.567846059799193892e+00 3.980209112167357954e+00 -5.252568721771240234e-01 9.000000000000000000e+00
2.041119575500487837e+00 5.179032802581787109e+00 -4.870263040065764826e-01 6.000000000000000000e+00
2.939945936203002930e+00 7.452042579650878906e+00 -4.198390543460845947e-01 2.000000000000000000e+00
5.210643768310546875e+00 1.319421195983887074e+01 -2.476147413253783902e-01 2.000000000000000000e+00
8.224782943725585938e-01 2.074169397354125977e+00 -5.978720188140869141e-01 1.400000000000000000e+01
9.353669285774230957e-01 2.356456995010375977e+00 -5.853226184844970703e-01 1.100000000000000000e+01
1.079703569412231001e+00 2.718698501586914062e+00 -5.686107873916625977e-01 1.000000000000000000e+01
1.288735628128051980e+00 3.241743087768555132e+00 -5.525265336036682129e-01 9.000000000000000000e+00
1.586133837699889915e+00 3.985778570175170898e+00 -5.267193317413330078e-01 9.000000000000000000e+00
2.059922218322753906e+00 5.173727512359619141e+00 -4.872005879878997803e-01 9.000000000000000000e+00
2.965940475463867188e+00 7.441734790802001953e+00 -4.198390543460845947e-01 2.000000000000000000e+00
5.247776031494140625e+00 1.315365505218506037e+01 -2.471958845853806097e-01 2.000000000000000000e+00
8.279158473014831543e-01 2.067843675613402876e+00 -5.968367457389831543e-01 1.700000000000000000e+01
9.446260333061218262e-01 2.356960058212279829e+00 -5.862224698066711426e-01 1.200000000000000000e+01
1.085059762001038042e+00 2.705992221832274947e+00 -5.667027235031127930e-01 9.000000000000000000e+00
1.299478650093079057e+00 3.237451791763306108e+00 -5.525265336036682129e-01 9.000000000000000000e+00
1.602302908897399902e+00 3.987864732742310014e+00 -5.276942849159240723e-01 9.000000000000000000e+00
2.073351860046387163e+00 5.157625198364257812e+00 -4.863290488719940186e-01 9.000000000000000000e+00
2.992093086242675781e+00 7.435564041137695312e+00 -4.200483858585358221e-01 2.000000000000000000e+00
5.297343730926513672e+00 1.315101909637450994e+01 -2.474751174449920932e-01 2.000000000000000000e+00
8.365775346755981445e-01 2.068522930145264116e+00 -5.978720188140869141e-01 1.800000000000000000e+01
9.528475999832153320e-01 2.353648424148560014e+00 -5.862224698066711426e-01 1.100000000000000000e+01
1.101132154464721902e+00 2.718564987182617188e+00 -5.701372623443603516e-01 1.000000000000000000e+01
1.306318163871764915e+00 3.221912145614624023e+00 -5.506493449211120605e-01 9.000000000000000000e+00
1.619946002960205078e+00 3.991444110870360884e+00 -5.289129614830017090e-01 1.000000000000000000e+01
2.094341039657593218e+00 5.157740116119384766e+00 -4.870263040065764826e-01 9.000000000000000000e+00
3.015021562576293945e+00 7.417673587799072266e+00 -4.196296930313109796e-01 1.000000000000000000e+00
5.346231460571289062e+00 1.313985729217528942e+01 -2.476147413253783902e-01 2.000000000000000000e+00
8.408707380294799805e-01 2.058436632156372070e+00 -5.958014130592346191e-01 1.900000000000000000e+01
9.595823884010314941e-01 2.346700429916381836e+00 -5.853226184844970703e-01 1.100000000000000000e+01
1.110615015029907005e+00 2.714704751968383789e+00 -5.701372623443603516e-01 1.000000000000000000e+01
1.319054007530211958e+00 3.220988750457764116e+00 -5.512750744819641113e-01 9.000000000000000000e+00
1.636880517005919966e+00 3.993112087249755859e+00 -5.298879146575927734e-01 1.000000000000000000e+01
2.110820293426514116e+00 5.146711349487304688e+00 -4.866776764392852783e-01 9.000000000000000000e+00
3.042412757873535156e+00 7.410799026489257812e+00 -4.198390543460845947e-01 2.000000000000000000e+00
5.404226779937744141e+00 1.315070915222167969e+01 -2.481732219457626065e-01 2.000000000000000000e+00
8.546820282936096191e-01 2.071561336517333984e+00 -6.004601716995239258e-01 2.200000000000000000e+01
9.662803411483764648e-01 2.339734315872191939e+00 -5.844228267669677734e-01 1.100000000000000000e+01
1.113336801528931108e+00 2.694481134414672852e+00 -5.667027235031127930e-01 1.100000000000000000e+01
1.332554221153259055e+00 3.221840858459473100e+00 -5.522136688232421875e-01 8.000000000000000000e+00
1.640178322792053001e+00 3.961696386337279829e+00 -5.264755487442016602e-01 1.000000000000000000e+01
2.137159824371337891e+00 5.159560203552246094e+00 -4.885950982570648193e-01 8.000000000000000000e+00
3.071322441101074219e+00 7.407514095306395596e+00 -4.202577173709868830e-01 1.000000000000000000e+00
5.419436931610107422e+00 1.305788707733153942e+01 -2.467770278453826904e-01 2.000000000000000000e+00
8.619078993797302246e-01 2.068565368652344194e+00 -6.004601716995239258e-01 2.100000000000000000e+01
9.774422645568847656e-01 2.343541383743286133e+00 -5.862224698066711426e-01 1.100000000000000000e+01
1.124247670173645020e+00 2.694202184677124023e+00 -5.674659609794616699e-01 1.100000000000000000e+01
1.341508388519287109e+00 3.211701631546020952e+00 -5.512750744819641113e-01 9.000000000000000000e+00
1.653231501579284890e+00 3.954115629196166992e+00 -5.262318253517150879e-01 1.000000000000000000e+01
2.151312589645386186e+00 5.142878055572509766e+00 -4.877235293388367254e-01 9.000000000000000000e+00
3.098703622817993164e+00 7.400432586669921875e+00 -4.204670786857604980e-01 2.000000000000000000e+00
5.464984416961669922e+00 1.303888988494873047e+01 -2.467770278453826904e-01 2.000000000000000000e+00
8.638786077499389648e-01 2.053079605102539062e+00 -5.968367457389831543e-01 1.900000000000000000e+01
9.833475351333618164e-01 2.334727287292480025e+00 -5.848727226257324219e-01 1.100000000000000000e+01
1.134407758712768999e+00 2.692070722579956055e+00 -5.678475499153137207e-01 1.000000000000000000e+01
1.355782032012939009e+00 3.214279651641846147e+00 -5.525265336036682129e-01 9.000000000000000000e+00
1.671656608581542969e+00 3.959293127059936968e+00 -5.276942849159240723e-01 9.000000000000000000e+00
2.162273883819580078e+00 5.118819236755371094e+00 -4.861547350883483887e-01 9.000000000000000000e+00
3.116738796234130859e+00 7.371174812316895419e+00 -4.194203615188599188e-01 2.000000000000000000e+00
5.494877338409423828e+00 1.298290252685547053e+01 -2.460789233446120938e-01 2.000000000000000000e+00
8.691717982292175293e-01 2.046647310256958008e+00 -5.958014130592346191e-01 1.800000000000000000e+01
9.926090836524963379e-01 2.335040330886840820e+00 -5.857725739479064941e-01 1.000000000000000000e+01
1.147170543670654075e+00 2.697327136993408203e+00 -5.697556734085083008e-01 1.000000000000000000e+01
1.364886045455933061e+00 3.206130981445312944e+00 -5.519008040428161621e-01 9.000000000000000000e+00
1.687889695167541948e+00 3.961032867431641069e+00 -5.286692380905151367e-01 9.000000000000000000e+00
2.178455114364624023e+00 5.109787940979003906e+00 -4.859804213047028143e-01 9.000000000000000000e+00
3.139597654342650923e+00 7.357125282287597656e+00 -4.192110002040863037e-01 1.000000000000000000e+00
5.520618438720703125e+00 1.292415332794188920e+01 -2.453110218048095981e-01 2.000000000000000000e+00
8.808787465095520020e-01 2.054253816604613814e+00 -5.989072918891906738e-01 1.700000000000000000e+01
9.976793527603149414e-01 2.324398279190063032e+00 -5.839729309082031250e-01 1.100000000000000000e+01
1.158128261566162109e+00 2.696914434432982954e+00 -5.705189108848571777e-01 1.000000000000000000e+01
1.372948884963989036e+00 3.194087743759154829e+00 -5.506493449211120605e-01 9.000000000000000000e+00
1.693860411643981934e+00 3.936882019042969194e+00 -5.262318253517150879e-01 9.000000000000000000e+00
2.197854042053223100e+00 5.105812549591063565e+00 -4.863290488719940186e-01 9.000000000000000000e+00
3.155775785446166992e+00 7.324110031127929688e+00 -4.179549515247344971e-01 2.000000000000000000e+00
5.559362888336181641e+00 1.289011383056640980e+01 -2.450317889451980868e-01 2.000000000000000000e+00
8.922412991523742676e-01 2.059875011444091797e+00 -6.014954447746276855e-01 1.600000000000000000e+01
1.006191968917846902e+00 2.320725917816162109e+00 -5.839729309082031250e-01 1.100000000000000000e+01
1.164880156517029031e+00 2.685446977615356001e+00 -5.689924359321594238e-01 1.000000000000000000e+01
1.390940427780150923e+00 3.203529834747314009e+00 -5.531522631645202637e-01 9.000000000000000000e+00
1.706696033477782981e+00 3.927006244659423828e+00 -5.257443189620971680e-01 9.000000000000000000e+00
2.214963912963867188e+00 5.094068527221679688e+00 -4.859804213047028143e-01 9.000000000000000000e+00
3.190569162368773970e+00 7.330807685852050781e+00 -4.190016686916350763e-01 2.000000000000000000e+00
5.224812507629395419e+00 1.199334144592284979e+01 -2.283472865819931030e-01 2.000000000000000000e+00
8.963299989700317383e-01 2.049667835235596147e+00 -5.994248986244201660e-01 1.600000000000000000e+01
1.015849590301513894e+00 2.320770025253295898e+00 -5.848727226257324219e-01 1.100000000000000000e+01
1.171096801757812944e+00 2.674170970916748047e+00 -5.674659609794616699e-01 1.000000000000000000e+01
1.402114272117614968e+00 3.198655128479003906e+00 -5.531522631645202637e-01 9.000000000000000000e+00
1.723583698272705078e+00 3.928296089172362837e+00 -5.267193317413330078e-01 1.000000000000000000e+01
2.242342233657836914e+00 5.108198165893554688e+00 -4.880721569061278742e-01 9.000000000000000000e+00
3.222566366195679155e+00 7.334254264831542969e+00 -4.198390543460845947e-01 2.000000000000000000e+00
5.627307891845703125e+00 1.279508781433104936e+01 -2.439846396446228027e-01 2.000000000000000000e+00
9.023421406745910645e-01 2.044916868209838867e+00 -5.989072918891906738e-01 1.700000000000000000e+01
1.028263926506042036e+00 2.328084230422974077e+00 -5.875721573829650879e-01 1.100000000000000000e+01
1.181545257568358931e+00 2.673864364624022993e+00 -5.682291984558105469e-01 1.000000000000000000e+01
1.409517526626586914e+00 3.186761617660522017e+00 -5.519008040428161621e-01 9.000000000000000000e+00
1.741422653198241965e+00 3.933449745178223100e+00 -5.281817317008972168e-01 9.000000000000000000e+00
2.257655382156372070e+00 5.097090721130371094e+00 -4.877235293388367254e-01 9.000000000000000000e+00
3.250108003616333008e+00 7.330831050872802734e+00 -4.202577173709868830e-01 2.000000000000000000e+00
5.700529575347900391e+00 1.284581375122069957e+01 -2.453110218048095981e-01 2.000000000000000000e+00
9.079025983810424805e-01 2.038225173950194868e+00 -5.978720188140869141e-01 1.700000000000000000e+01
1.034797072410583052e+00 2.320920944213867188e+00 -5.866723656654357910e-01 1.100000000000000000e+01
1.190071821212768999e+00 2.667930603027344194e+00 -5.678475499153137207e-01 9.000000000000000000e+00
1.419827461242676003e+00 3.180018424987792969e+00 -5.515879392623901367e-01 8.000000000000000000e+00
1.756762146949768066e+00 3.930971860885620117e+00 -5.286692380905151367e-01 9.000000000000000000e+00
2.272181034088135210e+00 5.081903457641601562e+00 -4.870263040065764826e-01 9.000000000000000000e+00
3.260992050170897993e+00 7.286626815795898438e+00 -4.183736443519591730e-01 2.000000000000000000e+00
5.725715160369873047e+00 1.278203773498534979e+01 -2.444733083248137873e-01 2.000000000000000000e+00
9.146566390991210938e-01 2.035203218460083008e+00 -5.978720188140869141e-01 1.600000000000000000e+01
1.036092281341552956e+00 2.303259134292602983e+00 -5.830731391906738281e-01 1.000000000000000000e+01
1.204552412033081055e+00 2.676501750946044922e+00 -5.705189108848571777e-01 1.000000000000000000e+01
1.432798981666564941e+00 3.180695772171020952e+00 -5.525265336036682129e-01 9.000000000000000000e+00
1.764892458915710005e+00 3.914266586303710938e+00 -5.272067785263061523e-01 9.000000000000000000e+00
2.285743474960327148e+00 5.067076206207275391e+00 -4.863290488719940186e-01 9.000000000000000000e+00
3.276918411254882812e+00 7.257569789886474609e+00 -4.173269271850585938e-01 2.000000000000000000e+00
5.781247138977050781e+00 1.279213619232177912e+01 -2.450317889451980868e-01 2.000000000000000000e+00
9.265435934066772461e-01 2.042553901672362837e+00 -6.009778380393981934e-01 1.800000000000000000e+01
1.047348380088805930e+00 2.306725978851317915e+00 -5.848727226257324219e-01 1.100000000000000000e+01
1.211451888084412065e+00 2.666918277740478960e+00 -5.693740248680114746e-01 1.100000000000000000e+01
1.438169717788696067e+00 3.163087368011475053e+00 -5.503364205360412598e-01 8.000000000000000000e+00
1.773611426353455034e+00 3.897241592407227007e+00 -5.257443189620971680e-01 9.000000000000000000e+00
2.306719541549683061e+00 5.066319465637207031e+00 -4.870263040065764826e-01 9.000000000000000000e+00
3.317140579223632812e+00 7.278800964355468750e+00 -4.192110002040863037e-01 2.000000000000000000e+00
5.817565917968750000e+00 1.275368404388427912e+01 -2.446827441453933993e-01 2.000000000000000000e+00
9.320594072341918945e-01 2.035794258117675781e+00 -5.999425649642944336e-01 1.800000000000000000e+01
1.055393934249877930e+00 2.303056001663208008e+00 -5.848727226257324219e-01 1.100000000000000000e+01
1.221572041511536089e+00 2.664458036422729048e+00 -5.697556734085083008e-01 1.000000000000000000e+01
1.459912538528441939e+00 3.181387662887572798e+00 -5.544037222862243652e-01 9.000000000000000000e+00
1.792175889015197976e+00 3.901850223541260210e+00 -5.272067785263061523e-01 9.000000000000000000e+00
2.321062564849853960e+00 5.050995349884033203e+00 -4.863290488719940186e-01 9.000000000000000000e+00
3.337520599365233931e+00 7.256290435791015625e+00 -4.185829758644104004e-01 2.000000000000000000e+00
5.853686809539794922e+00 1.271513462066650035e+01 -2.443336844444274902e-01 2.000000000000000000e+00
9.342980384826660156e-01 2.022006273269652876e+00 -5.968367457389831543e-01 1.500000000000000000e+01
1.068334817886352983e+00 2.309970378875731978e+00 -5.875721573829650879e-01 1.100000000000000000e+01
1.229216456413269043e+00 2.656614065170288086e+00 -5.689924359321594238e-01 1.000000000000000000e+01
1.464367628097533958e+00 3.161932468414307085e+00 -5.519008040428161621e-01 9.000000000000000000e+00
1.809124469757080078e+00 3.902774572372436968e+00 -5.281817317008972168e-01 9.000000000000000000e+00
2.343708992004394975e+00 5.053707122802734375e+00 -4.873749017715454102e-01 9.000000000000000000e+00
3.376284122467041016e+00 7.273581504821777344e+00 -4.202577173709868830e-01 2.000000000000000000e+00
5.889609336853027344e+00 1.267648887634276988e+01 -2.439846396446228027e-01 2.000000000000000000e+00
9.429833292961120605e-01 2.022234201431273970e+00 -5.978720188140869141e-01 1.700000000000000000e+01
1.073094844818115012e+00 2.299163818359375000e+00 -5.857725739479064941e-01 1.100000000000000000e+01
1.238482236862183061e+00 2.652307271957397017e+00 -5.689924359321594238e-01 1.000000000000000000e+01
1.472050428390502930e+00 3.149643421173096147e+00 -5.506493449211120605e-01 9.000000000000000000e+00
1.824418902397155984e+00 3.900031805038452148e+00 -5.286692380905151367e-01 9.000000000000000000e+00
2.359646320343018022e+00 5.041886329650878906e+00 -4.870263040065764826e-01 9.000000000000000000e+00
3.391486167907714844e+00 7.240047931671142578e+00 -4.190016686916350763e-01 2.000000000000000000e+00
5.927031517028808594e+00 1.264136886596680043e+01 -2.437054067850112915e-01 2.000000000000000000e+00
9.549717307090759277e-01 2.029418230056763139e+00 -6.009778380393981934e-01 1.700000000000000000e+01
1.077792525291443093e+00 2.288352012634276900e+00 -5.839729309082031250e-01 1.100000000000000000e+01
1.251080393791198953e+00 2.655071735382080078e+00 -5.705189108848571777e-01 1.000000000000000000e+01
1.481350421905518022e+00 3.140912532806396040e+00 -5.500235557556152344e-01 9.000000000000000000e+00
1.831242203712462935e+00 3.879278659820557085e+00 -5.267193317413330078e-01 9.000000000000000000e+00
2.382336378097534180e+00 5.044428348541259766e+00 -4.880721569061278742e-01 9.000000000000000000e+00
3.411616802215576172e+00 7.217331409454345703e+00 -4.183736443519591730e-01 2.000000000000000000e+00
5.969411849975585938e+00 1.261698722839354936e+01 -2.436355948448180875e-01 2.000000000000000000e+00
9.653645157814025879e-01 2.033052921295166016e+00 -6.030483841896057129e-01 1.700000000000000000e+01
1.087446808815001997e+00 2.288095951080321822e+00 -5.848727226257324219e-01 1.100000000000000000e+01
1.256968498229980025e+00 2.643596410751343218e+00 -5.689924359321594238e-01 1.000000000000000000e+01
1.500793933868407981e+00 3.153559207916260210e+00 -5.531522631645202637e-01 9.000000000000000000e+00
1.841357588768004927e+00 3.865694046020507812e+00 -5.257443189620971680e-01 9.000000000000000000e+00
2.403358697891234907e+00 5.043276309967041016e+00 -4.887694120407103937e-01 9.000000000000000000e+00
3.447107315063477007e+00 7.227010726928710938e+00 -4.196296930313109796e-01 2.000000000000000000e+00
6.004801750183104581e+00 1.257802772521973012e+01 -2.432865500450134000e-01 2.000000000000000000e+00
9.674469232559204102e-01 2.019217491149901900e+00 -5.999425649642944336e-01 1.600000000000000000e+01
1.097112417221068892e+00 2.287800550460814986e+00 -5.857725739479064941e-01 1.200000000000000000e+01
1.264490365982056108e+00 2.635652542114257812e+00 -5.682291984558105469e-01 1.000000000000000000e+01
1.511792778968811035e+00 3.148301362991333008e+00 -5.531522631645202637e-01 9.000000000000000000e+00
1.856559991836548074e+00 3.862821340560913086e+00 -5.262318253517150879e-01 9.000000000000000000e+00
2.422675132751464844e+00 5.038447380065917969e+00 -4.891180396080017090e-01 9.000000000000000000e+00
3.465384244918822798e+00 7.200536727905273438e+00 -4.187923073768615723e-01 2.000000000000000000e+00
6.022635936737061435e+00 1.250294303894042969e+01 -2.422394007444381991e-01 2.000000000000000000e+00
9.711261987686157227e-01 2.008871078491210938e+00 -5.978720188140869141e-01 1.700000000000000000e+01
1.105091571807861106e+00 2.283956766128540039e+00 -5.857725739479064941e-01 1.100000000000000000e+01
1.273682713508605957e+00 2.631222486495972124e+00 -5.682291984558105469e-01 1.000000000000000000e+01
1.523634433746337891e+00 3.144782781600952148e+00 -5.534651279449462891e-01 8.000000000000000000e+00
1.874363183975219949e+00 3.865247964859008789e+00 -5.274505019187927246e-01 1.000000000000000000e+01
2.421985149383544922e+00 4.992315769195556641e+00 -4.854574799537659247e-01 9.000000000000000000e+00
3.492242574691772017e+00 7.191989898681640625e+00 -4.190016686916350763e-01 2.000000000000000000e+00
6.048760890960693359e+00 1.244587326049805043e+01 -2.415413111448287964e-01 2.000000000000000000e+00
9.764388203620910645e-01 2.001996278762816939e+00 -5.968367457389831543e-01 1.500000000000000000e+01
1.119896411895751953e+00 2.294095277786254883e+00 -5.893717408180236816e-01 1.100000000000000000e+01
1.288029074668884055e+00 2.637345075607299805e+00 -5.705189108848571777e-01 1.000000000000000000e+01
1.530265092849731001e+00 3.130571603775023970e+00 -5.519008040428161621e-01 9.000000000000000000e+00
1.892205953598022017e+00 3.867597341537476030e+00 -5.286692380905151367e-01 9.000000000000000000e+00
2.445528268814086914e+00 4.996357917785645419e+00 -4.866776764392852783e-01 9.000000000000000000e+00
3.513811349868773970e+00 7.172581195831298828e+00 -4.185829758644104004e-01 2.000000000000000000e+00
6.115057945251464844e+00 1.247136497497558949e+01 -2.424488365650177002e-01 2.000000000000000000e+00
9.873354434967041016e-01 2.007414817810059038e+00 -5.994248986244201660e-01 1.600000000000000000e+01
1.118890881538390891e+00 2.272885084152222124e+00 -5.848727226257324219e-01 1.100000000000000000e+01
1.296767711639404075e+00 2.633059501647949219e+00 -5.705189108848571777e-01 1.000000000000000000e+01
1.538891196250915971e+00 3.121936082839965820e+00 -5.512750744819641113e-01 9.000000000000000000e+00
1.901507854461669922e+00 3.854180335998535156e+00 -5.276942849159240723e-01 9.000000000000000000e+00
2.461201429367064986e+00 4.986433982849121094e+00 -4.865033626556395929e-01 7.000000000000000000e+00
3.528730869293212891e+00 7.142982959747313565e+00 -4.175362586975098211e-01 2.000000000000000000e+00
6.163471221923828125e+00 1.246535873413085938e+01 -2.427280694246292114e-01 2.000000000000000000e+00
9.960539340972900391e-01 2.007417201995850053e+00 -6.004601716995239258e-01 1.600000000000000000e+01
1.126817941665648970e+00 2.268965721130371094e+00 -5.848727226257324219e-01 1.100000000000000000e+01
1.301583170890808105e+00 2.619725704193114790e+00 -5.686107873916625977e-01 9.000000000000000000e+00
1.555056810379028098e+00 3.127157926559447798e+00 -5.531522631645202637e-01 9.000000000000000000e+00
1.911411762237549050e+00 3.840410947799683061e+00 -5.267193317413330078e-01 9.000000000000000000e+00
2.482144594192504883e+00 4.984946727752686435e+00 -4.872005879878997803e-01 9.000000000000000000e+00
3.555424928665161133e+00 7.134196758270263672e+00 -4.177455902099608820e-01 1.000000000000000000e+00
6.199805259704589844e+00 1.242945289611816051e+01 -2.424488365650177002e-01 2.000000000000000000e+00
1.000460982322693093e+00 1.998745560646056907e+00 -5.989072918891906738e-01 1.700000000000000000e+01
1.136476993560791016e+00 2.268503189086914062e+00 -5.857725739479064941e-01 1.100000000000000000e+01
1.311599493026732954e+00 2.616921663284302202e+00 -5.689924359321594238e-01 1.000000000000000000e+01
1.563305974006653054e+00 3.116413831710814986e+00 -5.522136688232421875e-01 8.000000000000000000e+00
1.919461488723755105e+00 3.823071241378784180e+00 -5.252568721771240234e-01 1.000000000000000000e+01
2.505790233612060991e+00 4.988714694976806641e+00 -4.884207844734191895e-01 9.000000000000000000e+00
3.592865467071533203e+00 7.146725177764892578e+00 -4.192110002040863037e-01 1.000000000000000000e+00
6.234166145324707031e+00 1.238987255096436080e+01 -2.420997768640517911e-01 2.000000000000000000e+00
1.005690336227416992e+00 1.991792201995850053e+00 -5.978720188140869141e-01 1.700000000000000000e+01
1.147904396057128906e+00 2.271479368209838867e+00 -5.875721573829650879e-01 1.000000000000000000e+01
1.316297173500061035e+00 2.603566884994506836e+00 -5.670843124389648438e-01 9.000000000000000000e+00
1.573282837867737038e+00 3.109175205230712891e+00 -5.519008040428161621e-01 9.000000000000000000e+00
1.939072966575623003e+00 3.828744173049927202e+00 -5.269630551338195801e-01 1.100000000000000000e+01
2.513283491134643999e+00 4.960387706756591797e+00 -4.865033626556395929e-01 9.000000000000000000e+00
3.605144023895264116e+00 7.109201908111572266e+00 -4.177455902099608820e-01 2.000000000000000000e+00
6.262896537780761719e+00 1.233950519561767933e+01 -2.415413111448287964e-01 2.000000000000000000e+00
1.017020583152770996e+00 1.996876716613769975e+00 -6.004601716995239258e-01 1.600000000000000000e+01
1.154056310653686968e+00 2.263986110687255859e+00 -5.866723656654357910e-01 1.100000000000000000e+01
1.331620693206787109e+00 2.611199140548706055e+00 -5.697556734085083008e-01 1.000000000000000000e+01
1.584126353263854980e+00 3.103664398193358931e+00 -5.519008040428161621e-01 9.000000000000000000e+00
1.961456656455994096e+00 3.839630126953125000e+00 -5.294004082679748535e-01 1.000000000000000000e+01
2.533303022384643999e+00 4.956906795501708984e+00 -4.870263040065764826e-01 9.000000000000000000e+00
3.631756782531737837e+00 7.100130558013916016e+00 -4.179549515247344971e-01 2.000000000000000000e+00
6.320511341094970703e+00 1.234604835510254084e+01 -2.420997768640517911e-01 2.000000000000000000e+00
1.018688321113585982e+00 1.983004212379456010e+00 -5.973543524742126465e-01 1.900000000000000000e+01
1.154823541641234907e+00 2.246079206466674805e+00 -5.830731391906738281e-01 1.100000000000000000e+01
1.338033318519592063e+00 2.601297378540039062e+00 -5.686107873916625977e-01 9.000000000000000000e+00
1.588621258735656960e+00 3.085821866989136186e+00 -5.497106909751892090e-01 8.000000000000000000e+00
1.972119808197021040e+00 3.827466011047362837e+00 -5.286692380905151367e-01 9.000000000000000000e+00
2.556980609893798828e+00 4.960430145263671875e+00 -4.882464706897736151e-01 9.000000000000000000e+00
3.656518697738647017e+00 7.087409973144531250e+00 -4.179549515247344971e-01 2.000000000000000000e+00
6.341549396514892578e+00 1.228126716613770064e+01 -2.412620633840560913e-01 2.000000000000000000e+00
1.031130075454711914e+00 1.991803288459778054e+00 -6.009778380393981934e-01 2.000000000000000000e+01
1.165460109710692915e+00 2.249361276626586914e+00 -5.848727226257324219e-01 1.100000000000000000e+01
1.349812865257262962e+00 2.604053020477294922e+00 -5.701372623443603516e-01 1.000000000000000000e+01
1.604675650596619096e+00 3.093090057373046875e+00 -5.519008040428161621e-01 9.000000000000000000e+00
1.976816296577454057e+00 3.807157516479492188e+00 -5.267193317413330078e-01 9.000000000000000000e+00
2.578980684280395952e+00 4.964749336242675781e+00 -4.894666373729705811e-01 9.000000000000000000e+00
3.673238515853881836e+00 7.065255165100097656e+00 -4.173269271850585938e-01 2.000000000000000000e+00
6.387485027313232422e+00 1.227547550201416016e+01 -2.415413111448287964e-01 2.000000000000000000e+00
1.033605813980102983e+00 1.979629516601562944e+00 -5.983896255493164062e-01 1.900000000000000000e+01
1.178719997406006081e+00 2.255642175674438032e+00 -5.875721573829650879e-01 1.100000000000000000e+01
1.352527618408202903e+00 2.587146520614624023e+00 -5.674659609794616699e-01 1.000000000000000000e+01
1.617294311523437944e+00 3.090970277786254883e+00 -5.525265336036682129e-01 9.000000000000000000e+00
1.991014599800110085e+00 3.801992416381835938e+00 -5.269630551338195801e-01 1.000000000000000000e+01
2.592596769332886186e+00 4.948657512664794922e+00 -4.887694120407103937e-01 9.000000000000000000e+00
3.694168567657471147e+00 7.045314788818359375e+00 -4.169082343578339178e-01 2.000000000000000000e+00
6.415427684783936435e+00 1.222477340698242010e+01 -2.409828305244446078e-01 2.000000000000000000e+00
1.043901443481445090e+00 1.980773210525512917e+00 -5.999425649642944336e-01 1.800000000000000000e+01
1.187372326850890891e+00 2.251099586486815962e+00 -5.875721573829650879e-01 1.200000000000000000e+01
1.364284038543700950e+00 2.585406780242919922e+00 -5.682291984558105469e-01 1.000000000000000000e+01
1.627305865287780984e+00 3.081243991851807085e+00 -5.519008040428161621e-01 9.000000000000000000e+00
2.010236740112305132e+00 3.803094625473022017e+00 -5.281817317008972168e-01 9.000000000000000000e+00
2.605990886688231978e+00 4.928098201751708984e+00 -4.877235293388367254e-01 9.000000000000000000e+00
3.730535984039307085e+00 7.048731327056884766e+00 -4.179549515247344971e-01 2.000000000000000000e+00
6.469808578491210938e+00 1.221418666839599965e+01 -2.412620633840560913e-01 2.000000000000000000e+00
1.047182679176331010e+00 1.970293760299683061e+00 -5.978720188140869141e-01 1.800000000000000000e+01
1.192477464675903098e+00 2.241779804229735884e+00 -5.862224698066711426e-01 1.200000000000000000e+01
1.373300433158874956e+00 2.580628871917725053e+00 -5.682291984558105469e-01 1.000000000000000000e+01
1.641765832901000977e+00 3.082519054412841797e+00 -5.531522631645202637e-01 9.000000000000000000e+00
2.023499727249145952e+00 3.796054363250731978e+00 -5.281817317008972168e-01 9.000000000000000000e+00
2.618489742279053178e+00 4.910181522369384766e+00 -4.868519902229309082e-01 9.000000000000000000e+00
3.740071058273314986e+00 7.007473945617675781e+00 -4.162802100181580145e-01 2.000000000000000000e+00
6.499213695526123047e+00 1.216683483123778942e+01 -2.407733947038651068e-01 2.000000000000000000e+00
1.057015419006348100e+00 1.973806262016295943e+00 -5.999425649642944336e-01 2.000000000000000000e+01
1.199514269828795943e+00 2.238022565841674805e+00 -5.862224698066711426e-01 1.300000000000000000e+01
1.387895107269287109e+00 2.588413476943970171e+00 -5.709004998207092285e-01 9.000000000000000000e+00
1.645837306976317915e+00 3.066902637481689009e+00 -5.512750744819641113e-01 9.000000000000000000e+00
2.036354780197143999e+00 3.791427373886107954e+00 -5.284254550933837891e-01 1.000000000000000000e+01
2.637674808502196822e+00 4.908951282501220703e+00 -4.875492155551909845e-01 7.000000000000000000e+00
3.767743110656737837e+00 7.006244182586669922e+00 -4.169082343578339178e-01 2.000000000000000000e+00
6.567732334136962891e+00 1.220270347595215021e+01 -2.418903559446335116e-01 2.000000000000000000e+00
1.064816832542418990e+00 1.971804499626159890e+00 -6.004601716995239258e-01 1.900000000000000000e+01
1.202686309814452903e+00 2.225250005722045898e+00 -5.839729309082031250e-01 1.200000000000000000e+01
1.391319274902343972e+00 2.573191165924071822e+00 -5.686107873916625977e-01 9.000000000000000000e+00
1.660293340682982954e+00 3.068088054656981978e+00 -5.525265336036682129e-01 9.000000000000000000e+00
2.042013883590697798e+00 3.770331859588623047e+00 -5.264755487442016602e-01 1.000000000000000000e+01
2.659539937973022017e+00 4.908473014831542969e+00 -4.884207844734191895e-01 9.000000000000000000e+00
3.803601503372191939e+00 7.014118194580078125e+00 -4.181642830371857245e-01 1.000000000000000000e+00
6.579763889312744141e+00 1.212346267700194957e+01 -2.407733947038651068e-01 2.000000000000000000e+00
1.067997694015502930e+00 1.961289048194885032e+00 -5.983896255493164062e-01 1.900000000000000000e+01
