1.202013969421387074e+01 -2.462311935424805043e+01 -1.435993909835814986e+00 1.300000000000000000e+01
1.165331125259398970e+00 -2.397774219512939009e+00 -7.143405675888061523e-01 1.500000000000000000e+01
1.363643527030945046e+00 -2.808312892913817915e+00 -7.207431793212890625e-01 1.000000000000000000e+01
1.629622340202331987e+00 -3.357565879821776900e+00 -7.254558205604553223e-01 1.000000000000000000e+01
2.034987211227416992e+00 -4.196481704711914062e+00 -7.386835217475891113e-01 1.100000000000000000e+01
2.534281253814696822e+00 -5.230758666992188388e+00 -7.136668562889099121e-01 1.800000000000000000e+01
3.449292421340941939e+00 -7.122509956359863281e+00 -6.923652291297912598e-01 1.000000000000000000e+00
1.193411540985107067e+01 -2.466492843627930043e+01 -1.435993909835814986e+00 1.300000000000000000e+01
1.163665413856505904e+00 -2.413604497909545898e+00 -7.179640531539916992e-01 1.400000000000000000e+01
1.352277159690856934e+00 -2.807316064834595171e+00 -7.193934917449951172e-01 9.000000000000000000e+00
1.620769619941710982e+00 -3.366206645965576172e+00 -7.262190580368041992e-01 1.000000000000000000e+01
2.023506402969359907e+00 -4.206414222717285156e+00 -7.393093109130859375e-01 1.100000000000000000e+01
2.505797147750854048e+00 -5.213645935058593750e+00 -7.102545499801635742e-01 2.000000000000000000e+01
3.487293004989624023e+00 -7.259024143218994141e+00 -7.045670151710510254e-01 2.000000000000000000e+00
1.181335735321044922e+01 -2.461226844787598012e+01 -1.430760383605957031e+00 1.300000000000000000e+01
1.153567433357238992e+00 -2.414165496826171875e+00 -7.169287800788879395e-01 1.500000000000000000e+01
1.342469453811645952e+00 -2.812019348144530806e+00 -7.193934917449951172e-01 9.000000000000000000e+00
1.606472849845886008e+00 -3.366528272628784180e+00 -7.250741720199584961e-01 9.000000000000000000e+00
2.013911485671997070e+00 -4.224150657653808594e+00 -7.411864995956420898e-01 1.100000000000000000e+01
2.483314514160155806e+00 -5.213400363922119141e+00 -7.090358138084411621e-01 1.600000000000000000e+01
3.474780321121215820e+00 -7.298136234283447266e+00 -7.071816921234130859e-01 4.000000000000000000e+00
1.177027034759520951e+01 -2.474353408813476918e+01 -1.435993909835814986e+00 1.300000000000000000e+01
1.146787047386168990e+00 -2.421669483184814009e+00 -7.179640531539916992e-01 1.400000000000000000e+01
1.337646126747130904e+00 -2.827257394790648970e+00 -7.220928668975830078e-01 9.000000000000000000e+00
1.594711780548095925e+00 -3.372115373611450195e+00 -7.250741720199584961e-01 9.000000000000000000e+00
2.001685857772827148e+00 -4.236512660980224609e+00 -7.421250939369201660e-01 1.100000000000000000e+01
2.474422693252563032e+00 -5.241783142089843750e+00 -7.117169499397277832e-01 2.200000000000000000e+01
3.439931631088256836e+00 -7.290400505065917969e+00 -7.052642703056335449e-01 5.000000000000000000e+00
1.168382740020751953e+01 -2.478446960449219105e+01 -1.435993909835814986e+00 1.300000000000000000e+01
1.130940437316894975e+00 -2.409918069839477983e+00 -7.133052945137023926e-01 1.400000000000000000e+01
1.331078052520751953e+00 -2.838967323303223100e+00 -7.238925099372863770e-01 9.000000000000000000e+00
1.582931160926819070e+00 -3.377661466598511186e+00 -7.250741720199584961e-01 9.000000000000000000e+00
1.984372496604918990e+00 -4.238107204437255859e+00 -7.411864995956420898e-01 1.100000000000000000e+01
2.453586816787720171e+00 -5.244994640350341797e+00 -7.109857201576232910e-01 2.000000000000000000e+01
3.277748823165893999e+00 -7.009980201721191406e+00 -6.770257949829101562e-01 0.000000000000000000e+00
1.161922073364257990e+01 -2.487215042114258168e+01 -1.438715457916259988e+00 1.300000000000000000e+01
1.129038214683532937e+00 -2.427864789962768999e+00 -7.174463868141174316e-01 1.500000000000000000e+01
1.321160078048706055e+00 -2.843596220016479048e+00 -7.238925099372863770e-01 9.000000000000000000e+00
1.576092720031738059e+00 -3.393849849700928178e+00 -7.273638844490051270e-01 1.000000000000000000e+01
1.964578390121459961e+00 -4.234256744384765625e+00 -7.393093109130859375e-01 1.100000000000000000e+01
2.424410343170166016e+00 -5.230113983154296875e+00 -7.078171372413635254e-01 3.000000000000000000e+01
3.313567161560059038e+00 -7.151538372039794922e+00 -6.895762085914611816e-01 0.000000000000000000e+00
1.146856498718262074e+01 -2.477480888366698863e+01 -1.430760383605957031e+00 1.300000000000000000e+01
1.117322564125061035e+00 -2.424772977828979048e+00 -7.153758406639099121e-01 1.100000000000000000e+01
1.306336402893065962e+00 -2.837569713592528853e+00 -7.211930751800537109e-01 9.000000000000000000e+00
1.564236402511596902e+00 -3.399330854415893999e+00 -7.273638844490051270e-01 9.000000000000000000e+00
1.949786067008971946e+00 -4.241088390350341797e+00 -7.393093109130859375e-01 1.100000000000000000e+01
2.403653383255004883e+00 -5.233133316040039062e+00 -7.070859074592590332e-01 1.800000000000000000e+01
3.641050338745117188e+00 -7.930790901184082031e+00 -7.634842991828918457e-01 3.000000000000000000e+00
1.138201427459716975e+01 -2.481469154357910156e+01 -1.430760383605957031e+00 1.300000000000000000e+01
1.116822957992553933e+00 -2.448379278182982954e+00 -7.210698723793029785e-01 1.400000000000000000e+01
1.297047615051269975e+00 -2.846111297607421875e+00 -7.220928668975830078e-01 9.000000000000000000e+00
1.548730850219727007e+00 -3.399952173233031782e+00 -7.262190580368041992e-01 9.000000000000000000e+00
1.940032958984375000e+00 -4.262927532196044922e+00 -7.418122291564941406e-01 1.100000000000000000e+01
2.381077051162720171e+00 -5.236902713775634766e+00 -7.063547372817993164e-01 2.000000000000000000e+01
3.602328300476074219e+00 -7.926574230194091797e+00 -7.617412209510803223e-01 3.000000000000000000e+00
1.127674102783202947e+01 -2.483638954162598012e+01 -1.429504275321960005e+00 1.300000000000000000e+01
1.101904988288878950e+00 -2.438179254531859907e+00 -7.169287800788879395e-01 1.400000000000000000e+01
1.290312647819519043e+00 -2.857725858688354048e+00 -7.238925099372863770e-01 9.000000000000000000e+00
1.537660956382751021e+00 -3.407126903533935991e+00 -7.266006469726562500e-01 9.000000000000000000e+00
1.925140738487244096e+00 -4.269673347473145419e+00 -7.418122291564941406e-01 1.100000000000000000e+01
2.369304895401000977e+00 -5.259661674499511719e+00 -7.083046436309814453e-01 2.000000000000000000e+01
3.177091836929320845e+00 -7.056170940399169922e+00 -6.770257949829101562e-01 0.000000000000000000e+00
1.115884113311767933e+01 -2.480638504028319957e+01 -1.425526738166809082e+00 1.300000000000000000e+01
1.090654611587523970e+00 -2.434767723083496094e+00 -7.148581743240356445e-01 1.400000000000000000e+01
1.282421112060547097e+00 -2.865546464920043945e+00 -7.247923016548156738e-01 9.000000000000000000e+00
1.527957439422606978e+00 -3.415791511535644975e+00 -7.273638844490051270e-01 1.000000000000000000e+01
1.912583351135253906e+00 -4.279641151428222656e+00 -7.424379587173461914e-01 1.100000000000000000e+01
2.365608453750609907e+00 -5.298304557800292969e+00 -7.124481797218322754e-01 2.000000000000000000e+01
3.142307758331298828e+00 -7.041195869445800781e+00 -6.745854616165161133e-01 1.000000000000000000e+00
1.101958751678466975e+01 -2.471556282043457031e+01 -1.418199777603148970e+00 1.200000000000000000e+01
1.082932591438293013e+00 -2.440325975418090820e+00 -7.153758406639099121e-01 1.300000000000000000e+01
1.270830988883971946e+00 -2.866442441940308061e+00 -7.238925099372863770e-01 9.000000000000000000e+00
1.518410921096801980e+00 -3.426489114761352983e+00 -7.285087704658508301e-01 1.000000000000000000e+01
1.898432731628417969e+00 -4.288097381591796875e+00 -7.427508234977722168e-01 1.100000000000000000e+01
2.358341217041016069e+00 -5.331945896148681641e+00 -7.158605456352233887e-01 3.500000000000000000e+01
3.489902019500731978e+00 -7.894002437591552734e+00 -7.551173567771911621e-01 2.000000000000000000e+00
1.094938564300536932e+01 -2.479041671752930043e+01 -1.420293211936950906e+00 1.300000000000000000e+01
1.075185060501099077e+00 -2.445859670639038086e+00 -7.158935070037841797e-01 1.200000000000000000e+01
1.257683157920836958e+00 -2.863723993301392046e+00 -7.220928668975830078e-01 9.000000000000000000e+00
1.505651831626892090e+00 -3.429970741271973100e+00 -7.281271219253540039e-01 9.000000000000000000e+00
1.881072759628295898e+00 -4.289270877838134766e+00 -7.418122291564941406e-01 1.100000000000000000e+01
2.333341836929320845e+00 -5.325599670410156250e+00 -7.139106392860412598e-01 3.000000000000000000e+01
3.510280132293701172e+00 -8.015640258789062500e+00 -7.655760645866394043e-01 2.000000000000000000e+00
1.085157585144042969e+01 -2.480286979675292969e+01 -1.418827772140502930e+00 1.300000000000000000e+01
1.070497155189513938e+00 -2.458453893661499023e+00 -7.184816598892211914e-01 1.100000000000000000e+01
1.249233961105346902e+00 -2.871670722961425781e+00 -7.229927182197570801e-01 9.000000000000000000e+00
1.497584104537964089e+00 -3.444207668304442915e+00 -7.300352454185485840e-01 1.000000000000000000e+01
1.869237184524535911e+00 -4.303058147430419922e+00 -7.430636882781982422e-01 1.100000000000000000e+01
2.296561241149901900e+00 -5.291829109191895419e+00 -7.083046436309814453e-01 2.400000000000000000e+01
3.559980154037476030e+00 -8.206972122192382812e+00 -7.826585769653320312e-01 5.000000000000000000e+00
1.061573386192321999e+00 -2.460216522216796875e+00 -7.179640531539916992e-01 1.400000000000000000e+01
1.241247177124022993e+00 -2.879376411437987837e+00 -7.238925099372863770e-01 9.000000000000000000e+00
1.478385806083678977e+00 -3.431124925613402876e+00 -7.262190580368041992e-01 9.000000000000000000e+00
1.859643578529357910e+00 -4.320119380950927734e+00 -7.449409365653991699e-01 1.100000000000000000e+01
2.292332410812377930e+00 -5.330417156219482422e+00 -7.124481797218322754e-01 2.600000000000000000e+01
3.076399564743041992e+00 -7.157069683074951172e+00 -6.815578937530517578e-01 0.000000000000000000e+00
1.048424124717711958e+00 -2.453248500823975053e+00 -7.148581743240356445e-01 1.400000000000000000e+01
1.237310171127318892e+00 -2.898029565811156782e+00 -7.274917364120483398e-01 9.000000000000000000e+00
1.468711614608765093e+00 -3.441681623458861861e+00 -7.273638844490051270e-01 9.000000000000000000e+00
1.844552278518676980e+00 -4.326584339141845703e+00 -7.449409365653991699e-01 1.100000000000000000e+01
2.266710996627808061e+00 -5.321949481964111328e+00 -7.102545499801635742e-01 2.400000000000000000e+01
3.046715497970581055e+00 -7.156765460968017578e+00 -6.805120110511779785e-01 0.000000000000000000e+00
1.043619155883789062e+00 -2.465788602828979048e+00 -7.174463868141174316e-01 1.100000000000000000e+01
1.225668787956238015e+00 -2.898741245269774947e+00 -7.265918850898742676e-01 9.000000000000000000e+00
1.459746003150939941e+00 -3.454020977020264116e+00 -7.288903594017028809e-01 9.000000000000000000e+00
1.826364994049072044e+00 -4.325717449188232422e+00 -7.436894178390502930e-01 1.100000000000000000e+01
2.235776185989379883e+00 -5.300564289093017578e+00 -7.063547372817993164e-01 2.200000000000000000e+01
3.034099340438843218e+00 -7.196731090545654297e+00 -6.833010315895080566e-01 0.000000000000000000e+00
1.057369232177734020e+01 -2.510474395751953125e+01 -1.427620172500609907e+00 1.300000000000000000e+01
1.037245869636536089e+00 -2.474761724472045898e+00 -7.189993262290954590e-01 1.200000000000000000e+01
1.211026906967163086e+00 -2.892216682434082031e+00 -7.238925099372863770e-01 9.000000000000000000e+00
1.449954152107238992e+00 -3.464528560638428178e+00 -7.300352454185485840e-01 9.000000000000000000e+00
1.814302325248718040e+00 -4.339356422424316406e+00 -7.449409365653991699e-01 1.100000000000000000e+01
2.232562065124512163e+00 -5.344971179962158203e+00 -7.112295031547546387e-01 2.000000000000000000e+01
2.989002227783203125e+00 -7.159474849700927734e+00 -6.787689328193664551e-01 3.000000000000000000e+00
1.047061920166015980e+01 -2.510463333129883168e+01 -1.425526738166809082e+00 1.300000000000000000e+01
1.027860403060913086e+00 -2.476583003997803178e+00 -7.184816598892211914e-01 1.100000000000000000e+01
1.202416539192199929e+00 -2.900026559829711914e+00 -7.247923016548156738e-01 9.000000000000000000e+00
1.439355134963989036e+00 -3.473196029663085938e+00 -7.307984232902526855e-01 1.000000000000000000e+01
1.802166581153870073e+00 -4.352963447570800781e+00 -7.461923956871032715e-01 1.100000000000000000e+01
2.207821607589722124e+00 -5.338056564331054688e+00 -7.092795968055725098e-01 1.500000000000000000e+01
2.973126649856566939e+00 -7.191960334777832031e+00 -6.808606386184692383e-01 0.000000000000000000e+00
1.038292407989501953e+01 -2.514102935791015980e+01 -1.425526738166809082e+00 1.300000000000000000e+01
1.019209265708922896e+00 -2.480155706405640093e+00 -7.184816598892211914e-01 1.300000000000000000e+01
1.190806031227112038e+00 -2.900600671768188032e+00 -7.238925099372863770e-01 9.000000000000000000e+00
1.427967905998229980e+00 -3.480015516281127930e+00 -7.311800718307495117e-01 9.000000000000000000e+00
1.785462379455565962e+00 -4.355572223663330078e+00 -7.455666661262512207e-01 1.100000000000000000e+01
2.184660911560059038e+00 -5.334708690643311435e+00 -7.078171372413635254e-01 1.300000000000000000e+01
2.946494579315185991e+00 -7.198606491088867188e+00 -6.805120110511779785e-01 0.000000000000000000e+00
1.025730609893799006e+01 -2.508468627929687855e+01 -1.420293211936950906e+00 1.300000000000000000e+01
1.006177425384521040e+00 -2.472961902618408203e+00 -7.153758406639099121e-01 1.200000000000000000e+01
1.186544179916382058e+00 -2.919182300567626953e+00 -7.274917364120483398e-01 9.000000000000000000e+00
1.414333820343018022e+00 -3.481340885162353960e+00 -7.304168343544006348e-01 9.000000000000000000e+00
1.770247697830199973e+00 -4.361778259277343750e+00 -7.455666661262512207e-01 1.100000000000000000e+01
2.156329631805419922e+00 -5.318386554718017578e+00 -7.046485543251037598e-01 9.000000000000000000e+00
2.927335023880004883e+00 -7.223620414733886719e+00 -6.819065213203430176e-01 1.000000000000000000e+00
1.016968154907226918e+01 -2.512033843994140980e+01 -1.420293211936950906e+00 1.300000000000000000e+01
1.002591609954833984e+00 -2.489002704620360884e+00 -7.189993262290954590e-01 1.300000000000000000e+01
1.174892067909240945e+00 -2.919690608978271040e+00 -7.265918850898742676e-01 9.000000000000000000e+00
1.404370784759521040e+00 -3.491721153259276900e+00 -7.315616607666015625e-01 1.000000000000000000e+01
1.755011558532715066e+00 -4.367930889129638672e+00 -7.455666661262512207e-01 1.100000000000000000e+01
2.140709638595581055e+00 -5.333250045776367188e+00 -7.056235074996948242e-01 9.000000000000000000e+00
2.955515146255493164e+00 -7.366931915283203125e+00 -6.944569349288940430e-01 0.000000000000000000e+00
1.014731788635254084e+01 -2.531882858276366832e+01 -1.429504275321960005e+00 1.300000000000000000e+01
9.948927164077758789e-01 -2.496249675750731978e+00 -7.200345993041992188e-01 1.100000000000000000e+01
1.161299586296081987e+00 -2.916735172271728960e+00 -7.247923016548156738e-01 9.000000000000000000e+00
1.393741369247436968e+00 -3.502317190170288086e+00 -7.327065467834472656e-01 1.100000000000000000e+01
1.738990426063538042e+00 -4.374333858489990234e+00 -7.455666661262512207e-01 1.100000000000000000e+01
2.118949890136719194e+00 -5.335525512695313388e+00 -7.048922777175903320e-01 7.000000000000000000e+00
2.963777065277100053e+00 -7.466602802276611328e+00 -7.028239369392395020e-01 0.000000000000000000e+00
1.000291728973389027e+01 -2.522588539123535156e+01 -1.422177314758301003e+00 1.300000000000000000e+01
9.868820905685424805e-01 -2.501504421234130859e+00 -7.205522060394287109e-01 1.100000000000000000e+01
1.152540206909179910e+00 -2.924396991729735884e+00 -7.256920933723449707e-01 9.000000000000000000e+00
1.381507515907288042e+00 -3.507160902023314986e+00 -7.327065467834472656e-01 1.000000000000000000e+01
1.725157260894774947e+00 -4.384054183959960938e+00 -7.461923956871032715e-01 1.100000000000000000e+01
2.095955133438109907e+00 -5.331804752349854404e+00 -7.034298777580261230e-01 1.100000000000000000e+01
2.902723073959351030e+00 -7.387892246246337891e+00 -6.944569349288940430e-01 0.000000000000000000e+00
9.865180015563964844e+00 -2.513422584533691051e+01 -1.415059566497802956e+00 1.200000000000000000e+01
9.757694005966186523e-01 -2.497565746307373047e+00 -7.184816598892211914e-01 1.100000000000000000e+01
1.147087335586548074e+00 -2.939095258712768999e+00 -7.283915281295776367e-01 9.000000000000000000e+00
1.363448381423949973e+00 -3.495261669158935991e+00 -7.292720079421997070e-01 1.000000000000000000e+01
1.713478684425354004e+00 -4.397112846374511719e+00 -7.474438548088073730e-01 1.100000000000000000e+01
2.084743738174438032e+00 -5.355374813079833984e+00 -7.056235074996948242e-01 1.300000000000000000e+01
2.949007272720336914e+00 -7.579443454742431641e+00 -7.115395069122314453e-01 0.000000000000000000e+00
9.791907310485839844e+00 -2.519286346435546875e+01 -1.416525006294250044e+00 1.200000000000000000e+01
9.656518697738647461e-01 -2.497352838516234907e+00 -7.174463868141174316e-01 1.100000000000000000e+01
1.137523174285888894e+00 -2.944899082183837891e+00 -7.288414239883422852e-01 1.000000000000000000e+01
1.353360652923583984e+00 -3.505494356155395952e+00 -7.304168343544006348e-01 1.000000000000000000e+01
1.699541091918945090e+00 -4.406753540039063388e+00 -7.480695843696594238e-01 1.100000000000000000e+01
2.081737756729125977e+00 -5.403371334075927734e+00 -7.109857201576232910e-01 1.300000000000000000e+01
2.832321882247924805e+00 -7.355418682098388672e+00 -6.895762085914611816e-01 0.000000000000000000e+00
9.702473640441894531e+00 -2.522316169738769887e+01 -1.416315674781799094e+00 1.200000000000000000e+01
9.555477499961853027e-01 -2.497099876403809038e+00 -7.164111137390136719e-01 1.100000000000000000e+01
1.125844955444335938e+00 -2.945211410522460938e+00 -7.279416322708129883e-01 1.000000000000000000e+01
1.346721410751342995e+00 -3.524868726730347124e+00 -7.334697842597961426e-01 1.100000000000000000e+01
1.679922103881835938e+00 -4.401586055755615234e+00 -7.461923956871032715e-01 1.100000000000000000e+01
2.084786653518677202e+00 -5.468105792999267578e+00 -7.185416221618652344e-01 1.600000000000000000e+01
3.115954399108887163e+00 -8.177002906799316406e+00 -7.655760645866394043e-01 1.000000000000000000e+00
9.605842590332031250e+00 -2.523447608947753906e+01 -1.415059566497802956e+00 1.200000000000000000e+01
9.522984027862548828e-01 -2.514873504638671875e+00 -7.205522060394287109e-01 1.300000000000000000e+01
1.111420631408690962e+00 -2.938187122344971147e+00 -7.252421975135803223e-01 1.100000000000000000e+01
1.333714842796325906e+00 -3.527711868286132812e+00 -7.330881357192993164e-01 1.000000000000000000e+01
1.667339086532592995e+00 -4.414814949035645419e+00 -7.474438548088073730e-01 1.100000000000000000e+01
2.083204269409180132e+00 -5.521782398223876953e+00 -7.246351242065429688e-01 1.500000000000000000e+01
9.468418121337890625e+00 -2.513702011108398082e+01 -1.407732605934143066e+00 1.200000000000000000e+01
9.448696970939636230e-01 -2.521800279617310014e+00 -7.215874791145324707e-01 1.300000000000000000e+01
1.102523922920227051e+00 -2.945698976516724077e+00 -7.261419892311096191e-01 1.000000000000000000e+01
1.321392774581908958e+00 -3.532345771789550781e+00 -7.330881357192993164e-01 1.100000000000000000e+01
1.651226878166198953e+00 -4.418757915496826172e+00 -7.471309900283813477e-01 9.000000000000000000e+00
2.078495502471923828e+00 -5.568075180053710938e+00 -7.297536134719848633e-01 1.500000000000000000e+01
3.017005920410155806e+00 -8.086554527282714844e+00 -7.551173567771911621e-01 1.000000000000000000e+00
9.400145530700683594e+00 -2.522232055664062855e+01 -1.410663366317749023e+00 1.200000000000000000e+01
9.347181916236877441e-01 -2.521460294723511186e+00 -7.205522060394287109e-01 1.400000000000000000e+01
1.094941616058350053e+00 -2.956839561462401900e+00 -7.279416322708129883e-01 1.000000000000000000e+01
1.307010173797606978e+00 -3.531413316726685014e+00 -7.319433093070983887e-01 9.000000000000000000e+00
1.637162446975708008e+00 -4.428200244903563565e+00 -7.477567195892333984e-01 1.100000000000000000e+01
2.080366134643555132e+00 -5.633023262023925781e+00 -7.373095154762268066e-01 1.300000000000000000e+01
2.875612258911132812e+00 -7.790500640869140625e+00 -7.265302538871765137e-01 1.000000000000000000e+00
9.285789489746093750e+00 -2.518376922607421875e+01 -1.406685829162598100e+00 1.200000000000000000e+01
9.245806336402893066e-01 -2.521080255508422852e+00 -7.195169329643249512e-01 1.300000000000000000e+01
1.085954427719115989e+00 -2.964303255081177202e+00 -7.288414239883422852e-01 1.100000000000000000e+01
1.295350313186645952e+00 -3.537797689437866211e+00 -7.323248982429504395e-01 1.000000000000000000e+01
1.623052239418030007e+00 -4.437598705291748047e+00 -7.483825087547302246e-01 9.000000000000000000e+00
2.081808328628540039e+00 -5.698051929473876953e+00 -7.448654174804687500e-01 1.500000000000000000e+01
2.789628744125366211e+00 -7.639540672302246094e+00 -7.115395069122314453e-01 0.000000000000000000e+00
9.136228561401367188e+00 -2.504715919494628906e+01 -1.397265315055846946e+00 1.200000000000000000e+01
9.151159524917602539e-01 -2.522476196289062944e+00 -7.189993262290954590e-01 1.300000000000000000e+01
1.075600385665893999e+00 -2.968075752258300781e+00 -7.288414239883422852e-01 1.000000000000000000e+01
1.286336064338684082e+00 -3.551527261734008789e+00 -7.342330217361450195e-01 1.100000000000000000e+01
1.604864120483397993e+00 -4.435806751251220703e+00 -7.471309900283813477e-01 9.000000000000000000e+00
2.089568853378295898e+00 -5.781827449798583984e+00 -7.548587322235107422e-01 1.600000000000000000e+01
2.817093610763549805e+00 -7.799142837524414062e+00 -7.254844307899475098e-01 1.000000000000000000e+00
9.039251327514648438e+00 -2.505259704589844105e+01 -1.395799994468688965e+00 1.200000000000000000e+01
9.067460894584655762e-01 -2.525497198104857954e+00 -7.189993262290954590e-01 1.200000000000000000e+01
1.063120484352112038e+00 -2.964288949966431108e+00 -7.270417809486389160e-01 1.000000000000000000e+01
1.275214076042175071e+00 -3.557621479034423828e+00 -7.346146106719970703e-01 1.100000000000000000e+01
1.592143297195435014e+00 -4.446683883666992188e+00 -7.480695843696594238e-01 8.000000000000000000e+00
2.083754301071166992e+00 -5.826107501983642578e+00 -7.597334980964660645e-01 1.600000000000000000e+01
2.804628133773804155e+00 -7.845964431762695312e+00 -7.289706468582153320e-01 1.000000000000000000e+00
8.961497306823730469e+00 -2.509748077392578125e+01 -1.396637320518494096e+00 1.200000000000000000e+01
9.043895006179809570e-01 -2.546851634979248047e+00 -7.241756916046142578e-01 1.300000000000000000e+01
1.053418159484863059e+00 -2.969818592071533203e+00 -7.274917364120483398e-01 1.100000000000000000e+01
1.263443946838378906e+00 -3.563901424407958984e+00 -7.349962592124938965e-01 1.100000000000000000e+01
1.572655320167541948e+00 -4.441041946411132812e+00 -7.461923956871032715e-01 8.000000000000000000e+00
2.078630447387694868e+00 -5.876389503479003906e+00 -7.653394937515258789e-01 1.500000000000000000e+01
2.910041332244873047e+00 -8.231397628784179688e+00 -7.638329267501831055e-01 1.000000000000000000e+00
8.880486488342285156e+00 -2.514744186401366832e+01 -1.397684097290039062e+00 1.200000000000000000e+01
8.935735225677490234e-01 -2.544524908065795898e+00 -7.226227521896362305e-01 1.100000000000000000e+01
1.046915531158447044e+00 -2.984510898590087891e+00 -7.301911115646362305e-01 1.000000000000000000e+01
1.246449232101439986e+00 -3.555321216583251953e+00 -7.323248982429504395e-01 1.000000000000000000e+01
1.565631270408629927e+00 -4.470740795135498047e+00 -7.502596974372863770e-01 9.000000000000000000e+00
2.088255882263184038e+00 -5.969802379608154297e+00 -7.765514850616455078e-01 1.500000000000000000e+01
2.878660678863524947e+00 -8.233983039855957031e+00 -7.631356716156005859e-01 2.000000000000000000e+00
8.747875213623046875e+00 -2.505006790161133168e+01 -1.390566349029541016e+00 1.200000000000000000e+01
8.796162009239196777e-01 -2.533028841018677202e+00 -7.184816598892211914e-01 1.200000000000000000e+01
1.040323019027709961e+00 -2.999193906784058061e+00 -7.328905463218688965e-01 1.000000000000000000e+01
1.234031200408935991e+00 -3.559650421142578125e+00 -7.323248982429504395e-01 1.000000000000000000e+01
1.549369573593140093e+00 -4.474312305450438565e+00 -7.499468326568603516e-01 1.100000000000000000e+01
2.088169574737548828e+00 -6.037088394165039062e+00 -7.843511104583740234e-01 1.400000000000000000e+01
2.831023216247559038e+00 -8.189373016357421875e+00 -7.580806612968444824e-01 4.000000000000000000e+00
8.630393981933593750e+00 -2.499360847473144887e+01 -1.385751485824584961e+00 1.200000000000000000e+01
8.751603960990905762e-01 -2.548873901367187944e+00 -7.221051454544067383e-01 1.300000000000000000e+01
1.025422096252440962e+00 -2.989903450012207031e+00 -7.297412157058715820e-01 9.000000000000000000e+00
1.225417613983154075e+00 -3.575079441070557085e+00 -7.346146106719970703e-01 1.000000000000000000e+01
1.534381628036499023e+00 -4.481562137603759766e+00 -7.502596974372863770e-01 9.000000000000000000e+00
1.382850646972656072e+01 -4.041277694702147727e+01 5.244525432586669922e+00 3.000000000000000000e+01
2.092135190963745117e+00 -6.117594242095947266e+00 -7.938569188117980957e-01 1.200000000000000000e+01
2.795331716537476030e+00 -8.178466796875000000e+00 -7.561632394790649414e-01 6.000000000000000000e+00
8.545678138732910156e+00 -2.503114318847655895e+01 -1.386170148849487083e+00 1.200000000000000000e+01
1.388953113555908025e+01 -4.073031234741210938e+01 -7.511515617370605469e-01 1.000000000000000000e+01
8.662578463554382324e-01 -2.551913261413574219e+00 -7.221051454544067383e-01 1.300000000000000000e+01
1.014979124069214089e+00 -2.993464708328247070e+00 -7.297412157058715820e-01 9.000000000000000000e+00
1.214821100234984907e+00 -3.584913253784180132e+00 -7.357594966888427734e-01 1.000000000000000000e+01
1.516828775405884011e+00 -4.481277465820313388e+00 -7.493211030960083008e-01 8.000000000000000000e+00
2.089205980300902876e+00 -6.179394721984863281e+00 -8.009253144264221191e-01 7.000000000000000000e+00
2.775695562362670898e+00 -8.214599609375000000e+00 -7.586035728454589844e-01 5.000000000000000000e+00
8.442922592163085938e+00 -2.501540374755859020e+01 -1.383658051490783913e+00 1.200000000000000000e+01
1.881178665161133168e+01 -5.580142593383789062e+01 -1.027876973152161089e+00 1.500000000000000000e+01
8.598030805587768555e-01 -2.562247514724731001e+00 -7.241756916046142578e-01 1.300000000000000000e+01
1.005762457847594993e+00 -3.000684738159180132e+00 -7.306410074234008789e-01 9.000000000000000000e+00
8.966213226318359375e+00 -2.675063133239746094e+01 1.478595495223999023e+00 1.400000000000000000e+01
1.199805617332458052e+00 -3.581685781478881836e+00 -7.342330217361450195e-01 1.000000000000000000e+01
1.509325265884398970e+00 -4.510897636413574219e+00 -7.533884048461914062e-01 9.000000000000000000e+00
2.085241317749022993e+00 -6.239366531372070312e+00 -8.077499866485595703e-01 5.000000000000000000e+00
2.760259628295897993e+00 -8.263923645019531250e+00 -7.622641324996948242e-01 5.000000000000000000e+00
8.355551719665527344e+00 -2.504472160339355113e+01 -1.383658051490783913e+00 1.200000000000000000e+01
8.490293622016906738e-01 -2.559732198715209961e+00 -7.226227521896362305e-01 1.400000000000000000e+01
9.977334141731262207e-01 -3.011576890945435014e+00 -7.324406504631042480e-01 9.000000000000000000e+00
1.189147233963012917e+00 -3.591443300247191939e+00 -7.353778481483459473e-01 1.000000000000000000e+01
1.496051192283629927e+00 -4.523640632629395419e+00 -7.546398639678955078e-01 9.000000000000000000e+00
2.082128524780272993e+00 -6.303154468536376953e+00 -8.150621652603149414e-01 5.000000000000000000e+00
2.755755901336669922e+00 -8.347294807434082031e+00 -7.690622806549072266e-01 1.000000000000000000e+00
8.268077850341796875e+00 -2.507373619079589844e+01 -1.383658051490783913e+00 1.200000000000000000e+01
1.825035858154296875e+01 -5.541098022460938211e+01 -1.018313050270081010e+00 1.500000000000000000e+01
8.379713892936706543e-01 -2.553209304809569868e+00 -7.200345993041992188e-01 1.500000000000000000e+01
9.882673621177673340e-01 -3.014696359634398970e+00 -7.324406504631042480e-01 9.000000000000000000e+00
1.180914759635925071e+00 -3.604489564895629883e+00 -7.372859716415405273e-01 1.100000000000000000e+01
1.478146195411681907e+00 -4.517054080963134766e+00 -7.527626752853393555e-01 9.000000000000000000e+00
2.069100379943848100e+00 -6.330420017242431641e+00 -8.177433013916015625e-01 7.000000000000000000e+00
2.665178060531616211e+00 -8.158945083618164062e+00 -7.509338855743408203e-01 1.000000000000000000e+00
8.176876068115234375e+00 -2.506161117553710938e+01 -1.381564617156981978e+00 1.200000000000000000e+01
8.308419585227966309e-01 -2.561631679534912109e+00 -7.215874791145324707e-01 1.400000000000000000e+01
9.759363532066345215e-01 -3.012566089630126953e+00 -7.310909032821655273e-01 1.000000000000000000e+01
1.169534921646117942e+00 -3.612325429916381836e+00 -7.380492091178894043e-01 1.100000000000000000e+01
1.456899523735045943e+00 -4.505270004272460938e+00 -7.499468326568603516e-01 8.000000000000000000e+00
2.063463926315308061e+00 -6.388607025146484375e+00 -8.243242502212524414e-01 7.000000000000000000e+00
2.896188259124755859e+00 -8.972125053405761719e+00 -8.248419761657714844e-01 3.000000000000000000e+00
8.117536544799804688e+00 -2.517744255065917969e+01 -1.386379480361938032e+00 1.200000000000000000e+01
7.485025405883789062e+00 -2.325732803344726918e+01 6.546568870544433594e+00 3.000000000000000000e+00
8.236639499664306641e-01 -2.570035457611083984e+00 -7.231404185295104980e-01 1.300000000000000000e+01
9.636322855949401855e-01 -3.010386466979980025e+00 -7.297412157058715820e-01 9.000000000000000000e+00
1.156320214271544966e+00 -3.614516019821166992e+00 -7.376675605773925781e-01 1.100000000000000000e+01
1.445974230766295943e+00 -4.525381565093994141e+00 -7.524497509002685547e-01 8.000000000000000000e+00
2.041754484176636186e+00 -6.397662162780761719e+00 -8.245679736137390137e-01 5.000000000000000000e+00
2.853954315185546875e+00 -8.948012351989746094e+00 -8.217043280601501465e-01 4.000000000000000000e+00
8.058701515197753906e+00 -2.529697036743164062e+01 -1.391403675079345925e+00 1.200000000000000000e+01
8.187699913978576660e-01 -2.585786819458007812e+00 -7.267639040946960449e-01 1.300000000000000000e+01
8.500130653381347656e+00 -2.686085700988769887e+01 4.917739033699036200e-01 1.800000000000000000e+01
9.542934298515319824e-01 -3.017447948455810991e+00 -7.306410074234008789e-01 9.000000000000000000e+00
1.144287824630737083e+00 -3.620402336120605025e+00 -7.380492091178894043e-01 1.100000000000000000e+01
1.431952834129333052e+00 -4.536052703857421875e+00 -7.533884048461914062e-01 9.000000000000000000e+00
2.030154705047606978e+00 -6.438827991485595703e+00 -8.289552927017211914e-01 3.000000000000000000e+00
2.813122034072875977e+00 -8.927515983581542969e+00 -8.189153671264648438e-01 7.000000000000000000e+00
7.925979614257813388e+00 -2.518396759033203125e+01 -1.383658051490783913e+00 1.200000000000000000e+01
8.051250576972961426e-01 -2.573879241943358931e+00 -7.226227521896362305e-01 1.400000000000000000e+01
8.406316757202148438e+00 -2.689036369323730113e+01 4.917739033699036200e-01 1.800000000000000000e+01
9.437547922134399414e-01 -3.020760536193848100e+00 -7.306410074234008789e-01 9.000000000000000000e+00
1.132813572883605957e+00 -3.628122568130493164e+00 -7.388124465942382812e-01 1.100000000000000000e+01
1.421403169631958008e+00 -4.557995796203613281e+00 -7.562041878700256348e-01 8.000000000000000000e+00
2.005895614624022993e+00 -6.440189838409423828e+00 -8.282240629196166992e-01 5.000000000000000000e+00
7.325219631195068359e+00 -2.351857185363769887e+01 3.901475667953491211e+00 1.000000000000000000e+01
2.565213441848754883e+00 -8.241017341613769531e+00 -7.551173567771911621e-01 2.000000000000000000e+00
7.972761988639831543e-01 -2.580365419387816939e+00 -7.236580252647399902e-01 1.100000000000000000e+01
7.257494926452636719e+00 -2.350325202941894887e+01 4.293641149997711182e-01 4.500000000000000000e+01
9.343538880348205566e-01 -3.027760744094849077e+00 -7.315407991409301758e-01 9.000000000000000000e+00
7.282836437225341797e+00 -2.359992980957030895e+01 1.294372916221619096e+00 1.200000000000000000e+01
1.118406414985656960e+00 -3.626426458358765093e+00 -7.376675605773925781e-01 1.100000000000000000e+01
1.403739571571350098e+00 -4.557265758514404297e+00 -7.552655935287475586e-01 9.000000000000000000e+00
1.987488865852355957e+00 -6.460433483123779297e+00 -8.299302458763122559e-01 3.000000000000000000e+00
2.528234243392943892e+00 -8.223259925842285156e+00 -7.526770234107971191e-01 1.000000000000000000e+00
7.230530738830566406e+00 -2.354706954956055043e+01 -1.290918707847594993e+00 1.100000000000000000e+01
7.216462612152099609e+00 -2.353052330017089844e+01 -4.296084344387053888e-01 3.000000000000000000e+00
7.905195951461791992e-01 -2.590523719787598100e+00 -7.257286310195922852e-01 1.200000000000000000e+01
9.260518550872802734e-01 -3.038460016250609907e+00 -7.333404421806335449e-01 9.000000000000000000e+00
1.106885075569153054e+00 -3.634064674377440962e+00 -7.384307980537414551e-01 1.100000000000000000e+01
8.361118316650390625e+00 -2.746796798706055043e+01 2.512002706527709961e+00 2.600000000000000000e+01
1.384948730468750000e+00 -4.552688598632813388e+00 -7.537012696266174316e-01 8.000000000000000000e+00
1.966079831123352051e+00 -6.471130847930908203e+00 -8.304176926612854004e-01 3.000000000000000000e+00
2.588658571243286133e+00 -8.525628089904785156e+00 -7.795209884643554688e-01 1.000000000000000000e+00
7.661823749542236328e+00 -2.526558494567871094e+01 -1.383658051490783913e+00 1.200000000000000000e+01
7.814722061157226562e-01 -2.593267202377318892e+00 -7.257286310195922852e-01 1.100000000000000000e+01
8.124265670776367188e+00 -2.697691917419433949e+01 4.917739033699036200e-01 1.800000000000000000e+01
9.109470248222351074e-01 -3.026745557785034180e+00 -7.297412157058715820e-01 9.000000000000000000e+00
1.099847793579102007e+00 -3.656706809997559038e+00 -7.422469854354858398e-01 1.000000000000000000e+01
1.370185017585753950e+00 -4.561279296875000000e+00 -7.543269991874694824e-01 9.000000000000000000e+00
1.949183821678162065e+00 -6.496967792510986328e+00 -8.328551054000854492e-01 3.000000000000000000e+00
2.793485164642333984e+00 -9.317078590393066406e+00 -8.509886860847473145e-01 1.000000000000000000e+00
7.544937133789063388e+00 -2.519651031494140980e+01 -1.378424406051635964e+00 1.200000000000000000e+01
7.735171318054199219e-01 -2.599682569503784180e+00 -7.267639040946960449e-01 1.100000000000000000e+01
8.052847862243652344e+00 -2.708178329467773082e+01 4.931701123714447021e-01 1.800000000000000000e+01
9.014863967895507812e-01 -3.033643007278441939e+00 -7.306410074234008789e-01 9.000000000000000000e+00
8.081924438476562500e+00 -2.721433639526366832e+01 1.487806558609009011e+00 1.400000000000000000e+01
1.083164453506469949e+00 -3.647349596023560014e+00 -7.395756840705871582e-01 1.200000000000000000e+01
8.055780410766601562e+00 -2.714365959167480113e+01 2.477140426635742188e+00 2.500000000000000000e+01
1.354816555976867898e+00 -4.567927837371826172e+00 -7.546398639678955078e-01 9.000000000000000000e+00
1.916908740997314009e+00 -6.471375465393066406e+00 -8.287115097045898438e-01 3.000000000000000000e+00
2.619561433792113814e+00 -8.849163055419921875e+00 -8.074107766151428223e-01 1.000000000000000000e+00
7.471661567687988281e+00 -2.527249145507812855e+01 -1.381145834922790971e+00 1.200000000000000000e+01
1.667554092407226918e+01 -5.647661972045897727e+01 -1.027876973152161089e+00 1.500000000000000000e+01
7.633488774299621582e-01 -2.598659753799438032e+00 -7.257286310195922852e-01 1.100000000000000000e+01
8.925372362136840820e-01 -3.042381048202515093e+00 -7.319907546043395996e-01 9.000000000000000000e+00
8.014974594116210938e+00 -2.733821105957030895e+01 1.493040204048156960e+00 1.400000000000000000e+01
1.070426225662231001e+00 -3.651108264923096147e+00 -7.395756840705871582e-01 1.100000000000000000e+01
1.344969153404236062e+00 -4.593482971191406250e+00 -7.580814361572265625e-01 8.000000000000000000e+00
1.902664899826050027e+00 -6.506606578826904297e+00 -8.323675990104675293e-01 3.000000000000000000e+00
7.396827697753906250e+00 -2.534443283081055043e+01 -1.383658051490783913e+00 1.200000000000000000e+01
7.536505460739135742e-01 -2.597466230392456055e+00 -7.246932983398437500e-01 1.100000000000000000e+01
8.856976628303527832e-01 -3.056554555892943892e+00 -7.346901297569274902e-01 1.000000000000000000e+01
1.056674599647521973e+00 -3.648980617523192915e+00 -7.384307980537414551e-01 1.000000000000000000e+01
1.324241280555725098e+00 -4.578941822052001953e+00 -7.549527287483215332e-01 8.000000000000000000e+00
1.884382724761962891e+00 -6.524322986602783203e+00 -8.338300585746765137e-01 3.000000000000000000e+00
2.559267044067382812e+00 -8.866788864135742188e+00 -8.074107766151428223e-01 1.000000000000000000e+00
7.257421970367431641e+00 -2.517691040039062855e+01 -1.373190760612488015e+00 1.200000000000000000e+01
7.445791363716125488e-01 -2.600080966949462891e+00 -7.246932983398437500e-01 1.100000000000000000e+01
8.728795647621154785e-01 -3.052133083343505859e+00 -7.328905463218688965e-01 9.000000000000000000e+00
7.821021080017089844e+00 -2.736524772644042969e+01 1.491574764251708984e+00 1.400000000000000000e+01
1.047707319259643999e+00 -3.665860414505004883e+00 -7.411021590232849121e-01 9.000000000000000000e+00
1.304996728897094949e+00 -4.572139263153076172e+00 -7.530755400657653809e-01 8.000000000000000000e+00
1.863229632377624956e+00 -6.536588191986083984e+00 -8.345612883567810059e-01 1.000000000000000000e+00
2.624367237091064009e+00 -9.212912559509277344e+00 -8.380896449089050293e-01 1.000000000000000000e+00
7.153099060058593750e+00 -2.514445877075194957e+01 -1.370050668716431108e+00 1.200000000000000000e+01
7.968949317932128906e+00 -2.804952239990234020e+01 -5.089820027351379395e-01 4.000000000000000000e+00
7.366889119148254395e-01 -2.610357761383057085e+00 -7.267639040946960449e-01 1.200000000000000000e+01
7.929738998413085938e+00 -2.811673355102539062e+01 5.099244117736816406e-01 1.900000000000000000e+01
8.622111082077026367e-01 -3.059213638305664062e+00 -7.337903380393981934e-01 1.000000000000000000e+01
7.715888500213623047e+00 -2.739507675170898082e+01 1.491574764251708984e+00 1.400000000000000000e+01
1.032559275627136008e+00 -3.666076898574829102e+00 -7.403389215469360352e-01 9.000000000000000000e+00
1.292780041694640891e+00 -4.596132278442382812e+00 -7.562041878700256348e-01 8.000000000000000000e+00
1.837043642997741921e+00 -6.539872169494628906e+00 -8.340737819671630859e-01 3.000000000000000000e+00
2.709590673446654829e+00 -9.652607917785644531e+00 -8.771353960037231445e-01 1.000000000000000000e+00
7.088845729827880859e+00 -2.528712654113769887e+01 -1.376330971717834029e+00 1.200000000000000000e+01
7.280907630920410156e-01 -2.614774465560913086e+00 -7.272815108299255371e-01 1.300000000000000000e+01
8.473504781723022461e-01 -3.047184705734252930e+00 -7.301911115646362305e-01 1.000000000000000000e+01
1.020807266235352007e+00 -3.673441886901855025e+00 -7.411021590232849121e-01 9.000000000000000000e+00
1.276728749275207964e+00 -4.600616931915283203e+00 -7.562041878700256348e-01 8.000000000000000000e+00
1.812613487243651900e+00 -6.540505886077880859e+00 -8.333425521850585938e-01 3.000000000000000000e+00
2.635465383529663086e+00 -9.516078948974609375e+00 -8.638877272605895996e-01 1.000000000000000000e+00
6.984562397003173828e+00 -2.525396728515625000e+01 -1.373190760612488015e+00 1.200000000000000000e+01
7.183355093002319336e-01 -2.611460924148560014e+00 -7.257286310195922852e-01 1.100000000000000000e+01
8.398380279541015625e-01 -3.057348251342772993e+00 -7.319907546043395996e-01 9.000000000000000000e+00
1.007182955741882102e+00 -3.669057846069335938e+00 -7.395756840705871582e-01 9.000000000000000000e+00
1.264358162879944070e+00 -4.612225532531738281e+00 -7.574557065963745117e-01 9.000000000000000000e+00
7.617033004760742188e+00 -2.780504608154296875e+01 3.539816856384276900e+00 1.400000000000000000e+01
1.795201897621155007e+00 -6.557655811309813565e+00 -8.348050117492675781e-01 3.000000000000000000e+00
7.672459602355957031e+00 -2.802656936645508168e+01 4.602302074432373047e+00 1.200000000000000000e+01
2.606082677841186968e+00 -9.526233673095703125e+00 -8.640620112419128418e-01 5.000000000000000000e+00
6.898873805999755859e+00 -2.525266647338866832e+01 -1.371934771537780984e+00 1.200000000000000000e+01
7.097213268280029297e-01 -2.615816831588745117e+00 -7.262462377548217773e-01 1.300000000000000000e+01
8.322185277938842773e-01 -3.071546554565430132e+00 -7.346901297569274902e-01 9.000000000000000000e+00
9.953956007957458496e-01 -3.676341295242310014e+00 -7.403389215469360352e-01 9.000000000000000000e+00
1.248250842094420943e+00 -4.616610527038574219e+00 -7.574557065963745117e-01 8.000000000000000000e+00
1.775922656059264915e+00 -6.577297687530517578e+00 -8.365111947059631348e-01 3.000000000000000000e+00
7.552955150604248047e+00 -2.797308349609375000e+01 4.589161396026611328e+00 1.200000000000000000e+01
2.567104578018188032e+00 -9.514112472534179688e+00 -8.621445894241333008e-01 3.000000000000000000e+00
6.823154449462890625e+00 -2.532287788391112926e+01 -1.374446868896483931e+00 1.200000000000000000e+01
6.996721029281616211e-01 -2.618522644042969194e+00 -7.262462377548217773e-01 1.300000000000000000e+01
8.204185366630554199e-01 -3.074719429016112837e+00 -7.346901297569274902e-01 9.000000000000000000e+00
9.832954406738281250e-01 -3.687724113464355025e+00 -7.418653964996337891e-01 9.000000000000000000e+00
1.233564734458922896e+00 -4.632822990417479581e+00 -7.593328952789306641e-01 8.000000000000000000e+00
7.551846504211425781e+00 -2.838192558288573863e+01 3.606113910675048828e+00 1.400000000000000000e+01
1.753205180168152078e+00 -6.593660354614257812e+00 -8.377298712730407715e-01 1.000000000000000000e+00
2.382179737091064009e+00 -8.965482711791992188e+00 -8.115942478179931641e-01 1.000000000000000000e+00
6.729969501495361328e+00 -2.536433219909667969e+01 -1.375284314155579057e+00 1.200000000000000000e+01
6.900352835655212402e-01 -2.619081020355225053e+00 -7.257286310195922852e-01 1.200000000000000000e+01
8.086891174316406250e-01 -3.073795318603516069e+00 -7.337903380393981934e-01 9.000000000000000000e+00
9.734119772911071777e-01 -3.702526569366455078e+00 -7.441551089286804199e-01 9.000000000000000000e+00
7.447551250457763672e+00 -2.834805870056151988e+01 2.564296245574951172e+00 2.600000000000000000e+01
1.217385649681091087e+00 -4.637100696563720703e+00 -7.593328952789306641e-01 8.000000000000000000e+00
7.423512458801270419e+00 -2.829674530029296875e+01 3.591977119445800781e+00 1.400000000000000000e+01
1.732191920280456987e+00 -6.607420921325683594e+00 -8.387048244476318359e-01 3.000000000000000000e+00
7.392868518829345703e+00 -2.822006797790526988e+01 4.620448589324951172e+00 1.200000000000000000e+01
2.335722446441649947e+00 -8.915923118591308594e+00 -8.063649535179138184e-01 1.000000000000000000e+00
6.631280899047851562e+00 -2.534902572631835938e+01 -1.373190760612488015e+00 1.200000000000000000e+01
6.827764511108398438e-01 -2.624975204467772993e+00 -7.267639040946960449e-01 1.100000000000000000e+01
7.980487346649169922e-01 -3.072548389434814009e+00 -7.328905463218688965e-01 9.000000000000000000e+00
9.568431973457336426e-01 -3.686563253402709961e+00 -7.403389215469360352e-01 9.000000000000000000e+00
1.208758950233459029e+00 -4.663848400115966797e+00 -7.630873322486877441e-01 8.000000000000000000e+00
7.352496147155761719e+00 -2.838910865783691051e+01 3.600751638412476030e+00 1.400000000000000000e+01
1.707446575164794922e+00 -6.597455978393554688e+00 -8.367549180984497070e-01 3.000000000000000000e+00
7.275489807128906250e+00 -2.813223266601562855e+01 4.602302074432373047e+00 1.200000000000000000e+01
2.306703090667725053e+00 -8.919359207153320312e+00 -8.060163259506225586e-01 3.000000000000000000e+00
6.551611900329589844e+00 -2.536973381042480113e+01 -1.373190760612488015e+00 1.200000000000000000e+01
6.755285263061523438e-01 -2.634827852249145952e+00 -7.288344502449035645e-01 1.200000000000000000e+01
7.882853150367736816e-01 -3.079091072082519975e+00 -7.337903380393981934e-01 9.000000000000000000e+00
9.439688324928283691e-01 -3.689880847930908203e+00 -7.403389215469360352e-01 9.000000000000000000e+00
1.190515995025634988e+00 -4.660383701324462891e+00 -7.618358731269836426e-01 8.000000000000000000e+00
7.231751441955566406e+00 -2.832997131347655895e+01 3.590027093887329102e+00 1.400000000000000000e+01
1.687350749969481978e+00 -6.614916801452636719e+00 -8.382173180580139160e-01 3.000000000000000000e+00
7.229940414428710938e+00 -2.836418724060058949e+01 4.636091709136962891e+00 1.200000000000000000e+01
2.279491662979125977e+00 -8.942801475524902344e+00 -8.074107766151428223e-01 6.000000000000000000e+00
6.472867965698242188e+00 -2.543115997314453125e+01 -1.375284314155579057e+00 1.200000000000000000e+01
6.620679497718811035e-01 -2.620312929153441939e+00 -7.241756916046142578e-01 1.200000000000000000e+01
7.813462615013122559e-01 -3.096940279006958008e+00 -7.373895645141601562e-01 9.000000000000000000e+00
9.349225163459777832e-01 -3.708383083343505859e+00 -7.433918714523315430e-01 1.000000000000000000e+01
1.175205469131469949e+00 -4.668342590332031250e+00 -7.624616026878356934e-01 8.000000000000000000e+00
7.147345542907714844e+00 -2.841279602050780895e+01 3.597339391708374023e+00 1.400000000000000000e+01
1.666185855865478960e+00 -6.628467082977294922e+00 -8.391922712326049805e-01 1.000000000000000000e+00
7.092500686645507812e+00 -2.821558570861816051e+01 4.607933521270751953e+00 1.200000000000000000e+01
2.258939743041992188e+00 -8.993216514587402344e+00 -8.112456798553466797e-01 6.000000000000000000e+00
6.374339580535888672e+00 -2.541485404968262074e+01 -1.373190760612488015e+00 1.200000000000000000e+01
6.533840298652648926e-01 -2.624482631683350053e+00 -7.246932983398437500e-01 1.100000000000000000e+01
7.677103877067565918e-01 -3.088301658630371094e+00 -7.346901297569274902e-01 9.000000000000000000e+00
9.210255742073059082e-01 -3.707813262939453125e+00 -7.426286339759826660e-01 1.000000000000000000e+01
7.051355361938476562e+00 -2.840814208984375000e+01 2.560810089111328125e+00 2.600000000000000000e+01
1.157000541687011941e+00 -4.664747238159179688e+00 -7.612100839614868164e-01 8.000000000000000000e+00
1.654491066932678001e+00 -6.680488109588623047e+00 -8.450420498847961426e-01 1.000000000000000000e+00
7.055473804473876953e+00 -2.850984573364258168e+01 4.651735305786132812e+00 1.200000000000000000e+01
2.245721578598022017e+00 -9.074540138244628906e+00 -8.178694844245910645e-01 3.000000000000000000e+00
6.293252468109130859e+00 -2.546797180175780895e+01 -1.374865531921386941e+00 1.200000000000000000e+01
6.469798088073730469e-01 -2.638004779815673828e+00 -7.277991771697998047e-01 1.200000000000000000e+01
7.550714612007141113e-01 -3.083391427993773970e+00 -7.328905463218688965e-01 9.000000000000000000e+00
9.080772995948791504e-01 -3.711005687713623047e+00 -7.426286339759826660e-01 9.000000000000000000e+00
6.961614131927490234e+00 -2.847129058837890980e+01 2.564296245574951172e+00 2.600000000000000000e+01
1.143054723739624023e+00 -4.678351879119873047e+00 -7.627744674682617188e-01 8.000000000000000000e+00
1.622693061828613059e+00 -6.651508808135986328e+00 -8.406547307968139648e-01 1.000000000000000000e+00
2.242344379425048828e+00 -9.198466300964355469e+00 -8.283281922340393066e-01 3.000000000000000000e+00
6.208093166351318359e+00 -2.550531005859375000e+01 -1.375702977180480957e+00 1.200000000000000000e+01
6.395819187164306641e-01 -2.647758483886719194e+00 -7.298697233200073242e-01 1.100000000000000000e+01
7.465883493423461914e-01 -3.095480442047119141e+00 -7.351400256156921387e-01 1.000000000000000000e+01
