-2.628393650054932085e+00 1.920173168182373047e+00 -6.327226161956787109e-01 1.000000000000000000e+01
-3.151050567626953125e+00 2.303687810897827148e+00 -6.182290315628051758e-01 9.000000000000000000e+00
-3.300257110595703125e+01 2.413654327392578125e+01 5.020285606384277344e+00 2.400000000000000000e+01
-4.026065349578857422e+00 2.945555448532104048e+00 -6.125153303146362305e-01 9.000000000000000000e+00
-3.309567642211914062e+01 2.422237396240234020e+01 6.495784759521484375e+00 1.400000000000000000e+01
-5.559700489044188565e+00 4.069085597991943359e+00 -6.027691364288330078e-01 2.000000000000000000e+00
-8.638162612915039062e+00 6.326811313629150391e+00 -5.611461400985717773e-01 2.000000000000000000e+00
-1.928546309471129927e+00 1.417694807052612083e+00 -6.413536071777343750e-01 1.900000000000000000e+01
-2.216471433639525923e+00 1.630543708801269975e+00 -6.352617740631103516e-01 1.400000000000000000e+01
-2.609025001525878906e+00 1.920027136802672896e+00 -6.296696662902832031e-01 1.100000000000000000e+01
-3.150943040847777876e+00 2.320529937744141069e+00 -6.197933554649353027e-01 8.000000000000000000e+00
-3.302999114990233664e+01 2.433401679992676137e+01 5.037347316741943359e+00 2.500000000000000000e+01
-4.012563228607177734e+00 2.957235813140869141e+00 -6.120278239250183105e-01 9.000000000000000000e+00
-5.531029701232910156e+00 4.077826976776123047e+00 -6.012003421783447266e-01 3.000000000000000000e+00
-8.580667495727539062e+00 6.330838680267333984e+00 -5.588433146476745605e-01 2.000000000000000000e+00
-1.909613132476807085e+00 1.414071202278136985e+00 -6.366948485374450684e-01 1.800000000000000000e+01
-2.210766315460205078e+00 1.638270735740662065e+00 -6.352617740631103516e-01 1.400000000000000000e+01
-2.603884220123291016e+00 1.930291771888732910e+00 -6.300513148307800293e-01 1.000000000000000000e+01
-3.136477708816527876e+00 2.326806783676147017e+00 -6.185418963432312012e-01 8.000000000000000000e+00
-3.318395996093750000e+01 2.462661552429198863e+01 5.073908329010009766e+00 2.600000000000000000e+01
-4.021342277526854581e+00 2.985423564910889116e+00 -6.149526834487915039e-01 9.000000000000000000e+00
-5.502366065979003906e+00 4.086417675018311435e+00 -5.996314883232116699e-01 3.000000000000000000e+00
-8.539280891418457031e+00 6.346455574035645419e+00 -5.575872659683227539e-01 2.000000000000000000e+00
-1.908010840415955034e+00 1.422705531120300071e+00 -6.377301216125488281e-01 1.800000000000000000e+01
-2.197512149810791016e+00 1.639765739440917969e+00 -6.330122947692871094e-01 1.200000000000000000e+01
-2.597468852996826172e+00 1.938915967941283958e+00 -6.300513148307800293e-01 1.000000000000000000e+01
-3.122414112091064009e+00 2.332466125488280806e+00 -6.172903776168823242e-01 8.000000000000000000e+00
-4.001880645751953125e+00 2.991611003875731978e+00 -6.134902834892272949e-01 9.000000000000000000e+00
-5.491975784301757812e+00 4.107028007507324219e+00 -5.999801158905029297e-01 2.000000000000000000e+00
-8.537376403808593750e+00 6.389098167419433594e+00 -5.588433146476745605e-01 2.000000000000000000e+00
-1.906122326850890891e+00 1.431677460670470969e+00 -6.387653946876525879e-01 1.800000000000000000e+01
-2.187101602554320845e+00 1.643913865089416948e+00 -6.316625475883483887e-01 1.400000000000000000e+01
-2.604807376861571822e+00 1.958589792251586914e+00 -6.334858536720275879e-01 1.300000000000000000e+01
-3.117410182952880859e+00 2.345726728439331055e+00 -6.179161071777343750e-01 8.000000000000000000e+00
-3.227966308593750000e+01 2.429798316955566051e+01 4.960813522338867188e+00 2.300000000000000000e+01
-3.985070466995238814e+00 3.000785589218140093e+00 -6.125153303146362305e-01 9.000000000000000000e+00
-5.476015090942382812e+00 4.124974727630615234e+00 -5.998058319091796875e-01 3.000000000000000000e+00
-8.495883941650390625e+00 6.404433250427246094e+00 -5.575872659683227539e-01 2.000000000000000000e+00
-3.202402114868164062e+01 2.414936065673828125e+01 9.259884834289550781e+00 1.200000000000000000e+01
-1.901364326477051003e+00 1.437990546226501021e+00 -6.387653946876525879e-01 1.800000000000000000e+01
-2.181638240814208984e+00 1.651157498359679954e+00 -6.316625475883483887e-01 1.400000000000000000e+01
-2.584210872650146040e+00 1.956551313400268999e+00 -6.300513148307800293e-01 1.200000000000000000e+01
-3.115912199020386186e+00 2.360823154449462891e+00 -6.191676259040832520e-01 8.000000000000000000e+00
-3.220524215698242188e+01 2.440968894958496094e+01 4.961788654327392578e+00 2.300000000000000000e+01
-3.962443113327025923e+00 3.004389286041260210e+00 -6.105654239654541016e-01 9.000000000000000000e+00
-5.433732509613037109e+00 4.121438503265380859e+00 -5.966682434082031250e-01 5.000000000000000000e+00
-8.321875572204589844e+00 6.316647529602050781e+00 -5.475387573242187500e-01 7.000000000000000000e+00
-1.890186190605164018e+00 1.439936041831969993e+00 -6.366948485374450684e-01 2.000000000000000000e+01
-2.177411079406737837e+00 1.659944176673888938e+00 -6.321124434471130371e-01 1.200000000000000000e+01
-2.571121215820312944e+00 1.960797786712646040e+00 -6.285248398780822754e-01 1.300000000000000000e+01
-3.098230600357056108e+00 2.364494800567626953e+00 -6.172903776168823242e-01 9.000000000000000000e+00
-3.967707872390747070e+00 3.030251264572143999e+00 -6.130027770996093750e-01 9.000000000000000000e+00
-3.635394668579102273e+01 2.777458953857421875e+01 7.246044635772705078e+00 1.500000000000000000e+01
-5.433561801910400391e+00 4.151267051696777344e+00 -5.982370376586914062e-01 5.000000000000000000e+00
-8.274389266967773438e+00 6.326248168945313388e+00 -5.458640456199645996e-01 1.300000000000000000e+01
-1.879017829895019975e+00 1.441821098327636941e+00 -6.346243023872375488e-01 2.000000000000000000e+01
-2.176240444183350053e+00 1.671095252037047896e+00 -6.334621906280517578e-01 1.300000000000000000e+01
-2.565818071365356001e+00 1.970956802368164062e+00 -6.289064288139343262e-01 1.300000000000000000e+01
-3.086825847625731978e+00 2.372887372970581055e+00 -6.166646480560302734e-01 8.000000000000000000e+00
-3.947665691375731978e+00 3.036820411682128906e+00 -6.115403771400451660e-01 9.000000000000000000e+00
-5.415879726409912109e+00 4.167778015136718750e+00 -5.978884100914001465e-01 5.000000000000000000e+00
-8.366189002990722656e+00 6.442832946777343750e+00 -5.534003973007202148e-01 2.000000000000000000e+00
-3.609308624267578125e+01 2.780545616149901988e+01 1.051871109008789062e+01 1.300000000000000000e+01
-1.878559112548827903e+00 1.451915383338928001e+00 -6.361772418022155762e-01 2.200000000000000000e+01
-2.168852567672729048e+00 1.677489280700684038e+00 -6.330122947692871094e-01 1.200000000000000000e+01
-2.557369709014893022e+00 1.978699684143065962e+00 -6.285248398780822754e-01 1.200000000000000000e+01
-3.069152593612670898e+00 2.376391887664794922e+00 -6.147874593734741211e-01 9.000000000000000000e+00
-3.930764436721802202e+00 3.045718431472777876e+00 -6.105654239654541016e-01 9.000000000000000000e+00
-5.361930370330811435e+00 4.156142711639404297e+00 -5.935305953025817871e-01 4.000000000000000000e+00
-8.327867507934570312e+00 6.459755897521972656e+00 -5.523536801338195801e-01 2.000000000000000000e+00
-1.878052711486815962e+00 1.462024092674254927e+00 -6.377301216125488281e-01 2.000000000000000000e+01
-2.149147987365723100e+00 1.674271225929260032e+00 -6.289631724357604980e-01 1.400000000000000000e+01
-2.561286926269530806e+00 1.996062278747559038e+00 -6.311961412429809570e-01 1.300000000000000000e+01
-3.068627119064331055e+00 2.393164873123168945e+00 -6.163517832756042480e-01 9.000000000000000000e+00
-3.923238754272460938e+00 3.061863422393798828e+00 -6.110528707504272461e-01 9.000000000000000000e+00
-5.361524105072020596e+00 4.185868740081787109e+00 -5.950993895530700684e-01 2.000000000000000000e+00
-8.289528846740722656e+00 6.476490020751953125e+00 -5.513069629669189453e-01 2.000000000000000000e+00
-1.877498507499695046e+00 1.472146868705749956e+00 -6.392830610275268555e-01 2.100000000000000000e+01
-2.150956153869628906e+00 1.687777876853943093e+00 -6.312126517295837402e-01 1.200000000000000000e+01
-2.538860559463500977e+00 1.992868542671204057e+00 -6.273799538612365723e-01 1.400000000000000000e+01
-3.060254812240601030e+00 2.403861761093140093e+00 -6.163517832756042480e-01 9.000000000000000000e+00
-3.900041818618773970e+00 3.065725088119506836e+00 -6.091029644012451172e-01 9.000000000000000000e+00
-3.519104385375977273e+01 2.766279602050780895e+01 7.089610099792479581e+00 1.500000000000000000e+01
-5.371938705444335938e+00 4.224263668060302734e+00 -5.978884100914001465e-01 3.000000000000000000e+00
-8.241758346557617188e+00 6.485624313354492188e+00 -5.496321916580200195e-01 2.000000000000000000e+00
-3.557178497314453125e+01 2.800228691101073863e+01 1.045167541503906072e+01 1.300000000000000000e+01
-1.864768028259276900e+00 1.472705006599426047e+00 -6.366948485374450684e-01 1.700000000000000000e+01
-2.145051717758179155e+00 1.695275783538817915e+00 -6.312126517295837402e-01 1.300000000000000000e+01
-2.531888723373413086e+00 2.001718759536743164e+00 -6.273799538612365723e-01 1.300000000000000000e+01
-3.056492567062377930e+00 2.418206214904785156e+00 -6.172903776168823242e-01 9.000000000000000000e+00
-3.895542144775391069e+00 3.084249019622803178e+00 -6.100779175758361816e-01 9.000000000000000000e+00
-5.332170963287354404e+00 4.223196983337402344e+00 -5.950993895530700684e-01 2.000000000000000000e+00
-8.228460311889648438e+00 6.521797657012938565e+00 -5.502602458000183105e-01 2.000000000000000000e+00
-3.539747238159179688e+01 2.806575012207030895e+01 1.042918109893799006e+01 1.300000000000000000e+01
-1.856592178344727007e+00 1.476800084114074929e+00 -6.356595754623413086e-01 1.800000000000000000e+01
-2.145219564437866211e+00 1.707607746124268022e+00 -6.330122947692871094e-01 1.300000000000000000e+01
-2.515671014785767046e+00 2.003206729888916016e+00 -6.250902414321899414e-01 1.300000000000000000e+01
-3.043398141860961914e+00 2.425167560577393022e+00 -6.163517832756042480e-01 9.000000000000000000e+00
-3.878544330596923828e+00 3.092877626419066939e+00 -6.091029644012451172e-01 8.000000000000000000e+00
-3.504160690307617188e+01 2.795332717895508168e+01 7.099621772766113281e+00 1.500000000000000000e+01
-5.308051586151123047e+00 4.234329223632813388e+00 -5.940535664558410645e-01 2.000000000000000000e+00
-8.202523231506347656e+00 6.547988414764404297e+00 -5.500509142875671387e-01 2.000000000000000000e+00
-1.851684689521789995e+00 1.482948660850524902e+00 -6.356595754623413086e-01 1.700000000000000000e+01
-2.136503934860229048e+00 1.712274789810181108e+00 -6.321124434471130371e-01 1.200000000000000000e+01
-2.519736766815185991e+00 2.020134210586547852e+00 -6.277616024017333984e-01 1.300000000000000000e+01
-3.026094675064086914e+00 2.427829504013061968e+00 -6.144745945930480957e-01 9.000000000000000000e+00
-3.877554178237915039e+00 3.113178968429564986e+00 -6.105654239654541016e-01 9.000000000000000000e+00
-5.284660339355468750e+00 4.244422435760498047e+00 -5.930076837539672852e-01 2.000000000000000000e+00
-8.183877944946289062e+00 6.577655315399169922e+00 -5.502602458000183105e-01 2.000000000000000000e+00
-1.848000645637511985e+00 1.490616083145142046e+00 -6.361772418022155762e-01 1.900000000000000000e+01
-2.115350246429442915e+00 1.707482099533081055e+00 -6.276134252548217773e-01 1.300000000000000000e+01
-2.506559848785399947e+00 2.023983955383300781e+00 -6.262351274490356445e-01 1.300000000000000000e+01
-3.020674467086791992e+00 2.440860748291016069e+00 -6.151003241539001465e-01 9.000000000000000000e+00
-3.851227760314940962e+00 3.114213466644287109e+00 -6.081280112266540527e-01 8.000000000000000000e+00
-5.268263339996337891e+00 4.261590480804443359e+00 -5.928333401679992676e-01 4.000000000000000000e+00
-8.114295959472656250e+00 6.568482875823974609e+00 -5.471200942993164062e-01 2.000000000000000000e+00
-1.841547727584839089e+00 1.495518207550049050e+00 -6.356595754623413086e-01 1.900000000000000000e+01
-2.114213228225708008e+00 1.718174457550049050e+00 -6.289631724357604980e-01 1.400000000000000000e+01
-2.501357793807982954e+00 2.033523321151732954e+00 -6.266167163848876953e-01 1.300000000000000000e+01
-3.012563705444335938e+00 2.450864315032958984e+00 -6.151003241539001465e-01 9.000000000000000000e+00
-3.840879440307617188e+00 3.126967430114746094e+00 -6.081280112266540527e-01 8.000000000000000000e+00
-5.255647659301757812e+00 4.280295372009277344e+00 -5.930076837539672852e-01 4.000000000000000000e+00
-8.092470169067382812e+00 6.595355033874511719e+00 -5.471200942993164062e-01 2.000000000000000000e+00
-1.836316227912903054e+00 1.501937270164489968e+00 -6.356595754623413086e-01 1.800000000000000000e+01
-2.118758916854857954e+00 1.734184145927428977e+00 -6.321124434471130371e-01 1.200000000000000000e+01
-2.479053974151610884e+00 2.029804706573485884e+00 -6.228005886077880859e-01 1.300000000000000000e+01
-3.005518198013306108e+00 2.462617158889770952e+00 -6.154131889343261719e-01 8.000000000000000000e+00
-3.829940795898437944e+00 3.140355587005614790e+00 -6.081280112266540527e-01 9.000000000000000000e+00
-5.252998352050781250e+00 4.308723449707031250e+00 -5.944021940231323242e-01 4.000000000000000000e+00
-8.038522720336914062e+00 6.598218917846679688e+00 -5.450266599655151367e-01 2.000000000000000000e+00
-1.823606848716736062e+00 1.502196669578552024e+00 -6.330713629722595215e-01 1.900000000000000000e+01
-2.108181476593018022e+00 1.737850666046143022e+00 -6.307627558708190918e-01 1.200000000000000000e+01
-2.476497411727904829e+00 2.042192935943603960e+00 -6.239454150199890137e-01 1.300000000000000000e+01
-2.992332935333251953e+00 2.469321489334106001e+00 -6.144745945930480957e-01 9.000000000000000000e+00
-3.814363718032836914e+00 3.149913311004639116e+00 -6.073967814445495605e-01 9.000000000000000000e+00
-5.191844463348388672e+00 4.288965702056884766e+00 -5.891728401184082031e-01 4.000000000000000000e+00
-7.993890762329101562e+00 6.608422756195068359e+00 -5.435612201690673828e-01 2.000000000000000000e+00
-1.822812438011168990e+00 1.512253522872925027e+00 -6.346243023872375488e-01 1.800000000000000000e+01
-2.105101108551024947e+00 1.747688651084899902e+00 -6.316625475883483887e-01 1.100000000000000000e+01
-2.470864057540893999e+00 2.052079439163208008e+00 -6.243270039558410645e-01 1.300000000000000000e+01
-2.977618455886840820e+00 2.474701166152954102e+00 -6.132230758666992188e-01 9.000000000000000000e+00
-3.436787414550781250e+01 2.857331466674805043e+01 5.487776756286621094e+00 3.700000000000000000e+01
-3.800292730331420898e+00 3.160670042037963867e+00 -6.069093346595764160e-01 9.000000000000000000e+00
-5.150804042816162109e+00 4.285399913787841797e+00 -5.862095355987548828e-01 4.000000000000000000e+00
-7.958495140075683594e+00 6.626062870025634766e+00 -5.427238941192626953e-01 2.000000000000000000e+00
-1.817257523536681907e+00 1.518924355506896973e+00 -6.346243023872375488e-01 2.000000000000000000e+01
-2.092702150344849077e+00 1.750391364097594993e+00 -6.298629641532897949e-01 1.200000000000000000e+01
-2.473866224288939986e+00 2.069940805435181108e+00 -6.269983649253845215e-01 1.200000000000000000e+01
-2.967013597488402876e+00 2.484329938888549805e+00 -6.129102110862731934e-01 9.000000000000000000e+00
-3.785639762878417969e+00 3.172027826309204102e+00 -6.064218282699584961e-01 9.000000000000000000e+00
-5.161020755767822266e+00 4.326007366180419922e+00 -5.891728401184082031e-01 5.000000000000000000e+00
-7.906611919403076172e+00 6.632083892822265625e+00 -5.408397912979125977e-01 2.000000000000000000e+00
-1.819334030151366965e+00 1.531478881835937944e+00 -6.372125148773193359e-01 2.100000000000000000e+01
-2.080617904663085938e+00 1.752663612365723100e+00 -6.280633211135864258e-01 1.200000000000000000e+01
-2.453114032745360884e+00 2.067177772521973100e+00 -6.235638260841369629e-01 1.200000000000000000e+01
-2.961343765258789062e+00 2.497218608856201172e+00 -6.135360002517700195e-01 8.000000000000000000e+00
-3.760890245437622070e+00 3.173700809478760210e+00 -6.042281985282897949e-01 9.000000000000000000e+00
-5.145888805389404297e+00 4.343996524810791016e+00 -5.891728401184082031e-01 5.000000000000000000e+00
-7.868156433105468750e+00 6.646753787994384766e+00 -5.397930741310119629e-01 2.000000000000000000e+00
-1.827368736267089844e+01 1.544793033599854049e+01 -4.176709949970244806e-01 3.000000000000000000e+00
-1.811565756797790971e+00 1.534689545631408913e+00 -6.361772418022155762e-01 2.200000000000000000e+01
-2.079560756683350053e+00 1.762971878051758035e+00 -6.294130682945251465e-01 1.200000000000000000e+01
-2.440618515014647993e+00 2.069794893264770952e+00 -6.220373511314392090e-01 1.100000000000000000e+01
-2.953484058380126953e+00 2.506509542465209961e+00 -6.135360002517700195e-01 8.000000000000000000e+00
-3.755440473556518999e+00 3.189355134963988814e+00 -6.049594283103942871e-01 9.000000000000000000e+00
-5.104884624481201172e+00 4.336921691894531250e+00 -5.860351920127868652e-01 5.000000000000000000e+00
-7.862452507019042969e+00 6.684376239776611328e+00 -5.408397912979125977e-01 2.000000000000000000e+00
-1.798849463462830034e+00 1.534734368324280007e+00 -6.335890293121337891e-01 2.300000000000000000e+01
-2.080804586410522017e+00 1.776546955108643022e+00 -6.316625475883483887e-01 1.200000000000000000e+01
-2.427407264709473100e+00 2.073201656341553178e+00 -6.205108761787414551e-01 1.100000000000000000e+01
-2.947719812393188032e+00 2.519370794296265093e+00 -6.141617298126220703e-01 8.000000000000000000e+00
-3.747301816940308061e+00 3.205025196075439009e+00 -6.054468750953674316e-01 9.000000000000000000e+00
-5.083659648895263672e+00 4.349533557891845703e+00 -5.853379964828491211e-01 4.000000000000000000e+00
-7.839071750640869141e+00 6.711780548095703125e+00 -5.408397912979125977e-01 2.000000000000000000e+00
-1.792016029357909934e+00 1.539745211601257102e+00 -6.330713629722595215e-01 2.100000000000000000e+01
-2.071635246276855025e+00 1.781258463859558105e+00 -6.307627558708190918e-01 1.200000000000000000e+01
-2.432062864303588867e+00 2.091904163360596147e+00 -6.235638260841369629e-01 1.100000000000000000e+01
-2.923936128616333008e+00 2.516758203506470171e+00 -6.110330224037170410e-01 8.000000000000000000e+00
-3.730075120925902876e+00 3.212904214859008789e+00 -6.044719219207763672e-01 9.000000000000000000e+00
-5.077501773834229404e+00 4.375055789947509766e+00 -5.863838195800781250e-01 4.000000000000000000e+00
-7.797444343566895419e+00 6.723452091217041016e+00 -5.395836830139160156e-01 2.000000000000000000e+00
-1.785169482231139915e+00 1.544726967811584029e+00 -6.325537562370300293e-01 2.300000000000000000e+01
-2.058038949966431108e+00 1.782100677490233931e+00 -6.285132169723510742e-01 1.300000000000000000e+01
-2.421777963638306108e+00 2.097810029983520952e+00 -6.228005886077880859e-01 1.200000000000000000e+01
-2.915133237838745117e+00 2.526949405670166016e+00 -6.110330224037170410e-01 8.000000000000000000e+00
-3.709840059280395952e+00 3.218100309371947798e+00 -6.030095219612121582e-01 9.000000000000000000e+00
-5.047151088714599609e+00 4.379694461822509766e+00 -5.846407413482666016e-01 4.000000000000000000e+00
-7.782976150512695312e+00 6.758486270904541016e+00 -5.402117371559143066e-01 2.000000000000000000e+00
-1.784407138824462891e+00 1.554445147514343040e+00 -6.341066360473632812e-01 2.200000000000000000e+01
-2.049180030822753906e+00 1.786354422569274902e+00 -6.276134252548217773e-01 1.300000000000000000e+01
-2.404450416564940962e+00 2.096796989440917969e+00 -6.201292276382446289e-01 1.200000000000000000e+01
-2.906737565994263139e+00 2.536602258682250977e+00 -6.110330224037170410e-01 9.000000000000000000e+00
-3.687186479568481001e+00 3.219938993453979048e+00 -6.010596156120300293e-01 9.000000000000000000e+00
-5.029598712921142578e+00 4.393785953521729404e+00 -5.842921137809753418e-01 4.000000000000000000e+00
-7.721425533294677734e+00 6.750081062316895419e+00 -5.374902486801147461e-01 2.000000000000000000e+00
-1.755803298950194957e+01 1.536007404327392933e+01 -4.071995615959166925e-01 3.000000000000000000e+00
-1.776065826416016069e+00 1.558116436004638894e+00 -6.330713629722595215e-01 2.200000000000000000e+01
-2.048789978027344194e+00 1.798639178276062012e+00 -6.294130682945251465e-01 1.300000000000000000e+01
-2.391216039657593218e+00 2.099995374679564986e+00 -6.186027526855468750e-01 1.200000000000000000e+01
-2.900833129882812944e+00 2.549341201782227007e+00 -6.116587519645690918e-01 8.000000000000000000e+00
-3.678905487060546875e+00 3.235412120819091797e+00 -6.015470623970031738e-01 1.100000000000000000e+01
-4.984313011169433594e+00 4.384994983673095703e+00 -5.808058977127075195e-01 5.000000000000000000e+00
-7.685823440551757812e+00 6.766434669494628906e+00 -5.366529226303100586e-01 2.000000000000000000e+00
-1.764825105667114036e+00 1.559190273284912109e+00 -6.310008168220520020e-01 2.200000000000000000e+01
-2.045418977737427202e+00 1.808361411094665971e+00 -6.303128600120544434e-01 1.200000000000000000e+01
-2.385341882705688032e+00 2.109630107879639116e+00 -6.189844012260437012e-01 1.200000000000000000e+01
-2.896354198455810991e+00 2.563379049301147017e+00 -6.125973463058471680e-01 9.000000000000000000e+00
-3.676505804061890093e+00 3.256130933761597124e+00 -6.030095219612121582e-01 9.000000000000000000e+00
-4.968976497650145596e+00 4.402367115020751953e+00 -5.808058977127075195e-01 6.000000000000000000e+00
-7.677102088928222656e+00 6.806471824645996094e+00 -5.376996397972106934e-01 2.000000000000000000e+00
-1.762258410453795943e+00 1.567909359931946023e+00 -6.320360898971557617e-01 2.100000000000000000e+01
-2.034727811813354048e+00 1.811602711677551047e+00 -6.289631724357604980e-01 1.400000000000000000e+01
-2.382361412048339844e+00 2.121860980987548828e+00 -6.201292276382446289e-01 1.200000000000000000e+01
-2.877066135406494141e+00 2.564273357391356978e+00 -6.104072928428649902e-01 8.000000000000000000e+00
-3.679931879043579102e+00 3.282157659530640093e+00 -6.054468750953674316e-01 9.000000000000000000e+00
-4.955065727233886719e+00 4.421011447906494141e+00 -5.809801816940307617e-01 5.000000000000000000e+00
-7.653296470642089844e+00 6.833228588104248047e+00 -5.376996397972106934e-01 2.000000000000000000e+00
-1.762529850006103960e+00 1.579207897186279075e+00 -6.341066360473632812e-01 2.200000000000000000e+01
-2.025489807128905806e+00 1.816092252731323020e+00 -6.280633211135864258e-01 1.300000000000000000e+01
-2.379324674606322798e+00 2.134096622467041016e+00 -6.212741136550903320e-01 1.300000000000000000e+01
-2.863687515258789062e+00 2.570342063903809038e+00 -6.094686985015869141e-01 9.000000000000000000e+00
-3.638916015625000000e+00 3.268453359603881836e+00 -6.005721092224121094e-01 9.000000000000000000e+00
-4.929228782653808594e+00 4.428959846496582031e+00 -5.797600150108337402e-01 5.000000000000000000e+00
-7.614545345306395596e+00 6.846547603607177734e+00 -5.366529226303100586e-01 2.000000000000000000e+00
-1.759875178337096946e+00 1.587938904762268066e+00 -6.351419091224670410e-01 2.100000000000000000e+01
-2.017691850662231001e+00 1.821845531463623047e+00 -6.276134252548217773e-01 1.400000000000000000e+01
-2.366033315658568892e+00 2.137125015258789062e+00 -6.197476387023925781e-01 1.200000000000000000e+01
-2.864955902099608931e+00 2.589594841003417969e+00 -6.116587519645690918e-01 9.000000000000000000e+00
-3.628957033157349077e+00 3.282467365264893022e+00 -6.008158922195434570e-01 9.000000000000000000e+00
-4.932944774627686435e+00 4.463517189025878906e+00 -5.820260643959045410e-01 5.000000000000000000e+00
-7.575795173645020419e+00 6.859680175781250000e+00 -5.356062054634094238e-01 2.000000000000000000e+00
-1.699091911315917969e+01 1.539562034606933949e+01 -4.002185761928557794e-01 3.000000000000000000e+00
-1.748879790306091087e+00 1.588570475578308105e+00 -6.330713629722595215e-01 2.100000000000000000e+01
-2.013081312179564986e+00 1.829837203025818093e+00 -6.280633211135864258e-01 1.500000000000000000e+01
-2.345860242843627930e+00 2.133072376251221147e+00 -6.163130402565002441e-01 1.200000000000000000e+01
-2.856352806091309038e+00 2.599081039428710938e+00 -6.116587519645690918e-01 9.000000000000000000e+00
-3.619519710540771040e+00 3.295819759368896040e+00 -6.010596156120300293e-01 9.000000000000000000e+00
-4.898968219757080078e+00 4.462409019470214844e+00 -5.797600150108337402e-01 5.000000000000000000e+00
-7.532341003417968750e+00 6.865928173065186435e+00 -5.341407656669616699e-01 2.000000000000000000e+00
-1.734771251678467019e+00 1.586842179298401101e+00 -6.299655437469482422e-01 2.100000000000000000e+01
-2.012431621551514116e+00 1.842116236686706987e+00 -6.298629641532897949e-01 1.500000000000000000e+01
-2.341296195983887163e+00 2.143899679183959961e+00 -6.170762777328491211e-01 1.200000000000000000e+01
-2.839980840682982954e+00 2.602363109588623047e+00 -6.100944280624389648e-01 9.000000000000000000e+00
-3.607993125915526900e+00 3.308434247970581055e+00 -6.010596156120300293e-01 9.000000000000000000e+00
-4.862806320190429688e+00 4.460627079010009766e+00 -5.773196220397949219e-01 4.000000000000000000e+00
-7.520099163055419922e+00 6.902984142303466797e+00 -5.349781513214111328e-01 2.000000000000000000e+00
-1.732063293457031028e+00 1.595505714416503906e+00 -6.310008168220520020e-01 2.100000000000000000e+01
-1.998824834823607954e+00 1.842525601387023926e+00 -6.276134252548217773e-01 1.400000000000000000e+01
-2.335241556167602983e+00 2.153390169143677202e+00 -6.174579262733459473e-01 1.100000000000000000e+01
-2.819265842437744141e+00 2.601543664932250977e+00 -6.075914502143859863e-01 9.000000000000000000e+00
-3.608089685440063032e+00 3.331782102584838867e+00 -6.030095219612121582e-01 9.000000000000000000e+00
-4.838424682617188388e+00 4.469462871551513672e+00 -5.762737989425659180e-01 5.000000000000000000e+00
-7.484224796295166016e+00 6.918345928192138672e+00 -5.341407656669616699e-01 2.000000000000000000e+00
-1.668469047546387074e+01 1.543397331237792969e+01 -3.967280983924865723e-01 3.000000000000000000e+00
-1.730732321739196999e+00 1.605483531951904075e+00 -6.325537562370300293e-01 2.000000000000000000e+01
-1.989524602890015093e+00 1.846840023994446023e+00 -6.267136335372924805e-01 1.400000000000000000e+01
-2.333465099334716797e+00 2.166872262954711914e+00 -6.189844012260437012e-01 1.200000000000000000e+01
-2.813061714172362837e+00 2.614058256149291992e+00 -6.082171797752380371e-01 9.000000000000000000e+00
-3.574632406234741211e+00 3.324079275131226030e+00 -5.993534326553344727e-01 8.000000000000000000e+00
-4.837381839752197266e+00 4.499895095825195312e+00 -5.780168771743774414e-01 5.000000000000000000e+00
-7.422020435333251953e+00 6.909046649932861328e+00 -5.314192771911621094e-01 2.000000000000000000e+00
-1.663071441650390980e+01 1.549211978912354049e+01 -3.967280983924865723e-01 3.000000000000000000e+00
-1.728504419326782005e+00 1.613549351692199929e+00 -6.335890293121337891e-01 1.700000000000000000e+01
-1.976592421531677024e+00 1.846429705619812012e+00 -6.244641542434692383e-01 1.500000000000000000e+01
-2.320908546447753906e+00 2.168830394744873047e+00 -6.174579262733459473e-01 1.100000000000000000e+01
-2.804835557937622070e+00 2.622882843017578125e+00 -6.082171797752380371e-01 9.000000000000000000e+00
-3.568520069122314009e+00 3.339362144470214844e+00 -6.000846624374389648e-01 9.000000000000000000e+00
-4.814494132995604581e+00 4.506900310516357422e+00 -5.769709944725036621e-01 5.000000000000000000e+00
-7.379871845245361328e+00 6.913213253021240234e+00 -5.299538969993591309e-01 2.000000000000000000e+00
-1.720046401023864968e+00 1.616926789283751997e+00 -6.325537562370300293e-01 2.000000000000000000e+01
-1.975812792778014915e+00 1.858659029006958008e+00 -6.262637376785278320e-01 1.500000000000000000e+01
-2.309034347534180132e+00 2.172882556915283203e+00 -6.163130402565002441e-01 1.000000000000000000e+01
-2.804291486740111861e+00 2.640783071517943892e+00 -6.100944280624389648e-01 9.000000000000000000e+00
-3.546728849411011186e+00 3.342268228530883789e+00 -5.983784794807434082e-01 9.000000000000000000e+00
-4.801632404327392578e+00 4.526412010192871094e+00 -5.773196220397949219e-01 5.000000000000000000e+00
-7.376034736633300781e+00 6.958118915557861328e+00 -5.314192771911621094e-01 2.000000000000000000e+00
-1.708780050277709961e+00 1.617608666419982910e+00 -6.304832100868225098e-01 1.700000000000000000e+01
-1.970727562904357910e+00 1.866884827613831010e+00 -6.267136335372924805e-01 1.400000000000000000e+01
-2.297160387039185014e+00 2.176877975463867188e+00 -6.151682138442993164e-01 1.100000000000000000e+01
-2.780722618103026900e+00 2.636963129043579102e+00 -6.069657206535339355e-01 9.000000000000000000e+00
-3.530720710754394975e+00 3.350528955459595171e+00 -5.976472496986389160e-01 9.000000000000000000e+00
-4.777132987976074219e+00 4.534914970397949219e+00 -5.762737989425659180e-01 5.000000000000000000e+00
-7.343013286590576172e+00 6.975570201873779297e+00 -5.307912826538085938e-01 2.000000000000000000e+00
-1.701724886894226074e+00 1.622230529785156028e+00 -6.299655437469482422e-01 1.600000000000000000e+01
-1.965608954429626021e+00 1.875097632408142090e+00 -6.271635293960571289e-01 1.300000000000000000e+01
-2.300910234451293945e+00 2.195726394653319868e+00 -6.182211637496948242e-01 1.100000000000000000e+01
-2.761500597000122070e+00 2.637103796005249023e+00 -6.047756671905517578e-01 8.000000000000000000e+00
-3.527614831924438032e+00 3.371061801910399947e+00 -5.991097092628479004e-01 9.000000000000000000e+00
-4.739671230316162109e+00 4.530910968780517578e+00 -5.736591219902038574e-01 4.000000000000000000e+00
-7.275322437286376953e+00 6.959740638732910156e+00 -5.276511311531066895e-01 2.000000000000000000e+00
-1.694658160209655984e+00 1.626822948455810991e+00 -6.294479370117187500e-01 1.600000000000000000e+01
-1.956241011619568093e+00 1.879247426986693892e+00 -6.262637376785278320e-01 9.000000000000000000e+00
-2.290400505065917969e+00 2.201024055480957031e+00 -6.174579262733459473e-01 1.100000000000000000e+01
-2.752278566360474077e+00 2.646727085113524947e+00 -6.047756671905517578e-01 8.000000000000000000e+00
-3.504383087158203125e+00 3.372343301773070845e+00 -5.971598029136657715e-01 9.000000000000000000e+00
-4.733874320983886719e+00 4.557100296020507812e+00 -5.748792886734008789e-01 4.000000000000000000e+00
-7.253860950469970703e+00 6.987865447998046875e+00 -5.278604626655578613e-01 2.000000000000000000e+00
-1.700080871582031028e+00 1.643470168113708052e+00 -6.335890293121337891e-01 1.700000000000000000e+01
-1.941265463829040971e+00 1.877934932708740012e+00 -6.235643029212951660e-01 7.000000000000000000e+00
-2.267184734344481978e+00 2.193987607955933061e+00 -6.132600903511047363e-01 1.000000000000000000e+01
-2.748699188232421875e+00 2.661814928054810014e+00 -6.060271263122558594e-01 8.000000000000000000e+00
-3.481185674667357954e+00 3.373503684997559038e+00 -5.952098965644836426e-01 9.000000000000000000e+00
-4.717937946319580078e+00 4.573596954345703125e+00 -5.748792886734008789e-01 4.000000000000000000e+00
-7.206487655639648438e+00 6.990892887115479404e+00 -5.261856913566589355e-01 2.000000000000000000e+00
-1.688509702682494895e+00 1.644299030303955078e+00 -6.315184831619262695e-01 1.700000000000000000e+01
-1.948325991630553977e+00 1.898638010025023970e+00 -6.280633211135864258e-01 7.000000000000000000e+00
-2.260533809661864790e+00 2.203653097152709961e+00 -6.136417388916015625e-01 1.100000000000000000e+01
-2.738924741744995117e+00 2.671871662139893022e+00 -6.060271263122558594e-01 8.000000000000000000e+00
-3.474479675292969194e+00 3.391786813735961914e+00 -5.961848497390747070e-01 9.000000000000000000e+00
-4.692590713500976562e+00 4.582506179809570312e+00 -5.738334059715270996e-01 4.000000000000000000e+00
-7.169388771057128906e+00 7.006091594696044922e+00 -5.253483057022094727e-01 2.000000000000000000e+00
-1.674483895301819070e+00 1.642067432403564009e+00 -6.284126639366149902e-01 1.800000000000000000e+01
-1.945859313011168990e+00 1.909522175788878950e+00 -6.294130682945251465e-01 7.000000000000000000e+00
-2.252827882766724077e+00 2.211530208587646040e+00 -6.136417388916015625e-01 1.200000000000000000e+01
-2.726763248443603960e+00 2.678647279739379883e+00 -6.054013967514038086e-01 9.000000000000000000e+00
-3.456956624984741211e+00 3.398327827453612837e+00 -5.952098965644836426e-01 9.000000000000000000e+00
-4.659519195556640625e+00 4.582094669342041016e+00 -5.717417001724243164e-01 4.000000000000000000e+00
-7.170513153076171875e+00 7.056290626525878906e+00 -5.272324085235595703e-01 2.000000000000000000e+00
-1.670116424560547097e+00 1.649259805679321067e+00 -6.289302706718444824e-01 1.900000000000000000e+01
-1.935023665428162065e+00 1.912193536758423074e+00 -6.280633211135864258e-01 9.000000000000000000e+00
-2.245094537734984907e+00 2.219380617141724077e+00 -6.136417388916015625e-01 1.100000000000000000e+01
-2.707566022872924805e+00 2.678424596786499023e+00 -6.032112836837768555e-01 9.000000000000000000e+00
-3.447894573211669922e+00 3.413167476654053178e+00 -5.956973433494567871e-01 9.000000000000000000e+00
-4.643496036529541016e+00 4.598331928253173828e+00 -5.717417001724243164e-01 4.000000000000000000e+00
-7.117465019226074219e+00 7.053160667419433594e+00 -5.251389741897583008e-01 2.000000000000000000e+00
-1.668458700180053933e+00 1.659166216850280984e+00 -6.304832100868225098e-01 1.700000000000000000e+01
-1.920049071311950906e+00 1.910688757896422896e+00 -6.253639459609985352e-01 1.200000000000000000e+01
-2.240116596221923828e+00 2.229974031448363814e+00 -6.144049763679504395e-01 1.200000000000000000e+01
-2.703798055648804155e+00 2.693435907363892046e+00 -6.044628024101257324e-01 1.000000000000000000e+01
-3.427524089813231978e+00 3.416773080825806108e+00 -5.942349433898925781e-01 9.000000000000000000e+00
-4.627416610717773438e+00 4.614512443542479581e+00 -5.717417001724243164e-01 3.000000000000000000e+00
-7.084319114685058594e+00 7.069497585296630859e+00 -5.245109796524047852e-01 2.000000000000000000e+00
-1.672796845436095969e+00 1.673965096473694070e+00 -6.341066360473632812e-01 1.900000000000000000e+01
-1.911283016204833984e+00 1.913953542709351030e+00 -6.244641542434692383e-01 1.500000000000000000e+01
-2.227551698684691939e+00 2.231442928314208984e+00 -6.128785014152526855e-01 1.200000000000000000e+01
-2.698113203048706055e+00 2.704713821411132812e+00 -6.050885319709777832e-01 9.000000000000000000e+00
-3.419576168060303178e+00 3.430335998535155806e+00 -5.947223901748657227e-01 9.000000000000000000e+00
-4.624147891998291016e+00 4.640317440032958984e+00 -5.731361508369445801e-01 2.000000000000000000e+00
-7.025432586669921875e+00 7.054922580718994141e+00 -5.217894911766052246e-01 2.000000000000000000e+00
-1.660139679908751997e+00 1.672937750816344993e+00 -6.315184831619262695e-01 1.800000000000000000e+01
-1.905962586402893066e+00 1.921997189521789995e+00 -6.249140501022338867e-01 1.400000000000000000e+01
-2.211456060409545898e+00 2.230839252471923828e+00 -6.105887889862060547e-01 1.100000000000000000e+01
-2.696996688842772993e+00 2.722535848617554155e+00 -6.069657206535339355e-01 9.000000000000000000e+00
-3.399201869964600053e+00 3.433787107467650923e+00 -5.932599902153015137e-01 9.000000000000000000e+00
-4.602316379547119141e+00 4.650765895843505859e+00 -5.724388957023620605e-01 3.000000000000000000e+00
-7.003572463989257812e+00 7.082242965698242188e+00 -5.219988226890563965e-01 2.000000000000000000e+00
-1.650221943855286089e+00 1.674594521522521973e+00 -6.299655437469482422e-01 1.900000000000000000e+01
-1.903343915939331055e+00 1.932803988456726074e+00 -6.262637376785278320e-01 1.300000000000000000e+01
-2.210541725158690962e+00 2.245540618896483931e+00 -6.124968528747558594e-01 1.200000000000000000e+01
-2.676394462585449219e+00 2.720667839050292969e+00 -6.044628024101257324e-01 9.000000000000000000e+00
-3.389978170394897017e+00 3.448462724685668945e+00 -5.937474370002746582e-01 9.000000000000000000e+00
-4.569296360015869141e+00 4.649749755859375000e+00 -5.703471899032592773e-01 4.000000000000000000e+00
-7.006795883178710938e+00 7.135147571563720703e+00 -5.240922570228576660e-01 2.000000000000000000e+00
-1.643015265464782937e+00 1.678964018821716087e+00 -6.294479370117187500e-01 1.800000000000000000e+01
-1.889773130416869895e+00 1.932469844818115012e+00 -6.240141987800598145e-01 1.300000000000000000e+01
-2.205434799194335938e+00 2.256050825119018999e+00 -6.132600903511047363e-01 1.200000000000000000e+01
-2.661359786987305132e+00 2.724341392517089844e+00 -6.032112836837768555e-01 9.000000000000000000e+00
-3.393173456192017046e+00 3.475900173187255859e+00 -5.964285731315612793e-01 9.000000000000000000e+00
-4.541905879974365234e+00 4.654263496398925781e+00 -5.689526796340942383e-01 7.000000000000000000e+00
-6.959536552429199219e+00 7.136683940887451172e+00 -5.224174857139587402e-01 2.000000000000000000e+00
-1.635798335075377974e+00 1.683303475379944070e+00 -6.289302706718444824e-01 1.600000000000000000e+01
-1.880300879478455034e+00 1.936258554458617942e+00 -6.231144070625305176e-01 1.400000000000000000e+01
-2.200281143188477007e+00 2.266552925109862837e+00 -6.140233278274536133e-01 1.200000000000000000e+01
-2.657335519790648970e+00 2.739286184310913086e+00 -6.044628024101257324e-01 9.000000000000000000e+00
-3.357530832290648970e+00 3.463493347167969194e+00 -5.922850370407104492e-01 9.000000000000000000e+00
-4.535337448120117188e+00 4.680105209350585938e+00 -5.701728463172912598e-01 6.000000000000000000e+00
-6.884563446044921875e+00 7.109282016754150391e+00 -5.186493396759033203e-01 2.000000000000000000e+00
-1.636619925498961958e+00 1.695953845977782981e+00 -6.315184831619262695e-01 1.800000000000000000e+01
-1.873530626296997070e+00 1.942810177803039995e+00 -6.231144070625305176e-01 1.400000000000000000e+01
-2.189630985260010210e+00 2.271392583847045898e+00 -6.132600903511047363e-01 1.200000000000000000e+01
-2.649127960205078125e+00 2.749967813491820845e+00 -6.047756671905517578e-01 9.000000000000000000e+00
-3.335783481597899947e+00 3.465181350708007812e+00 -5.905788540840148926e-01 8.000000000000000000e+00
-4.510684013366699219e+00 4.687294006347656250e+00 -5.691270232200622559e-01 6.000000000000000000e+00
-6.848629951477050781e+00 7.121753692626953125e+00 -5.178119540214538574e-01 2.000000000000000000e+00
-1.624302625656127930e+00 1.694398999214171919e+00 -6.289302706718444824e-01 1.900000000000000000e+01
-1.875166177749634011e+00 1.957455754280090110e+00 -6.258138418197631836e-01 1.400000000000000000e+01
-2.171223878860474077e+00 2.267297506332397017e+00 -6.102071404457092285e-01 1.100000000000000000e+01
-2.641359806060791016e+00 2.760164737701416016e+00 -6.050885319709777832e-01 9.000000000000000000e+00
-3.335249900817871094e+00 3.487701416015625000e+00 -5.925287604331970215e-01 8.000000000000000000e+00
-4.489608287811279297e+00 4.696465492248535156e+00 -5.684297680854797363e-01 6.000000000000000000e+00
-6.844290256500244141e+00 7.164643764495849609e+00 -5.192773342132568359e-01 2.000000000000000000e+00
-1.609054088592529075e+00 1.690263986587523970e+00 -6.253067851066589355e-01 1.800000000000000000e+01
-1.876380801200866921e+00 1.972460985183716042e+00 -6.285132169723510742e-01 1.300000000000000000e+01
-2.166002035140991211e+00 2.277708053588867188e+00 -6.109703779220581055e-01 1.100000000000000000e+01
-2.633069753646851030e+00 2.770799875259398970e+00 -6.054013967514038086e-01 8.000000000000000000e+00
-3.320321321487427202e+00 3.496443510055541992e+00 -5.920412540435791016e-01 8.000000000000000000e+00
-4.455354690551757812e+00 4.693323612213134766e+00 -5.661637187004089355e-01 6.000000000000000000e+00
-6.799995422363281250e+00 7.168205261230468750e+00 -5.178119540214538574e-01 2.000000000000000000e+00
-1.605798482894897017e+00 1.698678016662598100e+00 -6.263421177864074707e-01 1.700000000000000000e+01
-5.839808273315429688e+01 6.179743576049804688e+01 1.484117746353148970e+00 1.300000000000000000e+01
-1.860116720199584961e+00 1.969082474708556907e+00 -6.253639459609985352e-01 1.200000000000000000e+01
-2.160733938217163086e+00 2.288109779357910156e+00 -6.117336153984069824e-01 1.100000000000000000e+01
-2.607112884521483931e+00 2.762734174728393999e+00 -6.016469597816467285e-01 9.000000000000000000e+00
-3.314905881881713867e+00 3.515233516693114790e+00 -5.932599902153015137e-01 9.000000000000000000e+00
-4.432111740112304688e+00 4.701598167419433594e+00 -5.652921199798583984e-01 6.000000000000000000e+00
-6.761237144470214844e+00 7.177360057830811435e+00 -5.167652368545532227e-01 2.000000000000000000e+00
-1.603825807571410911e+00 1.708498358726501021e+00 -6.278949975967407227e-01 1.900000000000000000e+01
-1.850565433502197044e+00 1.972720980644226074e+00 -6.244641542434692383e-01 1.200000000000000000e+01
-2.158105611801147017e+00 2.301366567611693892e+00 -6.132600903511047363e-01 1.200000000000000000e+01
-2.598803997039794922e+00 2.773259162902832031e+00 -6.019598245620727539e-01 9.000000000000000000e+00
-3.290403366088867188e+00 3.513742446899414062e+00 -5.910663008689880371e-01 8.000000000000000000e+00
-4.414311408996582031e+00 4.715586185455322266e+00 -5.651178359985351562e-01 4.000000000000000000e+00
-6.722498416900634766e+00 7.186331748962402344e+00 -5.157185196876525879e-01 2.000000000000000000e+00
-1.605755805969238059e+00 1.722564935684204102e+00 -6.310008168220520020e-01 1.900000000000000000e+01
-1.839683294296265093e+00 1.974890828132628950e+00 -6.231144070625305176e-01 1.100000000000000000e+01
-2.139355659484862837e+00 2.297391653060913086e+00 -6.102071404457092285e-01 1.200000000000000000e+01
-2.589107513427733931e+00 2.782313823699951172e+00 -6.019598245620727539e-01 9.000000000000000000e+00
-3.270007371902465820e+00 3.516484498977661133e+00 -5.896039009094238281e-01 8.000000000000000000e+00
-4.401893615722656250e+00 4.735343933105468750e+00 -5.656407475471496582e-01 4.000000000000000000e+00
-6.719121456146240234e+00 7.233167171478270596e+00 -5.173932909965515137e-01 2.000000000000000000e+00
-1.595796227455138938e+00 1.723906517028809038e+00 -6.294479370117187500e-01 1.900000000000000000e+01
-1.827485203742980957e+00 1.975578427314758079e+00 -6.213148236274719238e-01 1.300000000000000000e+01
-2.128657579421997070e+00 2.301962614059447798e+00 -6.094439029693603516e-01 1.100000000000000000e+01
-2.587423563003540039e+00 2.800039291381835938e+00 -6.038370132446289062e-01 9.000000000000000000e+00
-3.265792846679687944e+00 3.536628007888793945e+00 -5.910663008689880371e-01 8.000000000000000000e+00
-4.389391422271729404e+00 4.755072593688964844e+00 -5.661637187004089355e-01 4.000000000000000000e+00
-6.685707092285156250e+00 7.247768878936767578e+00 -5.167652368545532227e-01 2.000000000000000000e+00
-1.576695203781127930e+00 1.715243816375731978e+00 -6.242715120315551758e-01 1.900000000000000000e+01
-1.827169537544250044e+00 1.989121198654175027e+00 -6.235643029212951660e-01 1.200000000000000000e+01
-2.119281291961669922e+00 2.307932853698730025e+00 -6.090623140335083008e-01 1.300000000000000000e+01
-2.572291612625122070e+00 2.803232192993164062e+00 -6.025855541229248047e-01 9.000000000000000000e+00
-3.250744581222534180e+00 3.545079946517943892e+00 -5.905788540840148926e-01 9.000000000000000000e+00
-4.356611251831054688e+00 4.752740859985351562e+00 -5.640719532966613770e-01 6.000000000000000000e+00
-6.646875858306884766e+00 7.256334304809570312e+00 -5.157185196876525879e-01 2.000000000000000000e+00
-1.575907826423645020e+00 1.726444363594054954e+00 -6.263421177864074707e-01 1.700000000000000000e+01
-1.822841644287108931e+00 1.998366594314574973e+00 -6.244641542434692383e-01 1.500000000000000000e+01
-2.109889268875122070e+00 2.313865661621094194e+00 -6.086806654930114746e-01 1.200000000000000000e+01
-2.554507970809936968e+00 2.803433418273925781e+00 -6.007083654403686523e-01 9.000000000000000000e+00
-3.243696212768555132e+00 3.562276601791381836e+00 -5.915538072586059570e-01 8.000000000000000000e+00
-4.329265117645263672e+00 4.756132125854492188e+00 -5.626775026321411133e-01 6.000000000000000000e+00
-6.589251995086669922e+00 7.244032859802246094e+00 -5.132063627243041992e-01 2.000000000000000000e+00
-1.394139575958251953e+01 1.533751964569091975e+01 -3.617883920669556219e-01 3.000000000000000000e+00
-1.571169257164001021e+00 1.733366131782531960e+00 -6.268597245216369629e-01 1.900000000000000000e+01
-1.808005332946776900e+00 1.996051430702209029e+00 -6.217647194862365723e-01 1.500000000000000000e+01
-2.111023902893065962e+00 2.331403732299805132e+00 -6.113520264625549316e-01 1.300000000000000000e+01
-2.547357320785522017e+00 2.815262556076049805e+00 -6.013340950012207031e-01 9.000000000000000000e+00
-3.212602615356444868e+00 3.552963733673096147e+00 -5.881414413452148438e-01 9.000000000000000000e+00
-4.328668594360351562e+00 4.788952350616455078e+00 -5.647692084312438965e-01 7.000000000000000000e+00
-6.569280624389648438e+00 7.272918224334716797e+00 -5.136250853538513184e-01 2.000000000000000000e+00
-1.567693948745727983e+00 1.741711735725403054e+00 -6.278949975967407227e-01 1.900000000000000000e+01
-1.799723625183105025e+00 2.000901460647583008e+00 -6.213148236274719238e-01 1.300000000000000000e+01
-2.096309661865233931e+00 2.331458806991577148e+00 -6.094439029693603516e-01 1.200000000000000000e+01
-2.540155172348022017e+00 2.827076196670531782e+00 -6.019598245620727539e-01 9.000000000000000000e+00
-3.194875955581665039e+00 3.558247804641724077e+00 -5.871664881706237793e-01 8.000000000000000000e+00
-4.314587593078613281e+00 4.806998252868652344e+00 -5.651178359985351562e-01 7.000000000000000000e+00
-6.514514446258544922e+00 7.263094902038574219e+00 -5.113223195075988770e-01 2.000000000000000000e+00
-1.561604619026184082e+00 1.747173309326172097e+00 -6.278949975967407227e-01 1.600000000000000000e+01
-1.797920823097229004e+00 2.012985229492187944e+00 -6.231144070625305176e-01 1.100000000000000000e+01
-2.080313205718994141e+00 2.329975366592406782e+00 -6.071542501449584961e-01 1.200000000000000000e+01
-2.531586408615111861e+00 2.837399721145629883e+00 -6.022726893424987793e-01 9.000000000000000000e+00
-3.193004369735718218e+00 3.581231832504272017e+00 -5.891163945198059082e-01 8.000000000000000000e+00
-4.285850524902343750e+00 4.808643341064453125e+00 -5.635490417480468750e-01 7.000000000000000000e+00
-6.505062580108642578e+00 7.303688049316406250e+00 -5.125783681869506836e-01 2.000000000000000000e+00
-1.546519875526428001e+00 1.742499709129333052e+00 -6.242715120315551758e-01 1.800000000000000000e+01
-1.788297057151793990e+00 2.016332864761352983e+00 -6.222146153450012207e-01 1.300000000000000000e+01
-2.079982042312622070e+00 2.346036911010742188e+00 -6.094439029693603516e-01 1.200000000000000000e+01
-2.515116930007935014e+00 2.838826656341553178e+00 -6.007083654403686523e-01 9.000000000000000000e+00
-3.177852153778076172e+00 3.589383125305175781e+00 -5.886289477348327637e-01 8.000000000000000000e+00
-4.251873493194580078e+00 4.804178714752197266e+00 -5.612829923629760742e-01 6.000000000000000000e+00
-6.471589088439941406e+00 7.317374229431152344e+00 -5.119503140449523926e-01 2.000000000000000000e+00
-1.547120809555053933e+00 1.754864096641540971e+00 -6.268597245216369629e-01 1.900000000000000000e+01
-1.780312657356261985e+00 2.020789861679077148e+00 -6.217647194862365723e-01 1.000000000000000000e+01
-2.072190761566162109e+00 2.352921485900878906e+00 -6.094439029693603516e-01 1.200000000000000000e+01
-2.496553897857666016e+00 2.836771249771118164e+00 -5.985182523727416992e-01 9.000000000000000000e+00
-3.168553829193114790e+00 3.602882862091064009e+00 -5.891163945198059082e-01 8.000000000000000000e+00
-4.237234115600585938e+00 4.819748401641845703e+00 -5.614572763442993164e-01 7.000000000000000000e+00
-6.468379497528076172e+00 7.362802028656005859e+00 -5.136250853538513184e-01 2.000000000000000000e+00
-1.539713263511657937e+00 1.758800268173217995e+00 -6.263421177864074707e-01 1.800000000000000000e+01
-5.849344253540039062e+01 6.684005737304687500e+01 1.550367116928101030e+00 6.000000000000000000e+00
-1.768115520477294922e+00 2.021125078201293945e+00 -6.199650764465332031e-01 1.400000000000000000e+01
