2.991070747375487837e+00 -1.674394488334655984e+00 -6.663050055503845215e-01 1.000000000000000000e+01
3.656927108764647993e+00 -2.048815965652465820e+00 -6.639078855514526367e-01 1.000000000000000000e+01
4.688839912414550781e+00 -2.629102468490601030e+00 -6.600443720817565918e-01 1.100000000000000000e+01
6.620529174804688388e+00 -3.713748455047606978e+00 -6.641267538070678711e-01 3.000000000000000000e+00
9.259968757629394531e+00 -5.198577404022216797e+00 -5.565405488014221191e-01 5.000000000000000000e+00
2.179342985153197798e+00 -1.228497862815856934e+00 -6.703413128852844238e-01 1.600000000000000000e+01
2.525535106658935991e+00 -1.424808621406554954e+00 -6.694543361663818359e-01 1.300000000000000000e+01
2.988627433776855025e+00 -1.686754941940308061e+00 -6.670682430267333984e-01 1.100000000000000000e+01
3.642873287200928178e+00 -2.057682514190673828e+00 -6.626563668251037598e-01 1.000000000000000000e+01
4.809239864349365234e+00 -2.718721151351929155e+00 -6.783247590065002441e-01 1.000000000000000000e+01
6.612728118896484375e+00 -3.739778280258179155e+00 -6.646496653556823730e-01 3.000000000000000000e+00
9.505965232849121094e+00 -5.380406379699707031e+00 -5.724506974220275879e-01 6.000000000000000000e+00
2.173361778259276900e+00 -1.235143184661865012e+00 -6.698237061500549316e-01 1.600000000000000000e+01
2.510382652282714844e+00 -1.427834987640381081e+00 -6.667549014091491699e-01 1.300000000000000000e+01
2.989546775817871094e+00 -1.701060652732848899e+00 -6.685947179794311523e-01 1.000000000000000000e+01
3.632235288619995117e+00 -2.068430900573730025e+00 -6.620306372642517090e-01 1.000000000000000000e+01
4.672095775604248047e+00 -2.662755250930786133e+00 -6.602880954742431641e-01 6.000000000000000000e+00
6.615211009979248047e+00 -3.771719694137572798e+00 -6.662185192108154297e-01 2.000000000000000000e+00
9.337941169738769531e+00 -5.328427791595458984e+00 -5.634489059448242188e-01 2.000000000000000000e+00
2.179312467575072798e+00 -1.248103976249695046e+00 -6.729295253753662109e-01 1.700000000000000000e+01
2.515778303146361861e+00 -1.441966176033020020e+00 -6.694543361663818359e-01 1.200000000000000000e+01
2.977076768875122070e+00 -1.707058668136596902e+00 -6.670682430267333984e-01 1.000000000000000000e+01
3.632209300994873047e+00 -2.084397315979003906e+00 -6.632821559906005859e-01 1.000000000000000000e+01
4.742424011230468750e+00 -2.723711490631103960e+00 -6.715000867843627930e-01 8.000000000000000000e+00
6.600939750671386719e+00 -3.792643308639525923e+00 -6.660441756248474121e-01 3.000000000000000000e+00
9.462196350097656250e+00 -5.441004276275634766e+00 -5.720319747924804688e-01 3.000000000000000000e+00
2.173269271850585938e+00 -1.254737615585326926e+00 -6.724118590354919434e-01 1.600000000000000000e+01
2.519166231155395952e+00 -1.455613970756530984e+00 -6.717038750648498535e-01 1.300000000000000000e+01
2.962601423263549805e+00 -1.712527632713318093e+00 -6.651601791381835938e-01 1.000000000000000000e+01
3.635170459747314009e+00 -2.102998495101929155e+00 -6.651593446731567383e-01 1.000000000000000000e+01
4.636683464050292969e+00 -2.684548854827880859e+00 -6.578507423400878906e-01 8.000000000000000000e+00
6.610073566436767578e+00 -3.828643560409545898e+00 -6.683102250099182129e-01 2.000000000000000000e+00
9.408587455749511719e+00 -5.453967094421386719e+00 -5.699385404586791992e-01 6.000000000000000000e+00
2.157188653945922852e+00 -1.255513787269592063e+00 -6.687884330749511719e-01 1.600000000000000000e+01
2.509017944335937944e+00 -1.461456060409545898e+00 -6.703541278839111328e-01 1.200000000000000000e+01
2.971872091293334961e+00 -1.731754660606384055e+00 -6.685947179794311523e-01 1.000000000000000000e+01
3.620981931686400923e+00 -2.111694335937500000e+00 -6.639078855514526367e-01 1.100000000000000000e+01
4.637571334838867188e+00 -2.706721305847167969e+00 -6.593131422996520996e-01 9.000000000000000000e+00
6.596668720245361328e+00 -3.851693630218505859e+00 -6.683102250099182129e-01 2.000000000000000000e+00
9.413634300231933594e+00 -5.500883579254150391e+00 -5.714039802551269531e-01 3.000000000000000000e+00
2.164456844329833984e+00 -1.269879221916198953e+00 -6.724118590354919434e-01 1.600000000000000000e+01
2.507262229919434038e+00 -1.472178697586060014e+00 -6.712539196014404297e-01 1.100000000000000000e+01
2.959037780761719194e+00 -1.738140344619750977e+00 -6.670682430267333984e-01 1.000000000000000000e+01
3.613588571548461914e+00 -2.124320983886719194e+00 -6.639078855514526367e-01 1.000000000000000000e+01
4.547680377960205078e+00 -2.675582170486450195e+00 -6.478574275970458984e-01 1.700000000000000000e+01
6.603788375854492188e+00 -3.886824369430541992e+00 -6.704019904136657715e-01 2.000000000000000000e+00
9.339305877685546875e+00 -5.501271724700927734e+00 -5.680544972419738770e-01 2.000000000000000000e+00
2.161673784255981001e+00 -1.278410196304321067e+00 -6.729295253753662109e-01 1.600000000000000000e+01
2.500431060791016069e+00 -1.479929208755492942e+00 -6.708040237426757812e-01 1.300000000000000000e+01
2.963088512420653853e+00 -1.754460334777832031e+00 -6.693579554557800293e-01 1.000000000000000000e+01
3.609550237655640093e+00 -2.138935804367064986e+00 -6.645336151123046875e-01 1.000000000000000000e+01
4.555387496948242188e+00 -2.701565980911254883e+00 -6.502948403358459473e-01 1.600000000000000000e+01
6.593607902526854581e+00 -3.911885261535644975e+00 -6.707506179809570312e-01 2.000000000000000000e+00
2.158857345581055132e+00 -1.286937355995178001e+00 -6.734471321105957031e-01 1.500000000000000000e+01
2.493576288223267046e+00 -1.487649798393249956e+00 -6.703541278839111328e-01 1.100000000000000000e+01
2.956946134567261186e+00 -1.764792799949645996e+00 -6.693579554557800293e-01 1.100000000000000000e+01
3.615628957748413086e+00 -2.159626245498656782e+00 -6.670365333557128906e-01 1.000000000000000000e+01
4.532298564910888672e+00 -2.709302425384521040e+00 -6.483449339866638184e-01 1.700000000000000000e+01
6.610691547393798828e+00 -3.953284025192261186e+00 -6.738882064819335938e-01 1.000000000000000000e+00
2.157663822174071822e+00 -1.296455264091491921e+00 -6.744824051856994629e-01 1.600000000000000000e+01
2.500058650970458984e+00 -1.503374814987183061e+00 -6.735034584999084473e-01 1.200000000000000000e+01
2.937309265136719194e+00 -1.767007470130919966e+00 -6.663050055503845215e-01 1.000000000000000000e+01
3.606376171112060991e+00 -2.171215057373046875e+00 -6.667236685752868652e-01 9.000000000000000000e+00
4.548317909240722656e+00 -2.740473747253417969e+00 -6.520009636878967285e-01 1.300000000000000000e+01
6.596851825714111328e+00 -3.976335525512694868e+00 -6.738882064819335938e-01 1.000000000000000000e+00
2.138253211975098100e+00 -1.294972181320189986e+00 -6.698237061500549316e-01 1.700000000000000000e+01
2.499795198440552202e+00 -1.515122771263123003e+00 -6.748531460762023926e-01 1.100000000000000000e+01
2.942874908447266069e+00 -1.784375071525573953e+00 -6.689763665199279785e-01 1.100000000000000000e+01
3.605530261993408203e+00 -2.187889575958251953e+00 -6.679751873016357422e-01 1.000000000000000000e+01
4.652404785156250000e+00 -2.825370788574219194e+00 -6.683315038681030273e-01 9.000000000000000000e+00
6.589742660522460938e+00 -4.003476619720458984e+00 -6.745854616165161133e-01 1.000000000000000000e+00
2.140315771102904829e+00 -1.306454300880431907e+00 -6.718942523002624512e-01 1.500000000000000000e+01
2.491165161132812944e+00 -1.521807670593261941e+00 -6.739533543586730957e-01 1.100000000000000000e+01
2.936628341674805132e+00 -1.794636726379394975e+00 -6.689763665199279785e-01 1.200000000000000000e+01
3.589445352554320845e+00 -2.195308446884154829e+00 -6.664108037948608398e-01 1.000000000000000000e+01
4.620503425598145419e+00 -2.828121423721313032e+00 -6.651628613471984863e-01 9.000000000000000000e+00
6.575727939605712891e+00 -4.026454448699951172e+00 -6.745854616165161133e-01 2.000000000000000000e+00
2.139033079147338867e+00 -1.315941929817199929e+00 -6.729295253753662109e-01 1.600000000000000000e+01
2.475881338119506836e+00 -1.524363994598388894e+00 -6.712539196014404297e-01 1.400000000000000000e+01
2.942047357559204102e+00 -1.812083721160888894e+00 -6.716476678848266602e-01 1.200000000000000000e+01
3.593531370162963867e+00 -2.215080499649047852e+00 -6.686009168624877930e-01 1.000000000000000000e+01
4.600466251373291016e+00 -2.837979316711425781e+00 -6.637004613876342773e-01 9.000000000000000000e+00
6.581979274749755859e+00 -4.061939716339111328e+00 -6.766771674156188965e-01 3.000000000000000000e+00
2.137710332870482954e+00 -1.325436592102051003e+00 -6.739647984504699707e-01 1.600000000000000000e+01
2.475512742996215820e+00 -1.536079525947571023e+00 -6.726036667823791504e-01 1.200000000000000000e+01
2.924027919769287109e+00 -1.815094351768494096e+00 -6.689763665199279785e-01 1.200000000000000000e+01
3.585777282714844194e+00 -2.227610588073730025e+00 -6.686009168624877930e-01 1.000000000000000000e+01
4.615819454193115234e+00 -2.869742393493651900e+00 -6.673565506935119629e-01 1.100000000000000000e+01
6.582986831665039062e+00 -4.094360828399658203e+00 -6.782459616661071777e-01 2.000000000000000000e+00
4.540319824218750000e+01 -2.828299522399901988e+01 -9.337037205696105957e-01 1.400000000000000000e+01
2.137985467910767046e+00 -1.335961699485779031e+00 -6.755176782608032227e-01 1.400000000000000000e+01
2.475092649459838867e+00 -1.547811150550842063e+00 -6.739533543586730957e-01 1.200000000000000000e+01
2.911016702651977983e+00 -1.821125149726867898e+00 -6.674498915672302246e-01 1.200000000000000000e+01
3.579653978347777876e+00 -2.241162061691284180e+00 -6.689137816429138184e-01 1.000000000000000000e+01
4.562037944793701172e+00 -2.858433246612548828e+00 -6.610193252563476562e-01 1.300000000000000000e+01
6.553461074829101562e+00 -4.107791423797607422e+00 -6.766771674156188965e-01 2.000000000000000000e+00
2.118596792221068892e+00 -1.334151506423949973e+00 -6.708589792251586914e-01 1.500000000000000000e+01
2.472971916198730025e+00 -1.558519363403320090e+00 -6.748531460762023926e-01 1.100000000000000000e+01
2.914606571197510210e+00 -1.837557673454284890e+00 -6.697395443916320801e-01 1.200000000000000000e+01
3.573479652404785156e+00 -2.254697799682617188e+00 -6.692266464233398438e-01 1.000000000000000000e+01
4.530211925506591797e+00 -2.860562324523925781e+00 -6.578507423400878906e-01 1.300000000000000000e+01
6.537397861480712891e+00 -4.129578113555908203e+00 -6.765028834342956543e-01 2.000000000000000000e+00
2.118820190429687944e+00 -1.344644069671631081e+00 -6.724118590354919434e-01 1.600000000000000000e+01
2.464226722717285156e+00 -1.565052628517151101e+00 -6.739533543586730957e-01 1.200000000000000000e+01
2.909831523895264116e+00 -1.848773121833801047e+00 -6.701211929321289062e-01 1.100000000000000000e+01
3.557252883911132812e+00 -2.261858224868773970e+00 -6.676623225212097168e-01 1.000000000000000000e+01
4.535272121429443359e+00 -2.885949611663817915e+00 -6.600443720817565918e-01 1.600000000000000000e+01
6.527985572814941406e+00 -4.155582427978515625e+00 -6.770257949829101562e-01 1.000000000000000000e+00
2.122724533081055132e+00 -1.356495261192321999e+00 -6.750000715255737305e-01 1.600000000000000000e+01
2.462581157684326172e+00 -1.574886322021483931e+00 -6.748531460762023926e-01 1.100000000000000000e+01
2.918892860412598100e+00 -1.867427825927733931e+00 -6.735557317733764648e-01 1.100000000000000000e+01
3.560111045837401900e+00 -2.279413461685181108e+00 -6.695395112037658691e-01 1.000000000000000000e+01
4.527854442596436435e+00 -2.901254177093505859e+00 -6.602880954742431641e-01 1.900000000000000000e+01
6.548445224761962891e+00 -4.197574138641357422e+00 -6.805120110511779785e-01 1.000000000000000000e+00
2.119600772857666016e+00 -1.364942550659179910e+00 -6.755176782608032227e-01 1.500000000000000000e+01
2.457068920135498047e+00 -1.583472847938538042e+00 -6.748531460762023926e-01 1.100000000000000000e+01
2.899156093597412109e+00 -1.869094848632812944e+00 -6.705027818679809570e-01 1.100000000000000000e+01
3.555452585220336914e+00 -2.293968439102172852e+00 -6.701652407646179199e-01 1.000000000000000000e+01
4.534376144409179688e+00 -2.927809715270996094e+00 -6.627255082130432129e-01 3.500000000000000000e+01
6.520364284515380859e+00 -4.211758613586425781e+00 -6.791175603866577148e-01 4.000000000000000000e+00
2.114583730697631836e+00 -1.372702121734618919e+00 -6.755176782608032227e-01 1.600000000000000000e+01
2.454516887664794922e+00 -1.594591021537780984e+00 -6.757529377937316895e-01 1.100000000000000000e+01
2.900516748428345171e+00 -1.885057449340820090e+00 -6.724109053611755371e-01 1.200000000000000000e+01
3.556956529617310014e+00 -2.313446521759033203e+00 -6.720424890518188477e-01 1.000000000000000000e+01
4.518623828887938565e+00 -2.941160678863524947e+00 -6.619942784309387207e-01 2.900000000000000000e+01
6.511562347412109375e+00 -4.239977359771729404e+00 -6.798148155212402344e-01 3.000000000000000000e+00
2.101695775985718218e+00 -1.374787449836730957e+00 -6.729295253753662109e-01 1.600000000000000000e+01
2.455457687377930132e+00 -1.607418537139893022e+00 -6.775525808334350586e-01 1.200000000000000000e+01
2.885707139968872070e+00 -1.889792799949645996e+00 -6.705027818679809570e-01 1.100000000000000000e+01
3.543902873992919922e+00 -2.322600364685059038e+00 -6.711038351058959961e-01 9.000000000000000000e+00
4.509989738464354581e+00 -2.958004474639893022e+00 -6.622380018234252930e-01 1.400000000000000000e+01
6.486727237701416016e+00 -4.256123065948486328e+00 -6.787689328193664551e-01 3.000000000000000000e+00
2.101964950561522993e+00 -1.384938001632689986e+00 -6.744824051856994629e-01 1.600000000000000000e+01
2.443606138229370117e+00 -1.611261367797852007e+00 -6.757529377937316895e-01 1.100000000000000000e+01
2.882702112197875977e+00 -1.901513814926147017e+00 -6.712660193443298340e-01 1.100000000000000000e+01
3.527938604354857954e+00 -2.328898191452025923e+00 -6.695395112037658691e-01 1.000000000000000000e+01
4.520031452178955078e+00 -2.986074209213256836e+00 -6.651628613471984863e-01 1.700000000000000000e+01
6.487537860870361328e+00 -4.287497043609619141e+00 -6.803377270698547363e-01 3.000000000000000000e+00
2.105165004730225053e+00 -1.397609353065490945e+00 -6.770706176757812500e-01 1.800000000000000000e+01
2.431474208831787109e+00 -1.615467667579651101e+00 -6.739533543586730957e-01 1.100000000000000000e+01
2.889127254486083984e+00 -1.920258522033690962e+00 -6.743189692497253418e-01 1.200000000000000000e+01
3.532945871353148970e+00 -2.349950790405272993e+00 -6.720424890518188477e-01 1.000000000000000000e+01
4.519495010375976562e+00 -3.008433818817139116e+00 -6.666253209114074707e-01 2.100000000000000000e+01
6.480823516845703125e+00 -4.315638542175292969e+00 -6.812092661857604980e-01 2.000000000000000000e+00
2.105090618133544922e+00 -1.408171534538269043e+00 -6.786235570907592773e-01 2.400000000000000000e+01
2.432297945022583008e+00 -1.628281593322753906e+00 -6.757529377937316895e-01 1.200000000000000000e+01
2.877513170242310014e+00 -1.927054524421691895e+00 -6.731741428375244141e-01 1.200000000000000000e+01
3.534566879272460938e+00 -2.368867397308350053e+00 -6.739196777343750000e-01 1.000000000000000000e+01
4.512263298034667969e+00 -3.026402950286864790e+00 -6.671127676963806152e-01 2.900000000000000000e+01
6.449174880981445312e+00 -4.327133178710938388e+00 -6.794661879539489746e-01 3.000000000000000000e+00
2.096958637237548828e+00 -1.413351655006408913e+00 -6.775882840156555176e-01 2.500000000000000000e+01
2.429830551147460938e+00 -1.638941407203674094e+00 -6.766527891159057617e-01 1.100000000000000000e+01
2.869141578674315962e+00 -1.935989022254944070e+00 -6.727924942970275879e-01 1.200000000000000000e+01
3.532824754714965820e+00 -2.385612726211547852e+00 -6.751711368560791016e-01 1.000000000000000000e+01
4.509895801544188565e+00 -3.047692537307738814e+00 -6.683315038681030273e-01 2.200000000000000000e+01
6.414224147796630859e+00 -4.336228370666503906e+00 -6.773744225502014160e-01 5.000000000000000000e+00
2.082423210144042969e+00 -1.414150953292846902e+00 -6.744824051856994629e-01 2.400000000000000000e+01
2.436988830566405806e+00 -1.656175851821898970e+00 -6.802520155906677246e-01 1.000000000000000000e+01
2.867236852645874023e+00 -1.949303746223449929e+00 -6.739373803138732910e-01 1.200000000000000000e+01
3.517943143844604048e+00 -2.393485307693481001e+00 -6.739196777343750000e-01 1.000000000000000000e+01
4.512356758117675781e+00 -3.072354316711425781e+00 -6.702814102172851562e-01 2.200000000000000000e+01
6.387521743774414062e+00 -4.350740432739257812e+00 -6.761542558670043945e-01 5.000000000000000000e+00
2.080662965774536133e+00 -1.423593163490294966e+00 -6.755176782608032227e-01 2.500000000000000000e+01
2.424761056900023970e+00 -1.660268545150757058e+00 -6.784523725509643555e-01 1.100000000000000000e+01
2.878232002258300781e+00 -1.971504449844359907e+00 -6.781351566314697266e-01 1.100000000000000000e+01
3.503049612045288086e+00 -2.401283264160155806e+00 -6.726682186126708984e-01 1.000000000000000000e+01
4.521247863769531250e+00 -3.101561784744263139e+00 -6.732062697410583496e-01 2.800000000000000000e+01
6.334512233734130859e+00 -4.347081661224365234e+00 -6.721450686454772949e-01 6.000000000000000000e+00
2.078862190246582031e+00 -1.433040142059325950e+00 -6.765530109405517578e-01 2.500000000000000000e+01
2.406118392944335938e+00 -1.659869790077209029e+00 -6.748531460762023926e-01 1.100000000000000000e+01
2.856790065765380859e+00 -1.971503376960753950e+00 -6.747006177902221680e-01 1.100000000000000000e+01
3.501147985458374023e+00 -2.417986631393433061e+00 -6.739196777343750000e-01 1.000000000000000000e+01
4.529990196228027344e+00 -3.130868911743164062e+00 -6.761311292648315430e-01 2.800000000000000000e+01
6.276690006256104404e+00 -4.339706420898438388e+00 -6.676129698753356934e-01 6.000000000000000000e+00
2.088127851486206055e+00 -1.450205922126770020e+00 -6.812117099761962891e-01 2.300000000000000000e+01
2.405110359191894975e+00 -1.671595215797424094e+00 -6.762028932571411133e-01 1.300000000000000000e+01
2.849890708923339844e+00 -1.981463432312011941e+00 -6.747006177902221680e-01 1.100000000000000000e+01
3.499172210693358931e+00 -2.434706211090087891e+00 -6.751711368560791016e-01 1.000000000000000000e+01
4.514146804809570312e+00 -3.143259286880493164e+00 -6.753998994827270508e-01 2.200000000000000000e+01
6.279487133026123047e+00 -4.374116420745849609e+00 -6.695303916931152344e-01 6.000000000000000000e+00
2.078304290771483931e+00 -1.454163432121277078e+00 -6.796588301658630371e-01 2.500000000000000000e+01
2.400856971740723100e+00 -1.681098103523253950e+00 -6.766527891159057617e-01 1.200000000000000000e+01
2.833308696746826172e+00 -1.984641194343566895e+00 -6.724109053611755371e-01 1.100000000000000000e+01
3.493887186050415039e+00 -2.449173450469971147e+00 -6.757968664169311523e-01 1.000000000000000000e+01
4.508022308349609375e+00 -3.162417650222777876e+00 -6.761311292648315430e-01 1.700000000000000000e+01
6.265810966491699219e+00 -4.397153854370117188e+00 -6.697047352790832520e-01 7.000000000000000000e+00
2.065320730209351030e+00 -1.455844044685363992e+00 -6.770706176757812500e-01 2.300000000000000000e+01
2.410898208618164062e+00 -1.700701594352721946e+00 -6.811518073081970215e-01 1.100000000000000000e+01
2.842404603958129883e+00 -2.005838871002196822e+00 -6.762270927429199219e-01 1.200000000000000000e+01
3.491770982742310014e+00 -2.465912580490111861e+00 -6.770483851432800293e-01 1.000000000000000000e+01
4.513166904449462891e+00 -3.189591169357299805e+00 -6.785684823989868164e-01 1.500000000000000000e+01
6.206498622894287109e+00 -4.387944221496582031e+00 -6.649982929229736328e-01 7.000000000000000000e+00
2.062056779861450195e+00 -1.463803172111511008e+00 -6.775882840156555176e-01 2.500000000000000000e+01
2.392535924911499023e+00 -1.699658393859863059e+00 -6.775525808334350586e-01 1.100000000000000000e+01
2.835737228393555132e+00 -2.015253543853760210e+00 -6.762270927429199219e-01 1.200000000000000000e+01
3.473915815353393999e+00 -2.470608949661254883e+00 -6.751711368560791016e-01 1.000000000000000000e+01
4.489626884460449219e+00 -3.195331335067749023e+00 -6.766185760498046875e-01 1.700000000000000000e+01
6.175683021545410156e+00 -4.396945476531982422e+00 -6.632552146911621094e-01 9.000000000000000000e+00
2.066362857818603960e+00 -1.477734684944153054e+00 -6.806941032409667969e-01 2.400000000000000000e+01
2.389757871627808061e+00 -1.710267782211303933e+00 -6.784523725509643555e-01 1.200000000000000000e+01
2.825492858886719194e+00 -2.022854089736938032e+00 -6.754638552665710449e-01 1.100000000000000000e+01
3.471693754196166992e+00 -2.487322092056273970e+00 -6.764226555824279785e-01 1.000000000000000000e+01
4.467152595520020419e+00 -3.202886819839477983e+00 -6.749124526977539062e-01 1.400000000000000000e+01
6.134393215179443359e+00 -4.399896144866943359e+00 -6.604661941528320312e-01 1.200000000000000000e+01
2.060673713684082031e+00 -1.485658049583435059e+00 -6.806941032409667969e-01 2.400000000000000000e+01
2.386333942413330078e+00 -1.721711516380310059e+00 -6.793521642684936523e-01 1.200000000000000000e+01
2.820888757705688032e+00 -2.035986185073852983e+00 -6.762270927429199219e-01 1.100000000000000000e+01
3.471725702285767046e+00 -2.507573843002318892e+00 -6.782998442649841309e-01 1.000000000000000000e+01
4.474127292633056641e+00 -3.233970403671265093e+00 -6.778373122215270996e-01 1.400000000000000000e+01
6.127140998840332031e+00 -4.430422782897949219e+00 -6.615120768547058105e-01 1.100000000000000000e+01
2.057038307189940962e+00 -1.493977308273314986e+00 -6.812117099761962891e-01 2.300000000000000000e+01
2.385038614273070845e+00 -1.733468055725098100e+00 -6.807019114494323730e-01 1.200000000000000000e+01
2.804237127304077148e+00 -2.038893461227416992e+00 -6.739373803138732910e-01 1.100000000000000000e+01
3.472535133361815962e+00 -2.526650428771973100e+00 -6.801770329475402832e-01 1.000000000000000000e+01
4.480463981628417969e+00 -3.262421607971190962e+00 -6.805183887481689453e-01 1.500000000000000000e+01
6.069766998291015625e+00 -4.421283721923828125e+00 -6.569799780845642090e-01 1.000000000000000000e+01
2.050775051116942915e+00 -1.499292135238647017e+00 -6.806941032409667969e-01 2.200000000000000000e+01
2.382726430892943892e+00 -1.743253707885741965e+00 -6.816017031669616699e-01 1.200000000000000000e+01
2.810492038726807085e+00 -2.056969165802001953e+00 -6.769903302192687988e-01 1.100000000000000000e+01
3.455018520355225053e+00 -2.530543804168701172e+00 -6.782998442649841309e-01 1.000000000000000000e+01
4.481400012969970703e+00 -3.284695863723754883e+00 -6.822245717048645020e-01 1.400000000000000000e+01
6.010858058929443359e+00 -4.407343387603759766e+00 -6.520992517471313477e-01 1.100000000000000000e+01
2.042418003082274947e+00 -1.504150390625000000e+00 -6.796588301658630371e-01 2.100000000000000000e+01
2.379764318466186968e+00 -1.753872632980346902e+00 -6.825014948844909668e-01 1.200000000000000000e+01
2.806455135345458984e+00 -2.069097280502318892e+00 -6.777535676956176758e-01 1.200000000000000000e+01
3.442985057830810991e+00 -2.540243148803710938e+00 -6.776741147041320801e-01 1.000000000000000000e+01
4.482682704925537109e+00 -3.309751749038695845e+00 -6.841744780540466309e-01 1.400000000000000000e+01
6.005052566528320312e+00 -4.435400962829589844e+00 -6.531451344490051270e-01 1.000000000000000000e+01
2.044912815093994141e+00 -1.517025589942931907e+00 -6.822469830513000488e-01 2.000000000000000000e+01
2.368933677673339844e+00 -1.758684039115905984e+00 -6.811518073081970215e-01 1.100000000000000000e+01
2.802367925643920898e+00 -2.081222057342528853e+00 -6.785168051719665527e-01 1.200000000000000000e+01
3.440438985824584961e+00 -2.556959152221680132e+00 -6.789255738258361816e-01 1.000000000000000000e+01
4.464730739593505859e+00 -3.320640325546265093e+00 -6.831995248794555664e-01 1.500000000000000000e+01
6.085443019866943359e+00 -4.527693748474121094e+00 -6.636038422584533691e-01 8.000000000000000000e+00
2.044247388839722124e+00 -1.527623653411865012e+00 -6.837999224662780762e-01 2.200000000000000000e+01
2.362780332565308061e+00 -1.766942381858825906e+00 -6.811518073081970215e-01 1.100000000000000000e+01
2.795085906982421875e+00 -2.090991497039794922e+00 -6.785168051719665527e-01 1.100000000000000000e+01
3.437817811965941939e+00 -2.573688507080078125e+00 -6.801770329475402832e-01 1.000000000000000000e+01
4.451523780822753906e+00 -3.335014820098876953e+00 -6.829558014869689941e-01 1.500000000000000000e+01
6.044092178344726562e+00 -4.529790401458740234e+00 -6.608148217201232910e-01 7.000000000000000000e+00
2.028098344802856001e+00 -1.526617527008057085e+00 -6.801764369010925293e-01 1.800000000000000000e+01
2.356598138809204102e+00 -1.775179266929626021e+00 -6.811518073081970215e-01 1.200000000000000000e+01
2.784634113311768022e+00 -2.098372459411621094e+00 -6.777535676956176758e-01 1.100000000000000000e+01
3.435121774673461914e+00 -2.590430498123168945e+00 -6.814285516738891602e-01 1.000000000000000000e+01
4.449362277984619141e+00 -3.357707738876343218e+00 -6.844182610511779785e-01 1.200000000000000000e+01
5.947145938873291016e+00 -4.489637851715087891e+00 -6.519249677658081055e-01 7.000000000000000000e+00
2.022757053375244141e+00 -1.533687591552733931e+00 -6.801764369010925293e-01 1.700000000000000000e+01
2.353492021560668945e+00 -1.785750389099121094e+00 -6.820515990257263184e-01 1.100000000000000000e+01
2.771037340164185014e+00 -2.103331804275513139e+00 -6.762270927429199219e-01 1.100000000000000000e+01
3.427631616592406782e+00 -2.603600263595581055e+00 -6.817414164543151855e-01 1.100000000000000000e+01
4.437614917755126953e+00 -3.373218536376953125e+00 -6.844182610511779785e-01 1.200000000000000000e+01
5.931437969207763672e+00 -4.510370254516601562e+00 -6.519249677658081055e-01 7.000000000000000000e+00
2.017391204833983931e+00 -1.540738940238953081e+00 -6.801764369010925293e-01 1.500000000000000000e+01
2.347244262695312944e+00 -1.793954730033874956e+00 -6.820515990257263184e-01 1.100000000000000000e+01
2.769917011260985884e+00 -2.117761373519897017e+00 -6.777535676956176758e-01 1.100000000000000000e+01
3.410678148269652876e+00 -2.609547376632689986e+00 -6.801770329475402832e-01 1.000000000000000000e+01
4.443150520324707031e+00 -3.401962757110596147e+00 -6.870993375778198242e-01 1.000000000000000000e+01
5.906167030334472656e+00 -4.523777961730957031e+00 -6.508790850639343262e-01 7.000000000000000000e+00
2.018125534057617188e+00 -1.552483201026916948e+00 -6.822469830513000488e-01 1.400000000000000000e+01
2.340967893600463867e+00 -1.802137255668639915e+00 -6.820515990257263184e-01 1.100000000000000000e+01
2.778062343597412109e+00 -2.139396190643310991e+00 -6.815697550773620605e-01 1.100000000000000000e+01
3.395289897918701172e+00 -2.616613626480102983e+00 -6.789255738258361816e-01 1.000000000000000000e+01
4.429676532745361328e+00 -3.416239261627196822e+00 -6.868556141853332520e-01 1.200000000000000000e+01
5.876142978668212891e+00 -4.533413887023925781e+00 -6.493102908134460449e-01 7.000000000000000000e+00
2.014493465423583984e+00 -1.560350060462952104e+00 -6.827646493911743164e-01 1.500000000000000000e+01
2.334979057312012163e+00 -1.809890270233154075e+00 -6.820515990257263184e-01 1.100000000000000000e+01
2.756989240646361861e+00 -2.137769460678101030e+00 -6.781351566314697266e-01 1.200000000000000000e+01
3.395957946777344194e+00 -2.635124444961547852e+00 -6.808027625083923340e-01 1.000000000000000000e+01
4.415187835693359375e+00 -3.428474903106689009e+00 -6.863681674003601074e-01 1.200000000000000000e+01
5.911427497863770419e+00 -4.591986656188964844e+00 -6.548882722854614258e-01 7.000000000000000000e+00
2.013604164123535156e+00 -1.570937275886536089e+00 -6.843175292015075684e-01 1.500000000000000000e+01
2.325574874877930132e+00 -1.815631389617919922e+00 -6.811518073081970215e-01 1.100000000000000000e+01
2.751057624816894975e+00 -2.148588657379149947e+00 -6.785168051719665527e-01 1.100000000000000000e+01
3.396077394485474077e+00 -2.654261112213135210e+00 -6.826800107955932617e-01 1.000000000000000000e+01
4.412575244903563565e+00 -3.451203584671020952e+00 -6.878305673599243164e-01 1.200000000000000000e+01
5.868686676025390625e+00 -4.591722011566162109e+00 -6.519249677658081055e-01 7.000000000000000000e+00
1.998720049858093040e+00 -1.571143746376038042e+00 -6.812117099761962891e-01 1.400000000000000000e+01
2.328094482421875000e+00 -1.831371903419495073e+00 -6.838511824607849121e-01 1.200000000000000000e+01
2.746249914169311968e+00 -2.161085605621337891e+00 -6.792800426483154297e-01 1.100000000000000000e+01
3.383222341537476030e+00 -2.664246320724486861e+00 -6.820542812347412109e-01 1.000000000000000000e+01
4.403014183044433594e+00 -3.469810724258422852e+00 -6.883180737495422363e-01 1.200000000000000000e+01
5.700046062469482422e+00 -4.493553638458251953e+00 -6.350167393684387207e-01 1.400000000000000000e+01
2.000796556472777876e+00 -1.584106802940369096e+00 -6.837999224662780762e-01 1.400000000000000000e+01
2.323215246200561968e+00 -1.840697526931762917e+00 -6.843010783195495605e-01 1.300000000000000000e+01
2.741766691207886186e+00 -2.173097372055054155e+00 -6.800432801246643066e-01 1.100000000000000000e+01
3.373901844024658203e+00 -2.676039695739746094e+00 -6.820542812347412109e-01 1.000000000000000000e+01
4.397095203399658203e+00 -3.490095615386962891e+00 -6.892930269241333008e-01 1.200000000000000000e+01
5.821635723114013672e+00 -4.622449398040770596e+00 -6.503561735153198242e-01 8.000000000000000000e+00
1.995532512664794922e+00 -1.590733051300049050e+00 -6.837999224662780762e-01 1.500000000000000000e+01
2.309481382369995117e+00 -1.842315196990967019e+00 -6.820515990257263184e-01 1.100000000000000000e+01
2.740683555603026900e+00 -2.187075853347777876e+00 -6.815697550773620605e-01 1.100000000000000000e+01
3.365009307861328125e+00 -2.687213182449340820e+00 -6.820542812347412109e-01 1.000000000000000000e+01
4.391700267791748047e+00 -3.509614706039429155e+00 -6.902679800987243652e-01 1.200000000000000000e+01
5.823393821716308594e+00 -4.655414104461669922e+00 -6.522735953330993652e-01 5.000000000000000000e+00
1.995993375778198020e+00 -1.602526903152466042e+00 -6.858704686164855957e-01 1.400000000000000000e+01
2.312151432037353960e+00 -1.857688903808593972e+00 -6.847510337829589844e-01 1.100000000000000000e+01
2.726911544799805132e+00 -2.191709518432617188e+00 -6.800432801246643066e-01 1.100000000000000000e+01
3.355608463287353960e+00 -2.698942899703979048e+00 -6.820542812347412109e-01 1.000000000000000000e+01
4.373237133026123047e+00 -3.519944429397583008e+00 -6.892930269241333008e-01 1.200000000000000000e+01
5.811763286590576172e+00 -4.679461956024169922e+00 -6.527965068817138672e-01 9.000000000000000000e+00
1.984378576278686968e+00 -1.604625582695007102e+00 -6.837999224662780762e-01 1.400000000000000000e+01
2.304137945175170898e+00 -1.864522695541382058e+00 -6.843010783195495605e-01 1.200000000000000000e+01
2.720770359039307085e+00 -2.202450275421143022e+00 -6.804248690605163574e-01 1.100000000000000000e+01
3.355376720428466797e+00 -2.718100309371947798e+00 -6.839314699172973633e-01 1.000000000000000000e+01
4.370175838470458984e+00 -3.542688846588135210e+00 -6.907554268836975098e-01 1.200000000000000000e+01
5.818606376647949219e+00 -4.718544006347656250e+00 -6.554111838340759277e-01 7.000000000000000000e+00
1.975769400596619096e+00 -1.609102725982666016e+00 -6.827646493911743164e-01 1.400000000000000000e+01
2.303657770156859907e+00 -1.877478837966918945e+00 -6.861007213592529297e-01 1.200000000000000000e+01
2.708500862121582031e+00 -2.208212375640869141e+00 -6.792800426483154297e-01 1.100000000000000000e+01
3.345868349075316939e+00 -2.729796171188354048e+00 -6.839314699172973633e-01 1.100000000000000000e+01
4.368546485900878906e+00 -3.566710233688354048e+00 -6.924616098403930664e-01 1.400000000000000000e+01
5.806729316711425781e+00 -4.742607116699218750e+00 -6.559340953826904297e-01 7.000000000000000000e+00
1.973127961158751997e+00 -1.618439912796020952e+00 -6.837999224662780762e-01 1.300000000000000000e+01
2.292571306228638139e+00 -1.881799459457397017e+00 -6.847510337829589844e-01 1.100000000000000000e+01
2.712914466857910156e+00 -2.227620363235474077e+00 -6.823329925537109375e-01 1.100000000000000000e+01
3.337845325469971147e+00 -2.742712974548339844e+00 -6.842443346977233887e-01 1.100000000000000000e+01
4.357603073120117188e+00 -3.583198308944702148e+00 -6.927053332328796387e-01 1.200000000000000000e+01
5.822452068328857422e+00 -4.789427280426025391e+00 -6.595946550369262695e-01 7.000000000000000000e+00
1.971934676170348899e+00 -1.629008650779723899e+00 -6.853528022766113281e-01 1.400000000000000000e+01
2.281482696533203125e+00 -1.886065602302551047e+00 -6.834012866020202637e-01 1.300000000000000000e+01
2.711174011230469194e+00 -2.242081165313721147e+00 -6.838594675064086914e-01 1.100000000000000000e+01
3.328251123428345171e+00 -2.754347324371337891e+00 -6.842443346977233887e-01 1.100000000000000000e+01
4.345068931579589844e+00 -3.598387241363524947e+00 -6.927053332328796387e-01 1.200000000000000000e+01
5.844055175781250000e+00 -4.841498851776123047e+00 -6.639524698257446289e-01 7.000000000000000000e+00
1.969206452369689941e+00 -1.638353228569030984e+00 -6.863881349563598633e-01 1.400000000000000000e+01
2.273387670516968218e+00 -1.892771124839782937e+00 -6.829513907432556152e-01 1.200000000000000000e+01
2.695788383483887163e+00 -2.245249032974243164e+00 -6.819513440132141113e-01 1.000000000000000000e+01
3.324686050415039062e+00 -2.771007299423218218e+00 -6.854958534240722656e-01 1.100000000000000000e+01
4.332481861114501953e+00 -3.613532543182373047e+00 -6.927053332328796387e-01 1.200000000000000000e+01
5.752157688140869141e+00 -4.799324512481688565e+00 -6.554111838340759277e-01 6.000000000000000000e+00
1.963475584983825906e+00 -1.645217061042786089e+00 -6.863881349563598633e-01 1.400000000000000000e+01
2.272739648818970171e+00 -1.905703544616698997e+00 -6.847510337829589844e-01 1.300000000000000000e+01
2.684926271438599077e+00 -2.252122163772583008e+00 -6.811881065368652344e-01 1.100000000000000000e+01
3.322558403015137163e+00 -2.788945674896239790e+00 -6.870601773262023926e-01 1.100000000000000000e+01
4.325921535491943359e+00 -3.633740901947021040e+00 -6.936802864074707031e-01 1.200000000000000000e+01
5.730793952941895419e+00 -4.815528869628906250e+00 -6.548882722854614258e-01 6.000000000000000000e+00
1.949149250984191895e+00 -1.644245266914367898e+00 -6.832822561264038086e-01 1.500000000000000000e+01
2.267896890640258789e+00 -1.914486765861511008e+00 -6.852009296417236328e-01 1.200000000000000000e+01
2.683443069458007812e+00 -2.266079902648925781e+00 -6.827145814895629883e-01 1.000000000000000000e+01
3.314800262451171875e+00 -2.801223516464232954e+00 -6.873730421066284180e-01 1.100000000000000000e+01
2.849288177490234020e+01 -2.408687782287598012e+01 4.581068515777587891e+00 1.900000000000000000e+01
4.322942733764648438e+00 -3.655757188796997070e+00 -6.951427459716796875e-01 1.200000000000000000e+01
5.708709239959716797e+00 -4.829359054565429688e+00 -6.541910171508789062e-01 8.000000000000000000e+00
1.949286937713623047e+00 -1.656042218208312988e+00 -6.853528022766113281e-01 1.500000000000000000e+01
2.271593093872069868e+00 -1.931227326393126997e+00 -6.883502006530761719e-01 1.400000000000000000e+01
2.680003166198730025e+00 -2.279248952865601030e+00 -6.838594675064086914e-01 1.100000000000000000e+01
3.294471740722655806e+00 -2.803815364837646040e+00 -6.851829290390014648e-01 1.100000000000000000e+01
2.844490432739258168e+01 -2.421707344055176137e+01 4.586918354034423828e+00 1.900000000000000000e+01
4.316200256347656250e+00 -3.675973176956177202e+00 -6.961176991462707520e-01 1.200000000000000000e+01
5.446126937866210938e+00 -4.639936447143554688e+00 -6.259525418281555176e-01 6.000000000000000000e+00
1.950833916664123979e+00 -1.669116020202636941e+00 -6.879410147666931152e-01 1.500000000000000000e+01
2.258916854858397993e+00 -1.934075236320496050e+00 -6.865506172180175781e-01 1.300000000000000000e+01
2.669048547744750977e+00 -2.286035776138306108e+00 -6.830962300300598145e-01 1.100000000000000000e+01
3.290663957595825195e+00 -2.820440053939818892e+00 -6.864344477653503418e-01 1.000000000000000000e+01
4.306355953216552734e+00 -3.693601846694945845e+00 -6.966051459312438965e-01 1.200000000000000000e+01
5.485844612121582031e+00 -4.706922054290770596e+00 -6.324020624160766602e-01 6.000000000000000000e+00
1.942068696022033913e+00 -1.673393487930298074e+00 -6.869057416915893555e-01 1.500000000000000000e+01
2.244772672653197798e+00 -1.935585618019104004e+00 -6.843010783195495605e-01 1.300000000000000000e+01
2.662539243698120117e+00 -2.296620845794678178e+00 -6.834778189659118652e-01 1.000000000000000000e+01
3.283789396286011186e+00 -2.834491014480590820e+00 -6.870601773262023926e-01 1.000000000000000000e+01
4.296441078186035156e+00 -3.711206674575806108e+00 -6.970926523208618164e-01 1.200000000000000000e+01
5.550788402557373047e+00 -4.796386241912841797e+00 -6.418148875236511230e-01 6.000000000000000000e+00
1.942346096038817915e+00 -1.684887886047363059e+00 -6.889762878417968750e-01 1.600000000000000000e+01
2.242756605148314986e+00 -1.946851253509521040e+00 -6.856508255004882812e-01 1.300000000000000000e+01
2.654908657073975053e+00 -2.305437564849853960e+00 -6.834778189659118652e-01 1.000000000000000000e+01
3.277354001998900923e+00 -2.847956180572510210e+00 -6.876859068870544434e-01 1.000000000000000000e+01
4.293098449707031250e+00 -3.733249187469481978e+00 -6.985550522804260254e-01 1.200000000000000000e+01
5.623542308807373047e+00 -4.891918182373046875e+00 -6.520992517471313477e-01 8.000000000000000000e+00
1.926268696784972922e+00 -1.682760953903198020e+00 -6.853528022766113281e-01 1.600000000000000000e+01
2.237414360046387163e+00 -1.955950736999511941e+00 -6.861007213592529297e-01 1.300000000000000000e+01
2.643889427185059038e+00 -2.312105894088745117e+00 -6.827145814895629883e-01 1.000000000000000000e+01
3.273339033126831055e+00 -2.864582538604735884e+00 -6.889373660087585449e-01 1.000000000000000000e+01
4.277054309844970703e+00 -3.745596647262572798e+00 -6.980676054954528809e-01 1.200000000000000000e+01
5.630410194396972656e+00 -4.932524204254150391e+00 -6.548882722854614258e-01 9.000000000000000000e+00
1.922128558158874956e+00 -1.690415143966675027e+00 -6.858704686164855957e-01 1.500000000000000000e+01
2.238230228424071822e+00 -1.969796776771544966e+00 -6.883502006530761719e-01 1.300000000000000000e+01
2.646522521972655806e+00 -2.329941749572753906e+00 -6.853858828544616699e-01 1.100000000000000000e+01
3.251963853836060014e+00 -2.864974975585937944e+00 -6.864344477653503418e-01 1.000000000000000000e+01
4.278011322021484375e+00 -3.771574020385742188e+00 -7.002612352371215820e-01 1.000000000000000000e+01
5.587125301361083984e+00 -4.927446842193604404e+00 -6.517506241798400879e-01 8.000000000000000000e+00
1.927785754203795943e+00 -1.707361102104187012e+00 -6.900115609169006348e-01 1.500000000000000000e+01
2.222590446472167969e+00 -1.969842314720154031e+00 -6.856508255004882812e-01 1.200000000000000000e+01
2.641311407089232954e+00 -2.341770648956298828e+00 -6.861491203308105469e-01 1.100000000000000000e+01
3.241943597793579102e+00 -2.876309156417847124e+00 -6.864344477653503418e-01 1.000000000000000000e+01
4.260366439819335938e+00 -3.782530307769774947e+00 -6.995300054550170898e-01 1.200000000000000000e+01
2.771356391906737926e+01 -2.461390495300292969e+01 5.870672702789306641e+00 1.300000000000000000e+01
5.554994583129882812e+00 -4.933689117431640625e+00 -6.500075459480285645e-01 8.000000000000000000e+00
1.917190551757812944e+00 -1.710556983947753906e+00 -6.884586811065673828e-01 1.500000000000000000e+01
2.218262910842895952e+00 -1.980571031570435014e+00 -6.865506172180175781e-01 1.200000000000000000e+01
2.635639190673828125e+00 -2.354051351547241211e+00 -6.869123578071594238e-01 1.100000000000000000e+01
3.243162155151367188e+00 -2.898703336715697798e+00 -6.889373660087585449e-01 1.000000000000000000e+01
4.249433517456054688e+00 -3.800766706466674805e+00 -7.000175118446350098e-01 1.200000000000000000e+01
5.533905029296875000e+00 -4.951358795166015625e+00 -6.496589183807373047e-01 1.200000000000000000e+01
1.909770965576172097e+00 -1.715947628021240012e+00 -6.879410147666931152e-01 1.500000000000000000e+01
2.212785005569458008e+00 -1.989605188369750977e+00 -6.870005130767822266e-01 1.200000000000000000e+01
2.618647813796997070e+00 -2.355359554290771040e+00 -6.846227049827575684e-01 1.100000000000000000e+01
3.235960483551024947e+00 -2.912649393081665039e+00 -6.895630955696105957e-01 1.000000000000000000e+01
4.234665393829345703e+00 -3.814248323440552202e+00 -6.997737884521484375e-01 1.000000000000000000e+01
5.495865345001220703e+00 -4.951974391937255859e+00 -6.472185254096984863e-01 1.300000000000000000e+01
1.904070138931273970e+00 -1.722271203994750977e+00 -6.879410147666931152e-01 1.700000000000000000e+01
2.214843750000000000e+00 -2.004778623580933061e+00 -6.896999478340148926e-01 1.500000000000000000e+01
2.616644144058227983e+00 -2.369301319122314009e+00 -6.861491203308105469e-01 1.100000000000000000e+01
3.229211568832397017e+00 -2.926017045974731001e+00 -6.901888847351074219e-01 1.000000000000000000e+01
4.230816841125488281e+00 -3.836270570755004883e+00 -7.012361884117126465e-01 1.100000000000000000e+01
5.476462364196777344e+00 -4.967494964599609375e+00 -6.468698978424072266e-01 2.100000000000000000e+01
3.740788650512695312e+01 -3.397893142700195312e+01 -8.821144104003906250e-01 1.300000000000000000e+01
1.892333984375000000e+00 -1.723703503608704057e+00 -6.858704686164855957e-01 1.400000000000000000e+01
2.204952001571654829e+00 -2.009871959686278853e+00 -6.888001561164855957e-01 1.300000000000000000e+01
2.618512630462646040e+00 -2.387680530548096147e+00 -6.888204813003540039e-01 1.000000000000000000e+01
3.216059923171997070e+00 -2.934608221054077148e+00 -6.895630955696105957e-01 1.000000000000000000e+01
4.232059001922607422e+00 -3.864401102066040039e+00 -7.036736011505126953e-01 1.100000000000000000e+01
5.459089279174804688e+00 -4.986580848693847656e+00 -6.468698978424072266e-01 2.000000000000000000e+01
1.899422287940979004e+00 -1.741719961166382058e+00 -6.905292272567749023e-01 1.600000000000000000e+01
2.193967342376708984e+00 -2.013220071792602983e+00 -6.874504089355468750e-01 1.400000000000000000e+01
2.599009990692139116e+00 -2.385729789733887163e+00 -6.857675313949584961e-01 1.000000000000000000e+01
3.203401088714600053e+00 -2.942584276199340820e+00 -6.889373660087585449e-01 1.000000000000000000e+01
4.222144126892089844e+00 -3.881100654602050781e+00 -7.041610479354858398e-01 1.100000000000000000e+01
5.448389530181884766e+00 -5.010050773620604581e+00 -6.475671529769897461e-01 1.200000000000000000e+01
1.894750237464905007e+00 -1.749650120735168013e+00 -6.910468339920043945e-01 1.500000000000000000e+01
2.194082736968994141e+00 -2.027479171752930132e+00 -6.896999478340148926e-01 1.300000000000000000e+01
2.605082988739014116e+00 -2.408113956451416016e+00 -6.895837187767028809e-01 1.000000000000000000e+01
3.197460412979125977e+00 -2.957772493362427202e+00 -6.898760199546813965e-01 1.000000000000000000e+01
4.214397907257080078e+00 -3.901208877563477007e+00 -7.051360011100769043e-01 1.100000000000000000e+01
5.489342689514160156e+00 -5.083187103271484375e+00 -6.545396447181701660e-01 9.000000000000000000e+00
1.885189652442931907e+00 -1.754280447959899902e+00 -6.900115609169006348e-01 1.500000000000000000e+01
2.189133882522583008e+00 -2.038544893264770952e+00 -6.905997395515441895e-01 1.200000000000000000e+01
2.585761547088623047e+00 -2.408731698989868164e+00 -6.869123578071594238e-01 9.000000000000000000e+00
3.190414667129517046e+00 -2.974068880081177202e+00 -6.908146142959594727e-01 1.000000000000000000e+01
4.190677642822265625e+00 -3.909237861633300781e+00 -7.036736011505126953e-01 1.100000000000000000e+01
5.481437683105468750e+00 -5.115101814270020419e+00 -6.559340953826904297e-01 8.000000000000000000e+00
1.877644896507262962e+00 -1.759529352188109907e+00 -6.894939541816711426e-01 1.500000000000000000e+01
2.183426141738892046e+00 -2.047507047653197798e+00 -6.910496354103088379e-01 1.300000000000000000e+01
2.575906038284302202e+00 -2.416399717330933061e+00 -6.865307688713073730e-01 1.000000000000000000e+01
3.188655138015747070e+00 -2.993299245834351030e+00 -6.926918029785156250e-01 1.000000000000000000e+01
4.191474437713623047e+00 -3.937433481216431108e+00 -7.061109542846679688e-01 1.100000000000000000e+01
5.440318584442138672e+00 -5.112374305725097656e+00 -6.531451344490051270e-01 1.100000000000000000e+01
1.867276549339293990e+00 -1.762095212936400923e+00 -6.879410147666931152e-01 1.600000000000000000e+01
2.172015190124512163e+00 -2.051102161407471147e+00 -6.896999478340148926e-01 1.500000000000000000e+01
2.574591159820557085e+00 -2.432117700576781782e+00 -6.884388327598571777e-01 1.000000000000000000e+01
3.166703224182128906e+00 -2.993555545806885210e+00 -6.901888847351074219e-01 1.000000000000000000e+01
4.189241409301757812e+00 -3.962954044342041016e+00 -7.080608606338500977e-01 1.100000000000000000e+01
2.778776168823241832e+01 -2.628676795959473012e+01 6.058393955230712891e+00 1.400000000000000000e+01
5.428228855133056641e+00 -5.136811256408691406e+00 -6.538423895835876465e-01 9.000000000000000000e+00
1.870916962623595969e+00 -1.777917981147765891e+00 -6.915645003318786621e-01 1.600000000000000000e+01
2.160605669021606001e+00 -2.054642677307128906e+00 -6.883502006530761719e-01 1.700000000000000000e+01
2.571775674819945845e+00 -2.446502447128295898e+00 -6.899653077125549316e-01 1.100000000000000000e+01
3.157665014266968218e+00 -3.005953073501586914e+00 -6.905017495155334473e-01 9.000000000000000000e+00
2.705321502685546875e+01 -2.576242828369140980e+01 4.586918354034423828e+00 1.900000000000000000e+01
4.173945426940917969e+00 -3.976183891296387163e+00 -7.078171372413635254e-01 1.100000000000000000e+01
5.430457592010498047e+00 -5.174970626831054688e+00 -6.562827229499816895e-01 8.000000000000000000e+00
1.869510889053344949e+00 -1.787792325019835982e+00 -6.931173801422119141e-01 2.000000000000000000e+01
2.154140233993529829e+00 -2.061420202255249023e+00 -6.883502006530761719e-01 1.700000000000000000e+01
2.559822559356689009e+00 -2.450496912002563032e+00 -6.888204813003540039e-01 1.100000000000000000e+01
3.159617900848389116e+00 -3.026790380477904829e+00 -6.930046677589416504e-01 9.000000000000000000e+00
2.711547088623046875e+01 -2.598463821411133168e+01 4.611292362213134766e+00 1.900000000000000000e+01
4.151402473449707031e+00 -3.979660987854003906e+00 -7.061109542846679688e-01 1.100000000000000000e+01
5.450123786926270419e+00 -5.226480960845947266e+00 -6.606405377388000488e-01 7.000000000000000000e+00
1.857692837715148926e+00 -1.788947105407715066e+00 -6.910468339920043945e-01 1.500000000000000000e+01
2.153947591781616211e+00 -2.075688362121582031e+00 -6.905997395515441895e-01 1.900000000000000000e+01
2.554080009460449219e+00 -2.462142467498778853e+00 -6.895837187767028809e-01 1.200000000000000000e+01
3.150454759597777876e+00 -3.039172410964965820e+00 -6.933175325393676758e-01 1.000000000000000000e+01
4.143198013305664062e+00 -3.999642848968505859e+00 -7.070859074592590332e-01 1.100000000000000000e+01
5.368785858154296875e+00 -5.184576034545898438e+00 -6.529708504676818848e-01 7.000000000000000000e+00
1.850810050964355025e+00 -1.796066880226135032e+00 -6.910468339920043945e-01 1.600000000000000000e+01
2.151553630828856978e+00 -2.089374065399169922e+00 -6.923993229866027832e-01 2.100000000000000000e+01
2.546015262603760210e+00 -2.473299264907836914e+00 -6.899653077125549316e-01 1.200000000000000000e+01
3.138761997222899947e+00 -3.051246881484984907e+00 -6.933175325393676758e-01 1.000000000000000000e+01
4.134924411773681641e+00 -4.022442817687988281e+00 -7.083046436309814453e-01 1.100000000000000000e+01
5.327420711517333984e+00 -5.184309959411621094e+00 -6.503561735153198242e-01 9.000000000000000000e+00
1.843147635459899902e+00 -1.801166296005249023e+00 -6.905292272567749023e-01 1.600000000000000000e+01
