2.947885990142821822e+00 1.984633564949036089e+00 -5.628511905670166016e-01 1.100000000000000000e+01
3.658144712448120117e+00 2.460952520370482954e+00 -5.413436293601989746e-01 1.000000000000000000e+01
3.190543174743651988e+01 2.145573043823241832e+01 6.089680671691895419e+00 1.400000000000000000e+01
4.864066600799561435e+00 3.270982265472412109e+00 -5.128244161605834961e-01 9.000000000000000000e+00
3.232598876953125000e+01 2.173035430908203125e+01 7.571300983428955078e+00 6.300000000000000000e+01
6.891264915466308594e+00 4.630737781524658203e+00 -4.351211488246917725e-01 1.000000000000000000e+00
3.222718048095703125e+01 2.164760208129883168e+01 8.962949752807617188e+00 1.200000000000000000e+01
1.126585197448729936e+01 7.564631462097167969e+00 -2.368640601634978970e-01 2.000000000000000000e+00
1.875035643577575906e+00 1.255226969718933105e+00 -6.046012639999389648e-01 1.700000000000000000e+01
2.128352880477904829e+00 1.423732519149780051e+00 -5.911713838577270508e-01 1.200000000000000000e+01
2.474120378494263139e+00 1.654403924942017046e+00 -5.785328745841979980e-01 1.200000000000000000e+01
2.964650630950928178e+00 1.980916142463684082e+00 -5.647284388542175293e-01 1.000000000000000000e+01
3.653505325317382812e+00 2.439350128173828125e+00 -5.393937230110168457e-01 1.000000000000000000e+01
3.187126350402832031e+01 2.127960968017578125e+01 6.069657325744628906e+00 1.400000000000000000e+01
4.878768920898438388e+00 3.256195545196533203e+00 -5.131729841232299805e-01 9.000000000000000000e+00
6.884124279022216797e+00 4.591140270233154297e+00 -4.336557388305664062e-01 2.000000000000000000e+00
3.206257247924804688e+01 2.137499427795410156e+01 8.896364212036132812e+00 1.200000000000000000e+01
1.131215763092041016e+01 7.538567543029785156e+00 -2.372829169034957886e-01 2.000000000000000000e+00
1.879405736923217995e+00 1.248674154281615989e+00 -6.046012639999389648e-01 1.700000000000000000e+01
3.245775985717772727e+01 2.155671882629394887e+01 6.801202893257141113e-01 3.300000000000000000e+01
2.143050909042357954e+00 1.422761559486388938e+00 -5.938707590103149414e-01 1.200000000000000000e+01
2.478244543075561968e+00 1.644671916961669922e+00 -5.781512856483459473e-01 1.200000000000000000e+01
2.968254566192626953e+00 1.968372106552124023e+00 -5.641027092933654785e-01 1.000000000000000000e+01
3.666962385177611861e+00 2.429871559143065962e+00 -5.401249527931213379e-01 1.000000000000000000e+01
3.205444335937500000e+01 2.123246765136719105e+01 6.089680671691895419e+00 1.400000000000000000e+01
4.883461475372313565e+00 3.234744548797606978e+00 -5.124757885932922363e-01 9.000000000000000000e+00
6.900108814239501953e+00 4.567082405090332031e+00 -4.336557388305664062e-01 2.000000000000000000e+00
3.207198333740233664e+01 2.121993255615234020e+01 8.878368377685546875e+00 1.200000000000000000e+01
1.132505989074707031e+01 7.490210056304931641e+00 -2.370036840438843051e-01 2.000000000000000000e+00
3.289558410644531250e+01 2.174835205078125000e+01 1.056654644012450994e+01 9.000000000000000000e+00
1.880527377128601074e+00 1.239979386329651101e+00 -6.035659909248352051e-01 1.800000000000000000e+01
2.148004293441772017e+00 1.415272235870361106e+00 -5.938707590103149414e-01 1.100000000000000000e+01
2.490528583526610884e+00 1.640330672264098899e+00 -5.796777009963989258e-01 1.300000000000000000e+01
2.975107431411743164e+00 1.957998991012573020e+00 -5.641027092933654785e-01 1.000000000000000000e+01
3.510321426391602273e+01 2.309359931945801137e+01 5.159216880798339844e+00 2.800000000000000000e+01
3.673763275146483931e+00 2.415966033935546875e+00 -5.398811697959899902e-01 1.000000000000000000e+01
4.873079776763916016e+00 3.203450679779053178e+00 -5.102097392082214355e-01 9.000000000000000000e+00
3.173141479492187855e+01 2.085157203674316051e+01 7.380491733551025391e+00 6.200000000000000000e+01
6.939379215240479404e+00 4.558320045471191406e+00 -4.351211488246917725e-01 2.000000000000000000e+00
3.242604064941406250e+01 2.129182624816894887e+01 8.955751419067382812e+00 1.200000000000000000e+01
1.139125823974609020e+01 7.476967334747313565e+00 -2.378413975238800049e-01 2.000000000000000000e+00
3.308436584472656250e+01 2.170757675170898082e+01 1.060278129577637074e+01 9.000000000000000000e+00
1.889693737030029075e+00 1.236580967903136985e+00 -6.051189303398132324e-01 1.900000000000000000e+01
2.152931213378905806e+00 1.407765746116637962e+00 -5.938707590103149414e-01 1.100000000000000000e+01
2.502812623977661133e+00 1.635923743247986062e+00 -5.812041759490966797e-01 1.300000000000000000e+01
2.981924057006835938e+00 1.947602033615112083e+00 -5.641027092933654785e-01 1.000000000000000000e+01
3.692148447036743164e+00 2.409636974334716797e+00 -5.413436293601989746e-01 9.000000000000000000e+00
4.900918960571289062e+00 3.197307109832764116e+00 -5.119528174400329590e-01 9.000000000000000000e+00
6.945209503173828125e+00 4.527524948120117188e+00 -4.344930946826934814e-01 2.000000000000000000e+00
3.255894088745117188e+01 2.121681022644042969e+01 8.971947669982910156e+00 1.200000000000000000e+01
1.141393756866455078e+01 7.434976100921630859e+00 -2.377715855836868009e-01 2.000000000000000000e+00
1.895404100418091042e+00 1.231360197067260964e+00 -6.056365370750427246e-01 1.900000000000000000e+01
2.154318809509276900e+00 1.398496389389038086e+00 -5.929709672927856445e-01 1.100000000000000000e+01
2.514811515808105025e+00 1.631889820098876953e+00 -5.827306509017944336e-01 1.400000000000000000e+01
2.985051155090332031e+00 1.935553431510925071e+00 -5.634769201278686523e-01 1.000000000000000000e+01
3.700118780136107954e+00 2.397380113601685014e+00 -5.413436293601989746e-01 9.000000000000000000e+00
3.293085861206054688e+01 2.133655357360839844e+01 6.214828491210938388e+00 1.400000000000000000e+01
4.928217411041259766e+00 3.191868543624877930e+00 -5.136959552764892578e-01 9.000000000000000000e+00
6.960185050964354581e+00 4.504468917846679688e+00 -4.344930946826934814e-01 2.000000000000000000e+00
1.147883033752441051e+01 7.423146724700927734e+00 -2.386092990636826117e-01 2.000000000000000000e+00
3.259170150756835938e+01 2.107645034790039062e+01 1.039986705780028942e+01 8.000000000000000000e+00
1.904561758041382058e+00 1.227876782417296919e+00 -6.071894764900207520e-01 1.900000000000000000e+01
2.162463665008544922e+00 1.393078684806823953e+00 -5.938707590103149414e-01 1.100000000000000000e+01
2.520492553710937944e+00 1.623101592063904031e+00 -5.827306509017944336e-01 1.400000000000000000e+01
3.005078792572021040e+00 1.933673262596129927e+00 -5.659798979759216309e-01 8.000000000000000000e+00
3.698446273803710938e+00 2.378008127212523970e+00 -5.398811697959899902e-01 9.000000000000000000e+00
4.944357395172119141e+00 3.177878141403197798e+00 -5.142188668251037598e-01 9.000000000000000000e+00
6.977546691894531250e+00 4.481225490570068359e+00 -4.345977902412415106e-01 3.000000000000000000e+00
3.074621963500976918e+01 1.973872184753417969e+01 8.435214996337890625e+00 1.100000000000000000e+01
1.149120807647705078e+01 7.374392509460449219e+00 -2.383300662040709894e-01 2.000000000000000000e+00
1.905581593513488992e+00 1.219138979911803977e+00 -6.061542034149169922e-01 1.900000000000000000e+01
2.167313337326049805e+00 1.385521769523621050e+00 -5.938707590103149414e-01 1.100000000000000000e+01
2.511253833770751953e+00 1.604779005050658958e+00 -5.792961120605468750e-01 1.400000000000000000e+01
2.993496417999268022e+00 1.911477446556091087e+00 -5.625383257865905762e-01 7.000000000000000000e+00
3.711745023727416992e+00 2.368287086486815962e+00 -5.406123995780944824e-01 1.000000000000000000e+01
3.141373634338378906e+01 2.004360198974609020e+01 5.901959419250488281e+00 1.300000000000000000e+01
4.935262680053710938e+00 3.147742986679077148e+00 -5.121271610260009766e-01 8.000000000000000000e+00
6.998199462890625000e+00 4.460062026977539062e+00 -4.349117875099182129e-01 2.000000000000000000e+00
3.097600173950194957e+01 1.973388862609862926e+01 8.479305267333984375e+00 1.100000000000000000e+01
1.149326610565186080e+01 7.319198131561279297e+00 -2.378413975238800049e-01 2.000000000000000000e+00
1.903301835060120073e+00 1.208338141441344993e+00 -6.040836572647094727e-01 1.800000000000000000e+01
2.175427675247191939e+00 1.380035758018494096e+00 -5.947706103324890137e-01 1.100000000000000000e+01
2.528446435928345171e+00 1.603363037109375000e+00 -5.819674134254455566e-01 1.300000000000000000e+01
3.006824731826781782e+00 1.905245780944823997e+00 -5.637897849082946777e-01 7.000000000000000000e+00
3.601685333251953125e+01 2.281292533874512074e+01 5.234775543212890625e+00 3.000000000000000000e+01
3.730052471160889116e+00 2.361687660217285156e+00 -5.420748591423034668e-01 1.000000000000000000e+01
4.952954292297363281e+00 3.134758710861206055e+00 -5.128244161605834961e-01 9.000000000000000000e+00
7.023853778839111328e+00 4.442011833190917969e+00 -4.355398416519165039e-01 2.000000000000000000e+00
3.102493095397948863e+01 1.961314582824707031e+01 8.473906517028808594e+00 1.100000000000000000e+01
1.154241085052490057e+01 7.293989658355712891e+00 -2.383300662040709894e-01 2.000000000000000000e+00
3.263131713867188211e+01 2.061272239685058949e+01 1.034189128875732067e+01 8.000000000000000000e+00
1.912411808967590110e+00 1.204776167869568093e+00 -6.056365370750427246e-01 1.900000000000000000e+01
2.183529853820800781e+00 1.374510049819946067e+00 -5.956704020500183105e-01 1.100000000000000000e+01
2.529042720794678178e+00 1.591390609741210938e+00 -5.808225870132446289e-01 1.300000000000000000e+01
3.010112524032593218e+00 1.892635464668273926e+00 -5.631640553474426270e-01 9.000000000000000000e+00
3.738273382186890093e+00 2.348652839660644975e+00 -5.420748591423034668e-01 1.000000000000000000e+01
4.970615386962890625e+00 3.121689081192017046e+00 -5.135216116905212402e-01 8.000000000000000000e+00
7.035933017730712891e+00 4.415343761444091797e+00 -4.353304803371428888e-01 2.000000000000000000e+00
3.102056694030762074e+01 1.945916557312012074e+01 8.454110145568847656e+00 1.100000000000000000e+01
1.158135414123534979e+01 7.262153625488281250e+00 -2.386092990636826117e-01 2.000000000000000000e+00
3.249981307983397727e+01 2.037919044494628906e+01 1.027873992919922053e+01 8.000000000000000000e+00
1.918243646621704102e+00 1.199117302894592063e+00 -6.061542034149169922e-01 1.800000000000000000e+01
2.178397655487060991e+00 1.360685348510741965e+00 -5.929709672927856445e-01 1.100000000000000000e+01
2.544574022293090820e+00 1.588791608810425027e+00 -5.831122994422912598e-01 1.400000000000000000e+01
3.018376588821411133e+00 1.883162260055541992e+00 -5.634769201278686523e-01 1.300000000000000000e+01
3.149605560302734020e+01 1.964272308349609020e+01 4.557669639587402344e+00 1.900000000000000000e+01
3.754871845245360884e+00 2.340840339660644975e+00 -5.432935357093811035e-01 1.000000000000000000e+01
4.978099822998046875e+00 3.102211952209473100e+00 -5.131729841232299805e-01 9.000000000000000000e+00
7.058084011077880859e+00 4.394979953765869141e+00 -4.357491731643676758e-01 1.000000000000000000e+00
3.113462829589844105e+01 1.937959861755371094e+01 8.466708183288574219e+00 1.100000000000000000e+01
1.163719558715819957e+01 7.240698337554931641e+00 -2.392375916242598932e-01 2.000000000000000000e+00
3.275145721435546875e+01 2.037012863159180043e+01 1.033464431762694957e+01 8.000000000000000000e+00
1.928984403610229048e+00 1.196487188339232954e+00 -6.082247495651245117e-01 1.900000000000000000e+01
2.186446905136107954e+00 1.355126261711121050e+00 -5.938707590103149414e-01 1.100000000000000000e+01
2.543428897857666016e+00 1.575763821601867898e+00 -5.815858244895935059e-01 1.400000000000000000e+01
3.024931669235229048e+00 1.872614741325377974e+00 -5.634769201278686523e-01 1.300000000000000000e+01
3.169609451293944957e+01 1.961413955688476918e+01 4.576681137084960938e+00 1.900000000000000000e+01
3.742761373519897017e+00 2.315187692642211914e+00 -5.403686761856079102e-01 9.000000000000000000e+00
4.971952438354492188e+00 3.074337959289550781e+00 -5.114299058914184570e-01 8.000000000000000000e+00
3.096177101135253906e+01 1.913731193542480113e+01 7.075197696685791016e+00 6.100000000000000000e+01
7.080178737640380859e+00 4.374515056610107422e+00 -4.361678659915924072e-01 1.000000000000000000e+00
3.122861289978026988e+01 1.928718566894530895e+01 8.473906517028808594e+00 1.100000000000000000e+01
1.171004295349120916e+01 7.229446411132813388e+00 -2.402149289846420011e-01 2.000000000000000000e+00
3.267417144775391336e+01 2.017210197448730113e+01 1.028909206390381037e+01 8.000000000000000000e+00
1.928213477134705034e+00 1.186708807945251021e+00 -6.066718697547912598e-01 2.100000000000000000e+01
2.201123714447021040e+00 1.353610873222351074e+00 -5.965701937675476074e-01 1.100000000000000000e+01
2.545568704605102983e+00 1.564819693565369096e+00 -5.808225870132446289e-01 1.300000000000000000e+01
3.044915437698363814e+00 1.870315551757812944e+00 -5.659798979759216309e-01 1.400000000000000000e+01
3.185571861267089844e+01 1.955946922302246094e+01 4.589843273162841797e+00 1.900000000000000000e+01
3.767738580703734907e+00 2.312492847442626953e+00 -5.428060293197631836e-01 1.000000000000000000e+01
4.987748146057128906e+00 3.060089588165283203e+00 -5.119528174400329590e-01 6.000000000000000000e+00
3.270197677612304688e+01 2.005550193786621094e+01 7.456815719604492188e+00 6.200000000000000000e+01
7.095405578613281250e+00 4.349773883819580078e+00 -4.361678659915924072e-01 2.000000000000000000e+00
3.140541267395019887e+01 1.924526214599609020e+01 8.503600120544433594e+00 1.100000000000000000e+01
1.171474456787109020e+01 7.175992488861083984e+00 -2.397960573434829989e-01 2.000000000000000000e+00
3.257654190063477273e+01 1.994729232788085938e+01 1.023525810241699041e+01 8.000000000000000000e+00
1.925749182701111062e+00 1.175943732261657937e+00 -6.046012639999389648e-01 2.100000000000000000e+01
2.204171895980834961e+00 1.344904184341431108e+00 -5.961202979087829590e-01 1.200000000000000000e+01
2.552691698074340820e+00 1.556946754455565962e+00 -5.812041759490966797e-01 1.300000000000000000e+01
3.046365261077880859e+00 1.856591343879699929e+00 -5.650413036346435547e-01 1.100000000000000000e+01
3.775787830352783203e+00 2.299326896667480025e+00 -5.428060293197631836e-01 9.000000000000000000e+00
4.979679107666015625e+00 3.031264543533325195e+00 -5.100353956222534180e-01 9.000000000000000000e+00
7.120784282684326172e+00 4.331207275390625000e+00 -4.367958903312683105e-01 2.000000000000000000e+00
3.175880050659180043e+01 1.930965232849121094e+01 8.580983161926269531e+00 1.100000000000000000e+01
1.170554447174072088e+01 7.114284992218017578e+00 -2.390979677438735962e-01 2.000000000000000000e+00
3.699748611450195312e+01 2.248598098754883168e+01 1.160078716278075994e+01 1.100000000000000000e+01
1.936451315879821999e+00 1.173218607902527078e+00 -6.066718697547912598e-01 2.200000000000000000e+01
2.200517654418944868e+00 1.332155942916869895e+00 -5.938707590103149414e-01 1.200000000000000000e+01
2.563149690628052202e+00 1.551076054573059082e+00 -5.823490619659423828e-01 1.400000000000000000e+01
3.051136970520019975e+00 1.844924092292786089e+00 -5.647284388542175293e-01 1.200000000000000000e+01
3.408110809326171875e+01 2.059962272644042969e+01 4.889641761779785156e+00 2.100000000000000000e+01
3.790587186813354048e+00 2.290239095687866211e+00 -5.437809824943542480e-01 1.000000000000000000e+01
5.008989810943604404e+00 3.025194168090819868e+00 -5.119528174400329590e-01 9.000000000000000000e+00
7.111919403076171875e+00 4.291877269744873047e+00 -4.353304803371428888e-01 2.000000000000000000e+00
3.184603309631348012e+01 1.921075630187987926e+01 8.586381912231445312e+00 1.100000000000000000e+01
1.178168106079101918e+01 7.104360103607177734e+00 -2.401451170444489081e-01 2.000000000000000000e+00
3.349925231933593750e+01 2.019209671020508168e+01 1.048061847686767933e+01 9.000000000000000000e+00
1.940534710884094016e+00 1.166451930999756081e+00 -6.066718697547912598e-01 2.100000000000000000e+01
2.198472023010253906e+00 1.320453047752379927e+00 -5.920711755752563477e-01 1.100000000000000000e+01
2.573597908020019975e+00 1.545151233673095925e+00 -5.834938883781433105e-01 1.300000000000000000e+01
3.055864334106444868e+00 1.833246231079102007e+00 -5.644155740737915039e-01 1.200000000000000000e+01
3.408130264282227273e+01 2.043765449523926137e+01 4.879404544830322266e+00 2.100000000000000000e+01
3.800261020660399947e+00 2.278014183044434038e+00 -5.440247654914855957e-01 1.000000000000000000e+01
3.162228012084960938e+01 1.895554161071776988e+01 5.839385509490966797e+00 1.300000000000000000e+01
5.024646759033203125e+00 3.010763406753540039e+00 -5.124757885932922363e-01 9.000000000000000000e+00
7.126857757568359375e+00 4.267025947570800781e+00 -4.353304803371428888e-01 2.000000000000000000e+00
3.208011245727539062e+01 1.919955062866210938e+01 8.631371498107910156e+00 1.100000000000000000e+01
1.182356834411620916e+01 7.073457241058349609e+00 -2.404941618442535123e-01 2.000000000000000000e+00
3.247517776489257812e+01 1.942829513549805043e+01 1.014001274108887074e+01 8.000000000000000000e+00
1.956209063529968040e+00 1.166597485542296919e+00 -6.102952957153320312e-01 2.000000000000000000e+01
2.209764242172241211e+00 1.316761136054992898e+00 -5.938707590103149414e-01 1.400000000000000000e+01
2.573915719985961914e+00 1.533144235610961914e+00 -5.823490619659423828e-01 1.400000000000000000e+01
3.070732355117797852e+00 1.827619552612304910e+00 -5.659798979759216309e-01 1.200000000000000000e+01
3.398183441162108664e+01 2.021706771850585938e+01 4.855031013488770419e+00 2.000000000000000000e+01
3.799658775329589844e+00 2.259661674499512163e+00 -5.428060293197631836e-01 9.000000000000000000e+00
3.168825531005859020e+01 1.884504318237305043e+01 5.839385509490966797e+00 1.300000000000000000e+01
5.045401096343994141e+00 2.999314308166503906e+00 -5.135216116905212402e-01 9.000000000000000000e+00
7.148577690124511719e+00 4.246202468872070312e+00 -4.357491731643676758e-01 1.000000000000000000e+00
3.236141586303710938e+01 1.921480178833008168e+01 8.688959121704101562e+00 1.100000000000000000e+01
1.181379508972167969e+01 7.011729717254638672e+00 -2.397960573434829989e-01 2.000000000000000000e+00
1.956944108009337935e+00 1.157794594764709029e+00 -6.092600226402282715e-01 2.000000000000000000e+01
2.221057176589965820e+00 1.313006401062011941e+00 -5.956704020500183105e-01 1.300000000000000000e+01
2.569110631942749023e+00 1.518157482147217019e+00 -5.800593495368957520e-01 1.300000000000000000e+01
3.078794240951538086e+00 1.817893862724303977e+00 -5.662927627563476562e-01 1.100000000000000000e+01
3.187767219543457031e+01 1.881487464904785156e+01 4.544995307922363281e+00 1.900000000000000000e+01
3.809232950210570845e+00 2.247393369674683061e+00 -5.430498123168945312e-01 1.000000000000000000e+01
3.192726516723633168e+01 1.882912063598633168e+01 5.870672702789306641e+00 1.300000000000000000e+01
5.040394306182861328e+00 2.972575187683105025e+00 -5.119528174400329590e-01 9.000000000000000000e+00
3.321613693237304688e+01 1.958142089843750000e+01 7.494977474212645596e+00 6.300000000000000000e+01
7.180563449859619141e+00 4.231363296508789062e+00 -4.367958903312683105e-01 2.000000000000000000e+00
1.188644695281982067e+01 6.998858451843261719e+00 -2.407733947038651068e-01 2.000000000000000000e+00
3.730783462524414062e+01 2.196722412109375000e+01 1.160078716278075994e+01 1.100000000000000000e+01
1.949311017990112083e+00 1.144111394882201926e+00 -6.056365370750427246e-01 2.100000000000000000e+01
2.228988885879517046e+00 1.307217121124268022e+00 -5.965701937675476074e-01 1.300000000000000000e+01
2.574394226074219194e+00 1.509180426597594993e+00 -5.800593495368957520e-01 1.300000000000000000e+01
3.085121154785155806e+00 1.807135820388793945e+00 -5.662927627563476562e-01 1.100000000000000000e+01
3.186092758178710938e+01 1.865534019470214844e+01 4.533295631408691406e+00 1.900000000000000000e+01
3.815341472625731978e+00 2.233080148696898970e+00 -5.428060293197631836e-01 1.000000000000000000e+01
5.047300815582275391e+00 2.952950716018677202e+00 -5.116041898727416992e-01 9.000000000000000000e+00
3.328428649902343750e+01 1.946535491943359020e+01 7.494977474212645596e+00 6.300000000000000000e+01
7.181495666503906250e+00 4.198208808898925781e+00 -4.359585046768187921e-01 2.000000000000000000e+00
1.193843269348145064e+01 6.973462104797363281e+00 -2.413318753242492953e-01 2.000000000000000000e+00
3.349096679687500000e+01 1.955486106872558949e+01 1.039158439636229936e+01 8.000000000000000000e+00
1.952895760536194070e+00 1.137981772422790971e+00 -6.056365370750427246e-01 2.200000000000000000e+01
2.229716539382935014e+00 1.298246979713439941e+00 -5.956704020500183105e-01 1.300000000000000000e+01
2.585909843444824219e+00 1.505035519599914995e+00 -5.815858244895935059e-01 1.200000000000000000e+01
3.083952665328979048e+00 1.793462514877318892e+00 -5.650413036346435547e-01 1.100000000000000000e+01
3.246855926513671875e+01 1.887439918518066051e+01 4.611292362213134766e+00 1.900000000000000000e+01
3.836068868637084961e+00 2.229061603546143022e+00 -5.447559356689453125e-01 9.000000000000000000e+00
3.211293411254882812e+01 1.865267562866210938e+01 5.881936073303222656e+00 1.300000000000000000e+01
5.056552886962890625e+00 2.937079429626464844e+00 -5.116041898727416992e-01 1.100000000000000000e+01
7.225742816925048828e+00 4.193672657012938565e+00 -4.378426074981688898e-01 2.000000000000000000e+00
3.284418869018554688e+01 1.905443191528319957e+01 8.766342163085937500e+00 1.100000000000000000e+01
1.192914390563965021e+01 6.917864799499511719e+00 -2.407035827636719028e-01 2.000000000000000000e+00
3.728558731079102273e+01 2.162239456176758168e+01 1.154902362823485973e+01 1.100000000000000000e+01
1.963546276092529075e+00 1.135025143623352051e+00 -6.077071428298950195e-01 2.200000000000000000e+01
2.220734596252440962e+00 1.282658576965332031e+00 -5.920711755752563477e-01 1.200000000000000000e+01
2.592847824096680132e+00 1.496981501579284890e+00 -5.819674134254455566e-01 1.200000000000000000e+01
3.100460767745972124e+00 1.788609147071837935e+00 -5.669184923171997070e-01 1.100000000000000000e+01
3.226597595214843750e+01 1.860625076293944957e+01 4.573268890380859375e+00 1.900000000000000000e+01
3.838666915893555132e+00 2.212683677673339844e+00 -5.440247654914855957e-01 1.000000000000000000e+01
5.090942859649658203e+00 2.933336496353148970e+00 -5.140445828437805176e-01 8.000000000000000000e+00
7.216104984283447266e+00 4.154473304748535156e+00 -4.363771975040435791e-01 2.000000000000000000e+00
3.288347625732421875e+01 1.892411613464355113e+01 8.759143829345703125e+00 1.100000000000000000e+01
1.195668601989745916e+01 6.878176212310791016e+00 -2.407733947038651068e-01 2.000000000000000000e+00
1.974002242088318093e+00 1.132352590560913086e+00 -6.097776889801025391e-01 2.100000000000000000e+01
2.238501548767089844e+00 1.283039808273314986e+00 -5.956704020500183105e-01 1.300000000000000000e+01
2.599501371383666992e+00 1.489351034164428933e+00 -5.823490619659423828e-01 1.100000000000000000e+01
3.102946281433105025e+00 1.776354908943176047e+00 -5.662927627563476562e-01 9.000000000000000000e+00
3.242398452758789062e+01 1.855436325073241832e+01 4.586918354034423828e+00 1.900000000000000000e+01
3.845983505249022993e+00 2.199942111968994141e+00 -5.440247654914855957e-01 1.000000000000000000e+01
5.091993808746337891e+00 2.911493539810181108e+00 -5.131729841232299805e-01 6.000000000000000000e+00
7.226373672485351562e+00 4.128539562225341797e+00 -4.361678659915924072e-01 2.000000000000000000e+00
3.320326995849608664e+01 1.896185874938964844e+01 8.827528953552246094e+00 1.200000000000000000e+01
1.198637580871582031e+01 6.842454433441162109e+00 -2.409130185842514038e-01 5.000000000000000000e+00
3.709970855712891336e+01 2.117846870422362926e+01 1.144653129577637074e+01 1.100000000000000000e+01
1.971226572990417036e+00 1.121633529663085938e+00 -6.077071428298950195e-01 2.100000000000000000e+01
2.256519317626953125e+00 1.282923460006714089e+00 -5.992696285247802734e-01 1.100000000000000000e+01
2.597856760025023970e+00 1.476387858390808105e+00 -5.808225870132446289e-01 1.100000000000000000e+01
3.115998983383179155e+00 1.769414544105530007e+00 -5.675442218780517578e-01 9.000000000000000000e+00
3.857092380523682085e+00 2.188462734222412109e+00 -5.445122122764587402e-01 1.000000000000000000e+01
5.105592250823974609e+00 2.895667314529418945e+00 -5.135216116905212402e-01 8.000000000000000000e+00
7.268542766571044922e+00 4.119045257568359375e+00 -4.378426074981688898e-01 2.000000000000000000e+00
3.368976593017578125e+01 1.908404541015625000e+01 8.939105033874511719e+00 1.200000000000000000e+01
1.200670719146729049e+01 6.798601627349854404e+00 -2.408432066440581998e-01 5.000000000000000000e+00
3.734520721435546875e+01 2.113750648498535156e+01 1.149829483032226918e+01 1.100000000000000000e+01
1.973447442054748979e+00 1.113796353340148926e+00 -6.071894764900207520e-01 2.000000000000000000e+01
2.250799179077147993e+00 1.269295454025268999e+00 -5.965701937675476074e-01 1.200000000000000000e+01
2.604704856872559038e+00 1.468274712562561035e+00 -5.812041759490966797e-01 1.200000000000000000e+01
3.132483243942261186e+00 1.764343380928039995e+00 -5.694214701652526855e-01 9.000000000000000000e+00
3.868167877197266069e+00 2.176932811737060991e+00 -5.449997186660766602e-01 1.000000000000000000e+01
5.101777076721191406e+00 2.870012760162353960e+00 -5.121271610260009766e-01 9.000000000000000000e+00
7.282876968383789062e+00 4.093647956848145419e+00 -4.378426074981688898e-01 2.000000000000000000e+00
1.206523609161376953e+01 6.776233673095703125e+00 -2.415413111448287964e-01 2.000000000000000000e+00
3.264325332641602273e+01 1.833352470397948863e+01 1.003182601928710938e+01 8.000000000000000000e+00
1.987437486648560014e+00 1.112562775611876997e+00 -6.102952957153320312e-01 1.900000000000000000e+01
2.251814603805541992e+00 1.259528398513793945e+00 -5.956704020500183105e-01 1.200000000000000000e+01
2.621809244155883789e+00 1.465880274772644043e+00 -5.838755369186401367e-01 1.200000000000000000e+01
3.128275871276855025e+00 1.747617840766906960e+00 -5.675442218780517578e-01 9.000000000000000000e+00
3.875743150711060014e+00 2.163417339324951172e+00 -5.449997186660766602e-01 1.000000000000000000e+01
3.243041992187500000e+01 1.809504699707030895e+01 5.881936073303222656e+00 1.300000000000000000e+01
5.134382724761962891e+00 2.864807128906250000e+00 -5.143932104110717773e-01 8.000000000000000000e+00
7.297122001647949219e+00 4.068201065063476562e+00 -4.378426074981688898e-01 2.000000000000000000e+00
1.206785297393799006e+01 6.722399234771729404e+00 -2.411224544048309049e-01 2.000000000000000000e+00
3.262941741943358664e+01 1.817622184753417969e+01 1.000801467895507990e+01 8.000000000000000000e+00
1.989619970321655051e+00 1.104680895805359109e+00 -6.097776889801025391e-01 1.900000000000000000e+01
2.251085281372069868e+00 1.248824357986449973e+00 -5.943207144737243652e-01 1.300000000000000000e+01
2.626910209655762163e+00 1.456719517707824929e+00 -5.838755369186401367e-01 1.200000000000000000e+01
3.134356975555419922e+00 1.736687421798706055e+00 -5.675442218780517578e-01 1.000000000000000000e+01
3.276671218872070312e+01 1.814793586730957031e+01 4.599105358123779297e+00 1.900000000000000000e+01
3.878061294555664062e+00 2.146990776062012163e+00 -5.442684888839721680e-01 9.000000000000000000e+00
5.158297538757324219e+00 2.854585170745850053e+00 -5.157876610755920410e-01 8.000000000000000000e+00
7.293799877166748047e+00 4.033040046691895419e+00 -4.367958903312683105e-01 2.000000000000000000e+00
3.357394027709960938e+01 1.855675315856933949e+01 8.856323242187500000e+00 1.200000000000000000e+01
1.211224842071533025e+01 6.691837787628173828e+00 -2.415413111448287964e-01 2.000000000000000000e+00
3.293933486938477273e+01 1.819099235534667969e+01 1.008255481719971058e+01 8.000000000000000000e+00
1.995156049728393999e+00 1.098660945892333984e+00 -6.102952957153320312e-01 1.900000000000000000e+01
2.260552883148192915e+00 1.243777155876159890e+00 -5.956704020500183105e-01 1.100000000000000000e+01
2.630258798599243164e+00 1.446594953536987083e+00 -5.834938883781433105e-01 1.300000000000000000e+01
3.136937856674193892e+00 1.723833203315735085e+00 -5.669184923171997070e-01 9.000000000000000000e+00
3.281594085693358664e+01 1.802580070495605113e+01 4.597155570983886719e+00 1.900000000000000000e+01
3.883791923522949219e+00 2.132485389709473100e+00 -5.440247654914855957e-01 1.000000000000000000e+01
5.176963329315186435e+00 2.841354846954346147e+00 -5.166592597961425781e-01 9.000000000000000000e+00
3.277236557006835938e+01 1.797953414916991832e+01 7.266006469726563388e+00 6.200000000000000000e+01
7.314837932586669922e+00 4.011396884918212891e+00 -4.372145831584929865e-01 2.000000000000000000e+00
3.355306625366210938e+01 1.839260864257812855e+01 8.833827972412109375e+00 1.200000000000000000e+01
1.214605617523193004e+01 6.655282974243164062e+00 -2.417507320642471036e-01 2.000000000000000000e+00
3.296535873413085938e+01 1.805548477172851918e+01 1.007116699218750000e+01 8.000000000000000000e+00
1.998978972434998003e+00 1.091689825057982954e+00 -6.102952957153320312e-01 1.900000000000000000e+01
2.270012617111206055e+00 1.238679170608520952e+00 -5.970200896263122559e-01 1.300000000000000000e+01
2.626674652099608931e+00 1.432704329490662065e+00 -5.815858244895935059e-01 1.300000000000000000e+01
3.165484666824340820e+00 1.725161552429198997e+00 -5.709857940673828125e-01 1.100000000000000000e+01
3.402569198608397727e+01 1.853600502014160156e+01 4.757535457611083984e+00 2.000000000000000000e+01
3.903415679931641069e+00 2.125560760498046875e+00 -5.457309484481811523e-01 1.000000000000000000e+01
5.179850101470947266e+00 2.819456577301024947e+00 -5.159620046615600586e-01 1.100000000000000000e+01
3.274869918823242188e+01 1.781811332702637074e+01 7.246925830841063565e+00 6.100000000000000000e+01
7.349850654602050781e+00 3.997289657592772993e+00 -4.384706318378447931e-01 1.000000000000000000e+00
3.461693191528320312e+01 1.881893539428710938e+01 9.096570968627929688e+00 1.200000000000000000e+01
1.216921329498291016e+01 6.612844944000244141e+00 -2.417507320642471036e-01 2.000000000000000000e+00
3.286691284179688211e+01 1.785270500183105113e+01 1.002199077606200994e+01 1.600000000000000000e+01
1.995982646942138894e+00 1.081025362014770952e+00 -6.082247495651245117e-01 1.900000000000000000e+01
2.279464244842528853e+00 1.233530163764954057e+00 -5.983697772026062012e-01 1.200000000000000000e+01
2.638566970825194868e+00 1.427263140678405984e+00 -5.831122994422912598e-01 1.300000000000000000e+01
3.155847072601317915e+00 1.705648422241210938e+00 -5.681699514389038086e-01 1.000000000000000000e+01
3.593799972534179688e+01 1.941539382934569957e+01 5.015410900115966797e+00 2.400000000000000000e+01
3.905571460723876953e+00 2.109092473983765093e+00 -5.449997186660766602e-01 1.000000000000000000e+01
5.189660549163818359e+00 2.801358461380004883e+00 -5.159620046615600586e-01 1.100000000000000000e+01
7.353211879730224609e+00 3.965920925140380859e+00 -4.378426074981688898e-01 1.000000000000000000e+00
3.479219055175781250e+01 1.875716972351073863e+01 9.125364303588867188e+00 1.200000000000000000e+01
1.222742938995360973e+01 6.589298725128173828e+00 -2.424488365650177002e-01 2.000000000000000000e+00
3.282527923583983664e+01 1.768198394775390980e+01 9.990415573120117188e+00 8.000000000000000000e+00
1.996340155601501021e+00 1.072223305702209029e+00 -6.071894764900207520e-01 1.800000000000000000e+01
2.283756017684936968e+00 1.225565791130065918e+00 -5.983697772026062012e-01 1.200000000000000000e+01
2.650453329086304155e+00 1.421756267547606978e+00 -5.846387743949890137e-01 1.300000000000000000e+01
3.167004823684691939e+00 1.697421550750731978e+00 -5.691086053848266602e-01 1.000000000000000000e+01
3.916409730911254883e+00 2.097321033477783203e+00 -5.454871654510498047e-01 1.000000000000000000e+01
3.476520538330078125e+01 1.861750984191894887e+01 6.246115207672119141e+00 1.400000000000000000e+01
5.204677104949951172e+00 2.786046743392943892e+00 -5.164849162101745605e-01 1.300000000000000000e+01
7.374055385589599609e+00 3.943997144699097124e+00 -4.382613003253936768e-01 2.000000000000000000e+00
1.223977375030517933e+01 6.540922164916992188e+00 -2.422394007444381991e-01 2.000000000000000000e+00
3.273720550537108664e+01 1.749472808837890980e+01 9.945898056030273438e+00 8.000000000000000000e+00
2.010301351547241211e+00 1.070697069168091042e+00 -6.102952957153320312e-01 1.800000000000000000e+01
2.284579515457152876e+00 1.215755581855773926e+00 -5.974699854850769043e-01 1.100000000000000000e+01
2.655400037765502930e+00 1.412495732307434082e+00 -5.846387743949890137e-01 1.300000000000000000e+01
3.164189100265502930e+00 1.681720852851867898e+00 -5.675442218780517578e-01 9.000000000000000000e+00
3.920200347900391069e+00 2.081775426864624023e+00 -5.449997186660766602e-01 1.000000000000000000e+01
5.210850715637207031e+00 2.765993833541870117e+00 -5.161362886428833008e-01 1.300000000000000000e+01
3.284677886962891336e+01 1.742819023132323863e+01 7.227844715118408203e+00 6.100000000000000000e+01
7.391306400299072266e+00 3.920104503631591797e+00 -4.384706318378447931e-01 1.000000000000000000e+00
1.230493736267090021e+01 6.520629405975341797e+00 -2.430771142244338989e-01 2.000000000000000000e+00
3.344982528686522727e+01 1.771824645996094105e+01 1.014260101318359020e+01 8.000000000000000000e+00
2.019151210784912109e+00 1.066379785537719949e+00 -6.118482351303100586e-01 1.900000000000000000e+01
2.292256355285644975e+00 1.209592461585998979e+00 -5.983697772026062012e-01 1.300000000000000000e+01
2.646422386169434038e+00 1.395890593528748003e+00 -5.815858244895935059e-01 1.200000000000000000e+01
3.189263105392456055e+00 1.680796384811400923e+00 -5.709857940673828125e-01 1.000000000000000000e+01
3.927443265914916992e+00 2.068078517913817915e+00 -5.449997186660766602e-01 1.000000000000000000e+01
3.367082977294921875e+01 1.773008918762207031e+01 6.027107238769531250e+00 1.300000000000000000e+01
5.224000453948974609e+00 2.749643802642821822e+00 -5.164849162101745605e-01 1.600000000000000000e+01
7.376661777496337891e+00 3.879405736923218218e+00 -4.367958903312683105e-01 2.000000000000000000e+00
1.232054328918457031e+01 6.473917007446289062e+00 -2.429374903440474909e-01 2.000000000000000000e+00
3.349813461303710938e+01 1.760183334350585938e+01 1.013949489593506037e+01 8.000000000000000000e+00
2.010881662368773970e+00 1.053051710128783958e+00 -6.082247495651245117e-01 1.700000000000000000e+01
2.303371429443358931e+00 1.205197453498840110e+00 -6.001694202423095703e-01 1.100000000000000000e+01
2.654758214950561968e+00 1.388464093208312988e+00 -5.823490619659423828e-01 1.300000000000000000e+01
3.188107728958129883e+00 1.665994048118591087e+00 -5.697343349456787109e-01 1.000000000000000000e+01
3.948715686798096147e+00 2.061706781387329102e+00 -5.469496250152587891e-01 1.000000000000000000e+01
3.360599517822266336e+01 1.753892707824707031e+01 6.003954887390136719e+00 1.300000000000000000e+01
5.215903282165527344e+00 2.722173452377318892e+00 -5.147418379783630371e-01 1.600000000000000000e+01
7.418493270874023438e+00 3.868408203125000000e+00 -4.384706318378447931e-01 1.000000000000000000e+00
1.231469154357909979e+01 6.416087150573729581e+00 -2.423790246248244962e-01 2.000000000000000000e+00
3.343563079833983664e+01 1.741290664672851918e+01 1.010118961334229049e+01 8.000000000000000000e+00
2.007505178451538086e+00 1.042815446853637917e+00 -6.061542034149169922e-01 1.800000000000000000e+01
2.310814619064331055e+00 1.199347972869873047e+00 -6.010692119598388672e-01 1.100000000000000000e+01
2.661090612411499023e+00 1.380557060241698997e+00 -5.827306509017944336e-01 1.300000000000000000e+01
3.193614721298218218e+00 1.655412673950195090e+00 -5.697343349456787109e-01 1.000000000000000000e+01
3.946717262268065962e+00 2.044036388397216797e+00 -5.457309484481811523e-01 1.000000000000000000e+01
3.363637161254882812e+01 1.742054557800292969e+01 5.999574661254882812e+00 1.300000000000000000e+01
5.221363067626953125e+00 2.703030109405518022e+00 -5.143932104110717773e-01 1.100000000000000000e+01
7.438376903533936435e+00 3.847456693649291992e+00 -4.388893246650695801e-01 2.000000000000000000e+00
3.407590866088867188e+01 1.761802673339844105e+01 8.856323242187500000e+00 1.200000000000000000e+01
1.234655952453612926e+01 6.380723476409912109e+00 -2.425884455442428866e-01 2.000000000000000000e+00
3.897518539428710938e+01 2.014244461059569957e+01 1.175556087493895951e+01 1.200000000000000000e+01
2.021437644958496094e+00 1.041108846664428933e+00 -6.092600226402282715e-01 1.700000000000000000e+01
2.313254356384276900e+00 1.190382719039916992e+00 -6.006193161010742188e-01 1.300000000000000000e+01
2.665893554687500000e+00 1.371259689331054910e+00 -5.827306509017944336e-01 1.200000000000000000e+01
3.202887773513793945e+00 1.646060705184936968e+00 -5.703600645065307617e-01 1.000000000000000000e+01
3.982082366943358931e+00 2.044755458831787109e+00 -5.496307611465454102e-01 1.100000000000000000e+01
3.385464859008789062e+01 1.737652397155762074e+01 6.027107238769531250e+00 1.300000000000000000e+01
5.213041305541992188e+00 2.675689697265625000e+00 -5.126500725746154785e-01 1.400000000000000000e+01
7.448207378387451172e+00 3.819645643234252930e+00 -4.386799931526184082e-01 1.000000000000000000e+00
3.403314971923828125e+01 1.744563484191894887e+01 8.829328536987304688e+00 1.200000000000000000e+01
1.238299369812012074e+01 6.344882011413574219e+00 -2.428676933050155917e-01 2.000000000000000000e+00
3.904874801635742188e+01 1.999945831298828125e+01 1.175556087493895951e+01 1.200000000000000000e+01
2.026780128479003906e+00 1.034924864768981934e+00 -6.097776889801025391e-01 1.600000000000000000e+01
2.303508281707764116e+00 1.175215840339661089e+00 -5.970200896263122559e-01 1.200000000000000000e+01
2.684655427932738814e+00 1.369080901145935059e+00 -5.857836008071899414e-01 1.200000000000000000e+01
3.205093860626221147e+00 1.633076906204224077e+00 -5.697343349456787109e-01 1.000000000000000000e+01
3.976812362670897993e+00 2.024538993835449219e+00 -5.479245781898498535e-01 1.000000000000000000e+01
5.225900650024414062e+00 2.659283638000487837e+00 -5.129987001419067383e-01 1.900000000000000000e+01
7.465055465698242188e+00 3.795433759689331055e+00 -4.388893246650695801e-01 2.000000000000000000e+00
1.241932964324950994e+01 6.308864116668701172e+00 -2.431469261646271030e-01 2.000000000000000000e+00
3.868426513671875000e+01 1.965112304687500000e+01 1.162615108489990057e+01 1.100000000000000000e+01
2.033827543258666992e+00 1.029588937759398970e+00 -6.108129620552062988e-01 1.600000000000000000e+01
2.316291332244873047e+00 1.171565651893615945e+00 -5.992696285247802734e-01 1.400000000000000000e+01
2.678905725479125977e+00 1.354386568069458008e+00 -5.834938883781433105e-01 1.100000000000000000e+01
3.221354007720946822e+00 1.627223014831542969e+00 -5.716115236282348633e-01 1.000000000000000000e+01
3.969677686691284180e+00 2.003489494323730025e+00 -5.459746718406677246e-01 1.000000000000000000e+01
3.397513198852539062e+01 1.713975143432616832e+01 6.027107238769531250e+00 1.300000000000000000e+01
5.231593608856201172e+00 2.639230966567993164e+00 -5.126500725746154785e-01 1.700000000000000000e+01
7.481825828552246094e+00 3.771150588989257812e+00 -4.390986859798430841e-01 1.000000000000000000e+00
3.423068618774414062e+01 1.724619483947753906e+01 8.849124908447265625e+00 1.200000000000000000e+01
1.242698764801025035e+01 6.258278369903563565e+00 -2.428676933050155917e-01 2.000000000000000000e+00
3.854551315307617188e+01 1.940323448181151988e+01 1.156299972534180043e+01 1.100000000000000000e+01
2.039135694503784180e+00 1.023349761962891069e+00 -6.113305687904357910e-01 1.600000000000000000e+01
2.323850870132445845e+00 1.165220141410828081e+00 -6.001694202423095703e-01 1.400000000000000000e+01
2.685372352600098100e+00 1.345906853675842063e+00 -5.838755369186401367e-01 1.200000000000000000e+01
3.218183040618896040e+00 1.611546039581299050e+00 -5.700471997261047363e-01 1.100000000000000000e+01
3.992624521255493164e+00 1.997614622116089089e+00 -5.481683015823364258e-01 1.400000000000000000e+01
5.240774631500244141e+00 2.620953083038330078e+00 -5.126500725746154785e-01 1.300000000000000000e+01
7.527103424072265625e+00 3.761080265045166016e+00 -4.409827589988707941e-01 2.000000000000000000e+00
3.396989822387695312e+01 1.696638679504394887e+01 8.766342163085937500e+00 1.100000000000000000e+01
1.244517898559569957e+01 6.213075637817382812e+00 -2.427978813648223877e-01 2.000000000000000000e+00
2.032317638397216797e+00 1.011062741279602051e+00 -6.082247495651245117e-01 1.800000000000000000e+01
2.334884405136107954e+00 1.160570859909058061e+00 -6.019690036773681641e-01 1.400000000000000000e+01
2.688295841217041016e+00 1.335651397705077903e+00 -5.834938883781433105e-01 1.100000000000000000e+01
3.225558042526245117e+00 1.601180911064147949e+00 -5.703600645065307617e-01 1.100000000000000000e+01
3.994238138198852983e+00 1.981019496917725053e+00 -5.474370718002319336e-01 1.000000000000000000e+01
5.249891281127929688e+00 2.602643489837646040e+00 -5.126500725746154785e-01 9.000000000000000000e+00
7.540185928344726562e+00 3.734782934188843218e+00 -4.409827589988707941e-01 1.000000000000000000e+00
3.245713806152343750e+01 1.606952095031737926e+01 8.361431121826171875e+00 1.000000000000000000e+01
1.245603752136229936e+01 6.164274215698242188e+00 -2.425884455442428866e-01 2.000000000000000000e+00
3.730169296264647727e+01 1.845184898376464844e+01 1.115095996856688920e+01 1.000000000000000000e+01
2.047962903976439986e+00 1.009943485260009988e+00 -6.118482351303100586e-01 1.600000000000000000e+01
2.335425138473511186e+00 1.150690913200377974e+00 -6.010692119598388672e-01 1.400000000000000000e+01
3.799942398071289062e+01 1.871451377868651988e+01 2.219882011413574219e+00 2.800000000000000000e+01
2.699986696243286133e+00 1.329728960990905984e+00 -5.850203633308410645e-01 1.200000000000000000e+01
3.222265481948852983e+00 1.585551142692565918e+00 -5.687957406044006348e-01 1.100000000000000000e+01
4.004691600799561435e+00 1.968816518783568892e+00 -5.479245781898498535e-01 1.000000000000000000e+01
3.414982604980468750e+01 1.678899192810058949e+01 6.027107238769531250e+00 1.300000000000000000e+01
5.266097068786621094e+00 2.587816953659058061e+00 -5.133473277091979980e-01 9.000000000000000000e+00
7.556762695312500000e+00 3.710200548171997070e+00 -4.411921203136444092e-01 2.000000000000000000e+00
3.230310440063477273e+01 1.585310077667235973e+01 8.307442665100097656e+00 1.000000000000000000e+01
1.247747898101806996e+01 6.120757102966308594e+00 -2.425884455442428866e-01 2.000000000000000000e+00
3.765752792358397727e+01 1.847268867492676137e+01 1.123895835876465021e+01 1.000000000000000000e+01
2.053211450576781782e+00 1.003637075424193892e+00 -6.123658418655395508e-01 1.800000000000000000e+01
3.823920440673828125e+01 1.868356513977051137e+01 7.428791522979736328e-01 4.200000000000000000e+01
2.328921079635620117e+00 1.137400627136230025e+00 -5.983697772026062012e-01 1.400000000000000000e+01
2.702847480773925781e+00 1.319435000419616921e+00 -5.846387743949890137e-01 1.200000000000000000e+01
3.236657857894897017e+00 1.578623414039612038e+00 -5.703600645065307617e-01 1.000000000000000000e+01
4.016893386840820312e+00 1.957434296607970969e+00 -5.486558079719543457e-01 1.100000000000000000e+01
5.266141891479492188e+00 2.565056800842285156e+00 -5.124757885932922363e-01 1.100000000000000000e+01
7.551708698272705078e+00 3.675060033798218218e+00 -4.401454031467437744e-01 1.000000000000000000e+00
3.228814697265625000e+01 1.570614814758300959e+01 8.289445877075195312e+00 1.000000000000000000e+01
1.255631637573242010e+01 6.105146408081054688e+00 -2.437054067850112915e-01 2.000000000000000000e+00
3.581067276000977273e+01 1.741190528869628906e+01 1.066955661773681996e+01 9.000000000000000000e+00
2.060004949569702148e+00 9.985080361366271973e-01 -6.134011149406433105e-01 1.700000000000000000e+01
2.348465204238892046e+00 1.137315750122070090e+00 -6.024188995361328125e-01 1.500000000000000000e+01
2.712509393692017046e+00 1.313030958175658958e+00 -5.857836008071899414e-01 1.300000000000000000e+01
3.245431423187255859e+00 1.569601774215698020e+00 -5.709857940673828125e-01 1.000000000000000000e+01
3.858777618408203125e+01 1.865406036376953125e+01 5.262561798095703125e+00 3.100000000000000000e+01
4.019787311553955078e+00 1.942375779151916948e+00 -5.481683015823364258e-01 9.000000000000000000e+00
3.426620101928710938e+01 1.655017471313476918e+01 6.027107238769531250e+00 1.300000000000000000e+01
5.272825241088867188e+00 2.546712875366210938e+00 -5.123014450073242188e-01 9.000000000000000000e+00
7.578244209289550781e+00 3.656941652297974077e+00 -4.409827589988707941e-01 2.000000000000000000e+00
1.253326225280762074e+01 6.042632102966308594e+00 -2.428676933050155917e-01 2.000000000000000000e+00
2.059995174407958984e+00 9.896380901336669922e-01 -6.123658418655395508e-01 1.600000000000000000e+01
2.352420806884766069e+00 1.129111170768738015e+00 -6.024188995361328125e-01 1.600000000000000000e+01
2.701145410537720171e+00 1.295911550521851030e+00 -5.823490619659423828e-01 1.200000000000000000e+01
3.259797096252440962e+00 1.562532782554626021e+00 -5.725501179695129395e-01 1.000000000000000000e+01
3.862759399414063211e+01 1.850724220275878906e+01 5.259149551391601562e+00 3.100000000000000000e+01
4.039075851440429688e+00 1.934334158897399902e+00 -5.498744845390319824e-01 7.000000000000000000e+00
3.432376098632813211e+01 1.643046188354491832e+01 6.027107238769531250e+00 1.300000000000000000e+01
5.299653530120849609e+00 2.536894321441649947e+00 -5.140445828437805176e-01 9.000000000000000000e+00
7.608981132507324219e+00 3.639083623886107954e+00 -4.420294761657714844e-01 2.000000000000000000e+00
3.203564071655272727e+01 1.531454753875732067e+01 8.197666168212890625e+00 1.000000000000000000e+01
1.255788707733153942e+01 6.000570297241210938e+00 -2.429374903440474909e-01 2.000000000000000000e+00
3.502139282226563211e+01 1.672686195373535156e+01 1.039934921264648082e+01 8.000000000000000000e+00
2.052971839904785156e+00 9.774585366249084473e-01 -6.092600226402282715e-01 1.800000000000000000e+01
2.358107566833496094e+00 1.121729850769042969e+00 -6.028688549995422363e-01 1.600000000000000000e+01
2.712744712829589844e+00 1.289847016334533913e+00 -5.838755369186401367e-01 1.200000000000000000e+01
3.261662960052489790e+00 1.549449205398560014e+00 -5.719243884086608887e-01 9.000000000000000000e+00
4.038630008697509766e+00 1.916818737983704057e+00 -5.488995313644409180e-01 6.000000000000000000e+00
3.460578155517578125e+01 1.641723251342773082e+01 6.066528320312500000e+00 1.400000000000000000e+01
5.295876026153563565e+00 2.512401819229125977e+00 -5.128244161605834961e-01 9.000000000000000000e+00
7.610808849334716797e+00 3.607368707656859907e+00 -4.414014518260955811e-01 2.000000000000000000e+00
3.208185958862304688e+01 1.519929122924805043e+01 8.195866584777832031e+00 1.000000000000000000e+01
1.256068420410156072e+01 5.948140144348145419e+00 -2.425884455442428866e-01 2.000000000000000000e+00
3.487413787841796875e+01 1.651472473144530895e+01 1.033930301666259943e+01 8.000000000000000000e+00
2.061612606048583984e+00 9.727594852447509766e-01 -6.108129620552062988e-01 1.500000000000000000e+01
2.363771438598632812e+00 1.114322662353516069e+00 -6.033187508583068848e-01 1.500000000000000000e+01
2.731438398361206055e+00 1.287064671516418013e+00 -5.869284868240356445e-01 1.200000000000000000e+01
3.261690139770507812e+00 1.535530209541321023e+00 -5.709857940673828125e-01 1.000000000000000000e+01
4.054277896881104404e+00 1.906934142112731934e+00 -5.501182079315185547e-01 1.000000000000000000e+01
5.302810668945313388e+00 2.493052721023560014e+00 -5.126500725746154785e-01 9.000000000000000000e+00
7.634201049804688388e+00 3.585874795913695845e+00 -4.420294761657714844e-01 2.000000000000000000e+00
1.256688785552979049e+01 5.897462368011474609e+00 -2.423092126846312921e-01 5.000000000000000000e+00
