-2.645241737365723100e+00 -4.095187187194824219e+00 -7.721605300903320312e-01 1.000000000000000000e+01
-3.131707668304442915e+00 -4.844590187072753906e+00 -7.083046436309814453e-01 2.600000000000000000e+01
-3.818106412887572798e+00 -5.904153347015380859e+00 -6.151452064514160156e-01 1.100000000000000000e+01
-1.903446197509765980e+01 -2.938904762268066051e+01 -6.111832857131958008e-01 7.000000000000000000e+00
-1.498681068420409934e+00 -2.306885004043579102e+00 -7.371166348457336426e-01 1.600000000000000000e+01
-1.754780054092407005e+00 -2.699029445648192915e+00 -7.432382702827453613e-01 1.400000000000000000e+01
-2.109786272048950195e+00 -3.243825912475585938e+00 -7.521690726280212402e-01 1.300000000000000000e+01
-8.996971845626831055e-01 -1.382768869400023970e+00 1.443299055099487027e-01 1.900000000000000000e+01
-2.664908647537231001e+00 -4.094206809997558594e+00 -7.737248539924621582e-01 1.200000000000000000e+01
-9.001324772834777832e-01 -1.382382154464721902e+00 2.025468498468399048e-01 2.000000000000000000e+00
-3.159434318542480025e+00 -4.850262165069580078e+00 -7.107419967651367188e-01 2.200000000000000000e+01
-3.873500585556029829e+00 -5.944205760955811435e+00 -6.207231879234313965e-01 1.200000000000000000e+01
-1.915442085266112926e+01 -2.934921836853026988e+01 -6.117417216300964355e-01 7.000000000000000000e+00
-9.114294648170471191e-01 -1.395998597145081010e+00 4.467216730117797852e-01 1.000000000000000000e+00
-1.502492070198059082e+00 -2.295174121856689009e+00 -7.350460886955261230e-01 1.400000000000000000e+01
-1.763122797012329102e+00 -2.691257476806641069e+00 -7.427883744239807129e-01 1.500000000000000000e+01
-2.126477241516112837e+00 -3.244651794433594194e+00 -7.540771365165710449e-01 1.200000000000000000e+01
-9.067032933235168457e-01 -1.382952332496643066e+00 1.446785330772399902e-01 2.700000000000000000e+01
-2.671600103378295898e+00 -4.073317050933837891e+00 -7.715348005294799805e-01 1.000000000000000000e+01
-9.027744531631469727e-01 -1.375912189483643022e+00 2.020593732595444003e-01 1.200000000000000000e+01
-3.175256252288817915e+00 -4.837544918060302734e+00 -7.104982733726501465e-01 2.000000000000000000e+01
-9.020866155624389648e-01 -1.373818039894104004e+00 2.603069543838500977e-01 1.000000000000000000e+00
-3.896413326263428178e+00 -5.933979034423828125e+00 -6.210718154907226562e-01 1.200000000000000000e+01
-9.248136878013610840e-01 -1.407894253730773926e+00 3.274282217025756836e-01 1.000000000000000000e+00
-1.916445541381835938e+01 -2.914183235168457031e+01 -6.088097691535949707e-01 6.000000000000000000e+00
-9.184203147888183594e-01 -1.396036505699157937e+00 4.477569460868834894e-01 1.500000000000000000e+01
-1.514749526977539062e+00 -2.296365976333618164e+00 -7.371166348457336426e-01 1.400000000000000000e+01
-1.767138361930846946e+00 -2.676954984664916992e+00 -7.405388951301574707e-01 1.300000000000000000e+01
-2.137790441513061968e+00 -3.237209320068358931e+00 -7.540771365165710449e-01 1.200000000000000000e+01
-9.422754049301147461e-01 -1.426325678825377974e+00 1.495592594146729071e-01 7.000000000000000000e+00
-2.685802459716796875e+00 -4.063966274261474609e+00 -7.715348005294799805e-01 1.200000000000000000e+01
-8.977187871932983398e-01 -1.357849240303039995e+00 1.998657286167145053e-01 2.200000000000000000e+01
-3.197598457336425781e+00 -4.834710121154785156e+00 -7.117169499397277832e-01 2.600000000000000000e+01
-9.055476784706115723e-01 -1.369171500205994096e+00 2.599940896034240723e-01 1.000000000000000000e+01
-3.921500682830810991e+00 -5.926988601684570312e+00 -6.217690706253051758e-01 1.500000000000000000e+01
-8.874624371528625488e-01 -1.340809464454651101e+00 3.125451207160950262e-01 8.000000000000000000e+00
-9.190182685852050781e-01 -1.386381268501281960e+00 4.456863999366760254e-01 2.600000000000000000e+01
-1.522756099700927956e+00 -2.291064500808715820e+00 -7.371166348457336426e-01 1.300000000000000000e+01
-1.776471972465514915e+00 -2.670770168304442915e+00 -7.405388951301574707e-01 1.300000000000000000e+01
-2.143639326095581055e+00 -3.221554994583129883e+00 -7.521690726280212402e-01 1.200000000000000000e+01
-9.715369343757629395e-01 -1.459515810012816939e+00 1.533941030502319058e-01 3.000000000000000000e+00
-2.699971914291381836e+00 -4.054566383361816406e+00 -7.715348005294799805e-01 1.000000000000000000e+01
-8.980508446693420410e-01 -1.348099112510680930e+00 1.988907754421234131e-01 2.900000000000000000e+01
-3.180329322814940962e+00 -4.772310256958007812e+00 -7.041610479354858398e-01 2.400000000000000000e+01
-8.927941918373107910e-01 -1.339701294898987038e+00 2.549881637096405029e-01 2.400000000000000000e+01
-3.922272682189940962e+00 -5.883423805236816406e+00 -6.186314821243286133e-01 1.000000000000000000e+01
-9.161019325256347656e-01 -1.373636841773987038e+00 3.209407329559326172e-01 2.600000000000000000e+01
-9.509140253067016602e-01 -1.424757838249206987e+00 3.954639434814453125e-01 1.000000000000000000e+00
-1.944294166564941051e+01 -2.912042045593262074e+01 -6.111832857131958008e-01 7.000000000000000000e+00
-9.281440377235412598e-01 -1.389590740203856978e+00 4.477569460868834894e-01 3.500000000000000000e+01
-1.533969044685363992e+00 -2.290550708770751953e+00 -7.386695742607116699e-01 1.300000000000000000e+01
-1.790123462677001953e+00 -2.671028137207030806e+00 -7.423384785652160645e-01 1.400000000000000000e+01
-2.152684926986693892e+00 -3.210791349411011186e+00 -7.514058351516723633e-01 1.300000000000000000e+01
-9.666374325752258301e-01 -1.441223502159119096e+00 1.518253087997437079e-01 6.000000000000000000e+00
-2.715209245681763139e+00 -4.046757698059082031e+00 -7.718476653099060059e-01 1.200000000000000000e+01
-9.093890190124511719e-01 -1.354845404624938965e+00 2.003532052040100098e-01 4.400000000000000000e+01
-3.213567256927489790e+00 -4.785900592803955078e+00 -7.078171372413635254e-01 3.000000000000000000e+01
-8.864533305168151855e-01 -1.320176959037780984e+00 2.518594861030579168e-01 4.200000000000000000e+01
-3.960561037063599077e+00 -5.896159172058104581e+00 -6.214204430580139160e-01 1.500000000000000000e+01
-9.143212437629699707e-01 -1.360653519630431907e+00 3.186510205268859863e-01 3.300000000000000000e+01
-1.572987842559813920e+01 -2.339970588684082031e+01 -1.477653384208678977e+00 1.300000000000000000e+01
-9.308698773384094238e-01 -1.384236574172974077e+00 3.851162195205687921e-01 9.000000000000000000e+00
-1.967395210266112926e+01 -2.924483871459960938e+01 -6.152322292327880859e-01 7.000000000000000000e+00
-9.198071360588073730e-01 -1.367270469665526900e+00 4.415452778339385986e-01 4.100000000000000000e+01
-1.531149625778198020e+00 -2.269168376922606978e+00 -7.334931492805480957e-01 1.300000000000000000e+01
-1.801617383956908958e+00 -2.667993307113647017e+00 -7.432382702827453613e-01 1.400000000000000000e+01
-2.164978742599486861e+00 -3.204884290695189986e+00 -7.517874240875244141e-01 1.400000000000000000e+01
-9.359641075134277344e-01 -1.385015130043030007e+00 1.462473422288894931e-01 2.000000000000000000e+01
-2.730424880981444868e+00 -4.038891315460205078e+00 -7.721605300903320312e-01 1.000000000000000000e+01
-9.085524678230285645e-01 -1.343441009521483931e+00 1.991345137357712070e-01 4.600000000000000000e+01
-3.231365919113159180e+00 -4.776298046112061435e+00 -7.080608606338500977e-01 3.100000000000000000e+01
-8.910562396049499512e-01 -1.317074656486511008e+00 2.518594861030579168e-01 4.700000000000000000e+01
-4.006803035736083984e+00 -5.920248508453369141e+00 -6.254296302795410156e-01 1.400000000000000000e+01
-9.168639183044433594e-01 -1.354202270507812944e+00 3.178877830505371094e-01 3.800000000000000000e+01
-1.577338218688965021e+01 -2.328843116760253906e+01 -1.474094510078429954e+00 1.300000000000000000e+01
-9.236719608306884766e-01 -1.363232493400573953e+00 3.801672756671906073e-01 1.800000000000000000e+01
-1.996665000915526988e+01 -2.945738410949707031e+01 -6.211660504341125488e-01 7.000000000000000000e+00
-9.193913340568542480e-01 -1.355895400047302024e+00 4.389570951461791992e-01 4.500000000000000000e+01
-1.544491887092590110e+00 -2.271797657012939009e+00 -7.360813617706298828e-01 1.200000000000000000e+01
-1.810919404029845969e+00 -2.661688089370727983e+00 -7.432382702827453613e-01 1.300000000000000000e+01
-2.175047874450684038e+00 -3.195684432983397993e+00 -7.514058351516723633e-01 1.300000000000000000e+01
-9.295797348022460938e-01 -1.365270733833312988e+00 1.445042192935943881e-01 2.800000000000000000e+01
-2.741170406341553178e+00 -4.024437904357910156e+00 -7.712219357490539551e-01 1.200000000000000000e+01
-9.031763076782226562e-01 -1.325497269630431907e+00 1.969408541917800903e-01 4.300000000000000000e+01
-3.267025947570800781e+00 -4.792873859405517578e+00 -7.122044563293457031e-01 1.800000000000000000e+01
-8.978734612464904785e-01 -1.317220687866210938e+00 2.524852156639099121e-01 4.900000000000000000e+01
-4.030811309814453125e+00 -5.911164760589599609e+00 -6.259525418281555176e-01 1.300000000000000000e+01
-9.027774930000305176e-01 -1.323422312736511008e+00 3.114002943038939875e-01 3.200000000000000000e+01
-9.251286983489990234e-01 -1.355171561241149902e+00 3.788175880908966064e-01 2.600000000000000000e+01
-2.014153099060058949e+01 -2.949319458007812855e+01 -6.233999729156494141e-01 7.000000000000000000e+00
-9.206141233444213867e-01 -1.348053097724914995e+00 4.374041855335236151e-01 4.600000000000000000e+01
-1.558962821960448997e+00 -2.275955438613892046e+00 -7.391871809959411621e-01 1.400000000000000000e+01
-1.812486767768860085e+00 -2.644099235534667969e+00 -7.400889396667480469e-01 1.300000000000000000e+01
-9.499394893646240234e-01 -1.385276079177856001e+00 8.802907913923263550e-02 6.000000000000000000e+00
-2.192851543426514116e+00 -3.197787523269652876e+00 -7.536955475807189941e-01 1.300000000000000000e+01
-9.343397617340087891e-01 -1.362017512321471946e+00 1.445042192935943881e-01 4.200000000000000000e+01
-2.749613046646118164e+00 -4.006701469421386719e+00 -7.696575522422790527e-01 1.000000000000000000e+01
-8.999330401420593262e-01 -1.310880541801453081e+00 1.952346861362456998e-01 4.200000000000000000e+01
-3.264631748199462891e+00 -4.753622531890869141e+00 -7.080608606338500977e-01 1.600000000000000000e+01
-8.982209563255310059e-01 -1.307408332824707031e+00 2.512337565422058105e-01 5.000000000000000000e+01
-4.073985099792479581e+00 -5.929902076721191406e+00 -6.294387578964233398e-01 1.300000000000000000e+01
-9.062796235084533691e-01 -1.318645000457763894e+00 3.110186755657196045e-01 2.800000000000000000e+01
-9.265404939651489258e-01 -1.347117185592650923e+00 3.774678707122802734e-01 3.600000000000000000e+01
-9.233581423759460449e-01 -1.341487169265747070e+00 4.363689124584197998e-01 5.100000000000000000e+01
-1.570189595222472922e+00 -2.275269746780395952e+00 -7.407401204109191895e-01 1.300000000000000000e+01
-1.830564618110656960e+00 -2.650584220886230025e+00 -7.436881661415100098e-01 1.300000000000000000e+01
-9.400106072425842285e-01 -1.360589861869812012e+00 8.666834235191345215e-02 3.200000000000000000e+01
-2.201768636703491211e+00 -3.186882972717285156e+00 -7.529323101043701172e-01 1.400000000000000000e+01
-9.345571994781494141e-01 -1.352191686630249023e+00 1.438069790601730069e-01 4.800000000000000000e+01
-2.771446228027344194e+00 -4.008452892303466797e+00 -7.718476653099060059e-01 1.000000000000000000e+01
-9.011157155036926270e-01 -1.302833437919616921e+00 1.945034712553024014e-01 4.300000000000000000e+01
-3.294759273529053178e+00 -4.761786937713623047e+00 -7.109857201576232910e-01 3.300000000000000000e+01
-9.081714153289794922e-01 -1.312544822692871094e+00 2.527981102466583252e-01 5.700000000000000000e+01
-4.058373451232910156e+00 -5.863221645355224609e+00 -6.238608360290527344e-01 1.000000000000000000e+01
-9.108769893646240234e-01 -1.315473437309264915e+00 3.110186755657196045e-01 3.800000000000000000e+01
-1.565928077697754084e+01 -2.260644149780273082e+01 -1.441227555274962935e+00 1.300000000000000000e+01
-9.134781956672668457e-01 -1.318246603012084961e+00 3.702694475650786798e-01 4.900000000000000000e+01
-9.289022088050842285e-01 -1.340005517005919966e+00 4.368865489959716797e-01 5.300000000000000000e+01
-1.573711037635803001e+00 -2.263430356979370117e+00 -7.386695742607116699e-01 1.300000000000000000e+01
-9.568505287170410156e-01 -1.375702500343322976e+00 2.925023250281811107e-02 8.000000000000000000e+00
-1.835353732109070046e+00 -2.637779712677001953e+00 -7.418885827064514160e-01 1.300000000000000000e+01
-9.367672204971313477e-01 -1.345825552940369096e+00 8.593563735485076904e-02 5.100000000000000000e+01
-2.206150054931641069e+00 -3.169510126113892046e+00 -7.506425976753234863e-01 1.400000000000000000e+01
-9.278864264488220215e-01 -1.332570672035217063e+00 1.420638561248779019e-01 5.500000000000000000e+01
-2.782034158706665039e+00 -3.993891477584838867e+00 -7.709090709686279297e-01 1.000000000000000000e+01
-9.113325476646423340e-01 -1.307823300361633079e+00 1.957221627235412875e-01 4.200000000000000000e+01
-3.327253580093383789e+00 -4.773056030273438388e+00 -7.143980860710144043e-01 2.000000000000000000e+01
-9.050666093826293945e-01 -1.297865152359009011e+00 2.506080269813538153e-01 5.800000000000000000e+01
-4.131238937377929688e+00 -5.924195289611816406e+00 -6.318791508674621582e-01 1.000000000000000000e+01
-9.154633283615112305e-01 -1.312285900115967019e+00 3.110186755657196045e-01 4.600000000000000000e+01
-9.214206933975219727e-01 -1.319843530654907005e+00 3.716191351413726807e-01 5.800000000000000000e+01
-9.282752871513366699e-01 -1.328673720359802024e+00 4.342983663082122803e-01 5.600000000000000000e+01
-1.571627259254456010e+00 -2.243682622909545898e+00 -7.340108156204223633e-01 1.300000000000000000e+01
-9.421384334564208984e-01 -1.344514012336730957e+00 2.865685150027275085e-02 3.600000000000000000e+01
-1.847905874252318892e+00 -2.636144399642943892e+00 -7.432382702827453613e-01 1.400000000000000000e+01
-9.391658306121826172e-01 -1.339276909828186035e+00 8.572629839181900024e-02 5.500000000000000000e+01
-2.216073036193848100e+00 -3.160182476043701172e+00 -7.502609491348266602e-01 1.300000000000000000e+01
-9.268112778663635254e-01 -1.321168303489685059e+00 1.411923021078110019e-01 5.800000000000000000e+01
-2.792554378509521040e+00 -3.979305267333983931e+00 -7.699704170227050781e-01 9.000000000000000000e+00
-9.158921241760253906e-01 -1.304634213447571023e+00 1.957221627235412875e-01 4.800000000000000000e+01
-3.337049245834351030e+00 -4.751665592193604404e+00 -7.129356861114501953e-01 2.800000000000000000e+01
-9.070948958396911621e-01 -1.291623711585998979e+00 2.499822825193404874e-01 5.800000000000000000e+01
-4.102643013000488281e+00 -5.839636802673339844e+00 -6.243837475776672363e-01 7.000000000000000000e+00
-9.177806973457336426e-01 -1.305869817733765093e+00 3.102554380893707275e-01 6.000000000000000000e+01
-9.293854832649230957e-01 -1.321401119232177956e+00 3.729688525199890137e-01 8.000000000000000000e+01
-9.248946905136108398e-01 -1.314528465270996094e+00 4.306748807430266779e-01 6.200000000000000000e+01
-1.581677198410033958e+00 -2.241339921951293945e+00 -7.350460886955261230e-01 1.100000000000000000e+01
-9.387531280517578125e-01 -1.329781651496886985e+00 2.841251716017723083e-02 4.400000000000000000e+01
-1.857096433639525923e+00 -2.629677772521973100e+00 -7.432382702827453613e-01 1.300000000000000000e+01
-9.449874758720397949e-01 -1.337621688842772993e+00 8.583097159862518311e-02 5.000000000000000000e+01
-2.232754707336425781e+00 -3.160444974899291992e+00 -7.521690726280212402e-01 1.400000000000000000e+01
-9.314173460006713867e-01 -1.317925095558166948e+00 1.411923021078110019e-01 5.600000000000000000e+01
-2.803006649017333984e+00 -3.964694261550902876e+00 -7.690318226814270020e-01 1.000000000000000000e+01
-9.124168157577514648e-01 -1.290084242820739968e+00 1.940159946680068970e-01 4.800000000000000000e+01
-3.323805332183837891e+00 -4.697854995727539062e+00 -7.065984606742858887e-01 2.000000000000000000e+01
-9.118228554725646973e-01 -1.288290262222290039e+00 2.499822825193404874e-01 5.800000000000000000e+01
-4.064299583435058594e+00 -5.742341041564941406e+00 -6.154938340187072754e-01 8.000000000000000000e+00
-9.166610836982727051e-01 -1.294646859169005904e+00 3.083473443984984796e-01 6.500000000000000000e+01
-9.418789148330688477e-01 -1.329279184341431108e+00 3.761181533336638849e-01 8.900000000000000000e+01
-9.806217551231384277e-01 -1.383445262908935991e+00 -2.959928102791309010e-02 8.000000000000000000e+00
-9.252367019653320312e-01 -1.304826140403748003e+00 4.286043345928192139e-01 5.600000000000000000e+01
-1.592458367347717063e+00 -2.240806579589844194e+00 -7.365990281105041504e-01 1.100000000000000000e+01
-9.431576728820800781e-01 -1.326661348342895952e+00 2.841251716017723083e-02 4.900000000000000000e+01
-1.855641841888427956e+00 -2.609212398529053178e+00 -7.391891479492187500e-01 1.300000000000000000e+01
-9.471023678779602051e-01 -1.331225752830504927e+00 8.562162518501281738e-02 5.200000000000000000e+01
-2.242084741592406782e+00 -3.151423692703247070e+00 -7.517874240875244141e-01 1.300000000000000000e+01
-9.334720373153686523e-01 -1.311582684516906960e+00 1.408436745405196866e-01 5.800000000000000000e+01
-2.818429946899414062e+00 -3.958595752716064009e+00 -7.696575522422790527e-01 1.000000000000000000e+01
-9.074769020080566406e-01 -1.274116277694701926e+00 1.920660883188247958e-01 5.200000000000000000e+01
-3.384289979934691939e+00 -4.749858379364013672e+00 -7.161042690277099609e-01 2.200000000000000000e+01
-9.147193431854248047e-01 -1.283810615539551003e+00 2.496694028377532959e-01 6.400000000000000000e+01
-4.145766258239746094e+00 -5.816443443298339844e+00 -6.249066591262817383e-01 6.000000000000000000e+00
-9.152503013610839844e-01 -1.283607363700866921e+00 3.064392507076262873e-01 7.200000000000000000e+01
-9.428860545158386230e-01 -1.321389555931091087e+00 3.747684657573699951e-01 8.500000000000000000e+01
-9.921748042106628418e-01 -1.389951229095458984e+00 -2.980870939791202892e-02 2.800000000000000000e+01
-9.338209033012390137e-01 -1.308202505111693892e+00 4.306748807430266779e-01 5.800000000000000000e+01
-1.607017993927001953e+00 -2.244658946990966797e+00 -7.397048473358154297e-01 1.200000000000000000e+01
-9.512758851051330566e-01 -1.328238248825073020e+00 2.851723134517670025e-02 5.000000000000000000e+01
-1.869278192520142046e+00 -2.609055519104003906e+00 -7.409887909889221191e-01 1.300000000000000000e+01
-9.354544281959533691e-01 -1.305184602737426980e+00 8.415621519088745117e-02 5.200000000000000000e+01
-2.254215240478516069e+00 -3.145174026489257812e+00 -7.521690726280212402e-01 1.300000000000000000e+01
-9.357227683067321777e-01 -1.305077791213989036e+00 1.404950618743895929e-01 5.800000000000000000e+01
-2.836836099624633789e+00 -3.955154180526732954e+00 -7.709090709686279297e-01 1.000000000000000000e+01
-9.107615947723388672e-01 -1.269327998161315918e+00 1.918223500251770020e-01 5.100000000000000000e+01
-3.385801315307617188e+00 -4.717051029205322266e+00 -7.129356861114501953e-01 1.500000000000000000e+01
-9.148100018501281738e-01 -1.274031043052672896e+00 2.484179288148880005e-01 6.400000000000000000e+01
-3.509470939636230025e+00 -4.887545108795166016e+00 -5.264207124710083008e-01 1.000000000000000000e+00
-9.185799360275268555e-01 -1.278810262680053933e+00 3.060576319694519043e-01 7.200000000000000000e+01
-9.429430365562438965e-01 -1.311760902404784934e+00 3.729688525199890137e-01 8.000000000000000000e+01
-9.958531260490417480e-01 -1.384855985641479048e+00 -2.977380529046059002e-02 4.300000000000000000e+01
-9.352250099182128906e-01 -1.300066351890563965e+00 4.291219711303710938e-01 6.000000000000000000e+01
-1.606191635131835938e+00 -2.226220607757567915e+00 -7.355637550354003906e-01 1.200000000000000000e+01
-9.549674391746520996e-01 -1.323121309280395952e+00 2.848232723772526134e-02 5.100000000000000000e+01
-1.877687573432921919e+00 -2.600606918334960938e+00 -7.405388951301574707e-01 1.400000000000000000e+01
-9.449096322059631348e-01 -1.308223485946655051e+00 8.457490801811218262e-02 5.100000000000000000e+01
-2.265727758407593218e+00 -3.136890649795531782e+00 -7.521690726280212402e-01 1.200000000000000000e+01
-9.381660819053649902e-01 -1.298409581184386985e+00 1.401464343070983887e-01 5.800000000000000000e+01
-2.855942249298096147e+00 -3.951133728027344194e+00 -7.721605300903320312e-01 7.000000000000000000e+00
-9.212236404418945312e-01 -1.274024367332458052e+00 1.930410414934158048e-01 5.900000000000000000e+01
-3.401904106140137163e+00 -4.703001499176025391e+00 -7.126919031143188477e-01 2.200000000000000000e+01
-9.146206378936767578e-01 -1.264427900314331055e+00 2.471664547920227051e-01 7.000000000000000000e+01
-4.186113357543945312e+00 -5.785014152526854581e+00 -6.247323751449584961e-01 1.000000000000000000e+00
-9.267144799232482910e-01 -1.280205845832824929e+00 3.072024881839752197e-01 7.300000000000000000e+01
-1.020306706428528054e+00 -1.408980607986449973e+00 -9.116923809051513672e-02 7.000000000000000000e+00
-9.511742591857910156e-01 -1.313030481338500977e+00 3.743185400962830145e-01 6.800000000000000000e+01
-9.751070737838745117e-01 -1.345573782920836958e+00 -2.900590002536774029e-02 3.800000000000000000e+01
-9.284213781356811523e-01 -1.281151056289673074e+00 4.239456057548522949e-01 6.000000000000000000e+01
-1.606002330780029075e+00 -2.209661483764647993e+00 -7.319402694702148438e-01 1.100000000000000000e+01
-9.537004232406616211e-01 -1.311692833900452104e+00 2.830780297517776142e-02 5.600000000000000000e+01
-1.893631458282470925e+00 -2.603492498397827148e+00 -7.432382702827453613e-01 1.400000000000000000e+01
-9.506455659866333008e-01 -1.306532263755797896e+00 8.467957377433776855e-02 5.400000000000000000e+01
-2.267423152923583984e+00 -3.116262674331665039e+00 -7.491161227226257324e-01 2.000000000000000000e+00
-9.415201544761657715e-01 -1.293516039848328081e+00 1.399721205234527865e-01 6.100000000000000000e+01
-9.350153207778930664e-01 -1.283637404441833052e+00 1.949909478425979892e-01 6.100000000000000000e+01
-3.441680908203125000e+00 -4.723185062408447266e+00 -7.175666689872741699e-01 1.600000000000000000e+01
-9.167020916938781738e-01 -1.258034586906433105e+00 2.465407103300094882e-01 8.700000000000000000e+01
-9.265506267547607422e-01 -1.270618081092834029e+00 3.056760132312775213e-01 7.300000000000000000e+01
-1.019333481788635032e+00 -1.397342681884766069e+00 -9.064587950706481934e-02 2.800000000000000000e+01
-9.523055553436279297e-01 -1.304979801177978960e+00 3.729688525199890137e-01 4.800000000000000000e+01
-9.750818610191345215e-01 -1.335701346397399902e+00 -2.886627987027167927e-02 3.800000000000000000e+01
-9.317486882209777832e-01 -1.276342034339905007e+00 4.234279692173004150e-01 6.100000000000000000e+01
-1.620553135871886985e+00 -2.213394403457642046e+00 -7.350460886955261230e-01 1.100000000000000000e+01
-9.559100866317749023e-01 -1.305129289627074973e+00 2.823799289762974132e-02 5.600000000000000000e+01
-1.894645571708678977e+00 -2.585862874984741211e+00 -7.400889396667480469e-01 1.200000000000000000e+01
-9.540196657180786133e-01 -1.301594972610474077e+00 8.457490801811218262e-02 5.200000000000000000e+01
-9.377827644348144531e-01 -1.278974294662476030e+00 1.387519389390944879e-01 5.600000000000000000e+01
-9.418390989303588867e-01 -1.283566594123840110e+00 1.954784244298934937e-01 5.900000000000000000e+01
-3.468718767166138139e+00 -4.725544452667236328e+00 -7.197603583335876465e-01 1.000000000000000000e+00
-9.283218979835510254e-01 -1.264219522476196067e+00 2.484179288148880005e-01 8.300000000000000000e+01
-9.228443503379821777e-01 -1.256300330162047896e+00 3.030046820640563965e-01 7.700000000000000000e+01
-1.004099249839782937e+00 -1.366415619850158913e+00 -8.886645734310150146e-02 2.300000000000000000e+01
-9.533923268318176270e-01 -1.296937227249145952e+00 3.716191351413726807e-01 4.600000000000000000e+01
-9.809230566024780273e-01 -1.333900570869446023e+00 -2.890118584036827087e-02 4.600000000000000000e+01
-9.339092969894409180e-01 -1.269969224929810014e+00 4.223926961421967108e-01 6.400000000000000000e+01
-1.636296153068542036e+00 -2.218607187271118164e+00 -7.386695742607116699e-01 1.200000000000000000e+01
-9.580855369567871094e-01 -1.298566341400146040e+00 2.816818468272686005e-02 5.600000000000000000e+01
-1.897874116897583008e+00 -2.571393966674805132e+00 -7.378394603729248047e-01 9.000000000000000000e+00
-9.597436189651489258e-01 -1.299863696098328081e+00 8.467957377433776855e-02 5.300000000000000000e+01
-1.035527944564818892e+00 -1.402505040168761985e+00 -3.388767838478087824e-01 2.000000000000000000e+00
-9.457926750183105469e-01 -1.280501008033751997e+00 1.392748802900314053e-01 5.900000000000000000e+01
-1.045936107635498047e+00 -1.415567398071289062e+00 -2.787662148475646973e-01 6.000000000000000000e+00
-9.415940642356872559e-01 -1.273885726928710938e+00 1.945034712553024014e-01 6.100000000000000000e+01
-9.280303120613098145e-01 -1.254618883132935014e+00 2.471664547920227051e-01 7.800000000000000000e+01
-9.295595884323120117e-01 -1.256227731704711914e+00 3.037679195404052734e-01 7.700000000000000000e+01
-9.862852096557617188e-01 -1.332401514053344949e+00 -8.687768876552581787e-02 2.800000000000000000e+01
-9.497957825660705566e-01 -1.282638669013977051e+00 3.684698343276978094e-01 5.000000000000000000e+01
-9.772411584854125977e-01 -1.319220423698425071e+00 -2.865685150027275085e-02 4.900000000000000000e+01
-9.397078752517700195e-01 -1.268089890480041948e+00 4.229103326797484796e-01 7.500000000000000000e+01
-1.643644332885741965e+00 -2.213168859481811968e+00 -7.386695742607116699e-01 1.300000000000000000e+01
-9.588088393211364746e-01 -1.290566563606261985e+00 2.806346863508224140e-02 5.500000000000000000e+01
-9.568989276885986328e-01 -1.287057042121886985e+00 8.405154943466186523e-02 5.400000000000000000e+01
-1.034316301345824973e+00 -1.391185760498047097e+00 -3.369686901569365900e-01 2.500000000000000000e+01
-9.512227773666381836e-01 -1.278956294059752974e+00 1.394491940736770907e-01 6.200000000000000000e+01
-1.043549656867980957e+00 -1.402582049369812012e+00 -2.768889963626862127e-01 2.500000000000000000e+01
-9.398871064186096191e-01 -1.262794256210326926e+00 1.932847797870635986e-01 6.300000000000000000e+01
-9.321856498718261719e-01 -1.251534461975098100e+00 2.471664547920227051e-01 8.500000000000000000e+01
-1.015193104743957964e+00 -1.362978696823119895e+00 -1.486876904964447021e-01 4.000000000000000000e+00
-9.313742518424987793e-01 -1.249989628791809082e+00 3.030046820640563965e-01 7.700000000000000000e+01
-9.739875793457031250e-01 -1.306704640388488992e+00 -8.541227877140045166e-02 4.100000000000000000e+01
-9.493843913078308105e-01 -1.273233056068419966e+00 3.666702210903167725e-01 4.900000000000000000e+01
-9.780235886573791504e-01 -1.311163902282715066e+00 -2.855213731527328144e-02 5.600000000000000000e+01
-9.471522569656372070e-01 -1.269776940345763938e+00 4.244632422924041748e-01 7.700000000000000000e+01
-1.649045228958130105e+00 -2.204324245452880859e+00 -7.376343011856079102e-01 1.300000000000000000e+01
-9.657042026519775391e-01 -1.290413856506348100e+00 2.813327871263026844e-02 6.000000000000000000e+01
-1.041754245758057085e+00 -1.391528725624084029e+00 -4.013126790523529053e-01 4.000000000000000000e+00
-9.577940106391906738e-01 -1.278913021087646040e+00 8.373752981424331665e-02 5.600000000000000000e+01
-1.028574466705322044e+00 -1.373424053192138894e+00 -3.335341215133666992e-01 4.700000000000000000e+01
-9.520975947380065918e-01 -1.270844459533690962e+00 1.389262527227402011e-01 6.100000000000000000e+01
-1.047254562377929910e+00 -1.397350192070007102e+00 -2.765761315822600763e-01 2.800000000000000000e+01
-9.561971426010131836e-01 -1.275388479232788086e+00 1.957221627235412875e-01 7.100000000000000000e+01
-1.025501132011414018e+00 -1.367329716682434082e+00 -2.098590135574341098e-01 1.000000000000000000e+00
-9.294356107711791992e-01 -1.238792419433593972e+00 2.452892363071441928e-01 8.300000000000000000e+01
-1.007987499237060991e+00 -1.343489646911621094e+00 -1.469445824623107910e-01 2.000000000000000000e+01
-9.439814090728759766e-01 -1.257722258567810059e+00 3.056760132312775213e-01 9.300000000000000000e+01
-9.893356561660766602e-01 -1.317671418190001997e+00 -8.635433018207550049e-02 5.000000000000000000e+01
-9.503119587898254395e-01 -1.265236735343933105e+00 3.653205037117003839e-01 4.800000000000000000e+01
-9.753871560096740723e-01 -1.298149704933166948e+00 -2.834270894527434956e-02 5.600000000000000000e+01
-9.422951340675354004e-01 -1.254107356071471946e+00 4.203221201896666925e-01 8.400000000000000000e+01
-1.646266222000122070e+00 -2.184669017791748047e+00 -7.329755425453186035e-01 9.000000000000000000e+00
-9.726101756095886230e-01 -1.290228724479675071e+00 2.820308879017829895e-02 6.100000000000000000e+01
-1.038391947746277078e+00 -1.376992344856261985e+00 -3.981633782386779785e-01 3.700000000000000000e+01
-9.656373858451843262e-01 -1.280513882637023926e+00 8.405154943466186523e-02 5.800000000000000000e+01
-1.033362388610840066e+00 -1.369825243949889915e+00 -3.335341215133666992e-01 5.700000000000000000e+01
-9.493269324302673340e-01 -1.257971167564392090e+00 1.378803849220275879e-01 6.100000000000000000e+01
-1.044984698295593040e+00 -1.384226679801940918e+00 -2.746989130973815918e-01 3.300000000000000000e+01
-9.534653425216674805e-01 -1.262538313865662065e+00 1.942597329616546908e-01 6.600000000000000000e+01
-1.035054087638854980e+00 -1.370077371597290039e+00 -2.108339667320250910e-01 2.200000000000000000e+01
-9.383014440536499023e-01 -1.242008090019226074e+00 2.465407103300094882e-01 8.100000000000000000e+01
-1.004262089729309082e+00 -1.328836321830749956e+00 -1.457244008779526034e-01 5.800000000000000000e+01
-9.400780797004699707e-01 -1.243457078933716042e+00 3.030046820640563965e-01 9.800000000000000000e+01
-9.963386654853820801e-01 -1.317395925521851030e+00 -8.656366914510726929e-02 6.000000000000000000e+01
-9.570742249488830566e-01 -1.265020012855530007e+00 3.662203252315521240e-01 4.500000000000000000e+01
-9.835329651832580566e-01 -1.299520611763000044e+00 -2.844742313027381897e-02 5.600000000000000000e+01
-9.443353414535522461e-01 -1.247729659080504927e+00 4.192868471145629883e-01 8.800000000000000000e+01
-1.060540199279784934e+00 -1.397210121154784934e+00 -4.700153768062592108e-01 1.000000000000000000e+00
-9.686429500579833984e-01 -1.275677561759948953e+00 2.795875445008277893e-02 6.400000000000000000e+01
-1.043192267417907937e+00 -1.373359322547913042e+00 -3.981633782386779785e-01 4.900000000000000000e+01
-9.666991233825683594e-01 -1.272195339202881081e+00 8.373752981424331665e-02 5.700000000000000000e+01
-1.038137674331665039e+00 -1.366209864616394043e+00 -3.335341215133666992e-01 5.600000000000000000e+01
-9.525065422058105469e-01 -1.253063559532165971e+00 1.377060711383820135e-01 5.600000000000000000e+01
-1.039049029350280984e+00 -1.366418838500977007e+00 -2.718831002712249756e-01 3.600000000000000000e+01
-9.578666687011718750e-01 -1.259202361106873003e+00 1.942597329616546908e-01 6.600000000000000000e+01
-1.021798491477966087e+00 -1.342760205268860085e+00 -2.071778774261474887e-01 4.000000000000000000e+01
-9.428473114967346191e-01 -1.238560676574707031e+00 2.465407103300094882e-01 8.100000000000000000e+01
-1.002860426902770996e+00 -1.317396163940429910e+00 -1.448528468608855924e-01 6.500000000000000000e+01
-9.444128274917602539e-01 -1.240167975425719993e+00 3.030046820640563965e-01 9.800000000000000000e+01
-9.924589991569519043e-01 -1.302788615226746050e+00 -8.583097159862518311e-02 6.300000000000000000e+01
-9.614841341972351074e-01 -1.261671423912047896e+00 3.662203252315521240e-01 4.500000000000000000e+01
-9.904878139495849609e-01 -1.299260020256042036e+00 -2.851723134517670025e-02 5.500000000000000000e+01
-9.465591907501220703e-01 -1.241187810897826926e+00 4.182515740394591730e-01 8.600000000000000000e+01
-1.044290423393249956e+00 -1.365875124931335005e+00 -4.606978893280028742e-01 1.300000000000000000e+01
-9.755196571350097656e-01 -1.275465369224547896e+00 2.802856452763080944e-02 6.300000000000000000e+01
-1.040874838829040971e+00 -1.360423326492310014e+00 -3.954639434814453125e-01 5.400000000000000000e+01
-9.721261858940124512e-01 -1.270568847656250000e+00 8.384220302104949951e-02 6.000000000000000000e+01
-1.045286774635314941e+00 -1.365695714950561968e+00 -3.342973589897155762e-01 6.200000000000000000e+01
-9.580860137939453125e-01 -1.251312971115112083e+00 1.378803849220275879e-01 6.100000000000000000e+01
-1.041410088539123979e+00 -1.359647154808043990e+00 -2.712573707103729248e-01 4.100000000000000000e+01
-9.550121426582336426e-01 -1.246396780014038086e+00 1.927973031997680942e-01 6.500000000000000000e+01
-1.025271773338318093e+00 -1.337609767913817915e+00 -2.069341391324996948e-01 4.900000000000000000e+01
-9.495689272880554199e-01 -1.238397121429442915e+00 2.471664547920227051e-01 8.100000000000000000e+01
-1.003815889358520952e+00 -1.309144258499145952e+00 -1.443299055099487027e-01 6.800000000000000000e+01
-9.439564943313598633e-01 -1.230632781982422097e+00 3.014782071113585871e-01 8.700000000000000000e+01
-9.970005154609680176e-01 -1.299316406250000000e+00 -8.583097159862518311e-02 6.300000000000000000e+01
-9.646957516670227051e-01 -1.256761789321898970e+00 3.657703995704650879e-01 4.900000000000000000e+01
-9.962349534034729004e-01 -1.297380685806273970e+00 -2.855213731527328144e-02 5.400000000000000000e+01
-9.553762078285217285e-01 -1.244171023368835005e+00 4.203221201896666925e-01 8.200000000000000000e+01
-1.051409244537353960e+00 -1.365282773971558061e+00 -4.617331624031066895e-01 4.200000000000000000e+01
-9.824066758155822754e-01 -1.275220632553101030e+00 2.809837460517882954e-02 6.600000000000000000e+01
-1.046806812286376953e+00 -1.358325362205504927e+00 -3.959138691425322931e-01 5.600000000000000000e+01
-9.668020009994506836e-01 -1.254511833190917969e+00 8.300482481718063354e-02 6.000000000000000000e+01
-1.048848867416382058e+00 -1.360483884811400923e+00 -3.339157402515410822e-01 5.800000000000000000e+01
-9.660983085632324219e-01 -1.252694129943848100e+00 1.384033262729645053e-01 6.200000000000000000e+01
-1.035290122032165971e+00 -1.341927528381348100e+00 -2.684415280818939209e-01 4.600000000000000000e+01
-9.593570828437805176e-01 -1.243055582046509011e+00 1.927973031997680942e-01 6.500000000000000000e+01
-1.022655963897705078e+00 -1.324595093727112038e+00 -2.054717093706130981e-01 5.800000000000000000e+01
-9.514710903167724609e-01 -1.231948256492614968e+00 2.465407103300094882e-01 7.800000000000000000e+01
-1.014468789100646973e+00 -1.313516497611999956e+00 -1.452014744281769076e-01 7.200000000000000000e+01
-9.518474340438842773e-01 -1.231990933418273926e+00 3.026230633258820135e-01 8.000000000000000000e+01
-1.003972649574280007e+00 -1.298988819122314009e+00 -8.604031056165695190e-02 6.100000000000000000e+01
-9.619249105453491211e-01 -1.244136571884155051e+00 3.630709946155548096e-01 5.000000000000000000e+01
-9.958639144897460938e-01 -1.287568211555480957e+00 -2.841251716017723083e-02 5.400000000000000000e+01
-9.620772004127502441e-01 -1.243884801864624023e+00 4.213573932647705078e-01 8.200000000000000000e+01
-1.045512199401855025e+00 -1.347866177558898926e+00 -4.570744335651398260e-01 4.600000000000000000e+01
-9.929815530776977539e-01 -1.279682874679564986e+00 2.827289886772632946e-02 6.000000000000000000e+01
-1.046762228012084961e+00 -1.348505377769469993e+00 -3.941142559051514227e-01 5.600000000000000000e+01
-9.738434553146362305e-01 -1.254114985466002974e+00 8.321417123079299927e-02 6.000000000000000000e+01
-1.049979209899901900e+00 -1.352162480354309082e+00 -3.327708840370178223e-01 6.000000000000000000e+01
-9.667983651161193848e-01 -1.244593858718872070e+00 1.378803849220275879e-01 6.100000000000000000e+01
-1.041180133819580078e+00 -1.339865326881408913e+00 -2.687544226646422785e-01 5.100000000000000000e+01
-9.673452377319335938e-01 -1.244400978088378906e+00 1.935285180807113925e-01 6.300000000000000000e+01
-1.023617744445801003e+00 -1.316316127777100053e+00 -2.047404944896697998e-01 5.200000000000000000e+01
-9.409995675086975098e-01 -1.210073828697205034e+00 2.427862882614136020e-01 8.500000000000000000e+01
-1.016600847244262917e+00 -1.306822180747986062e+00 -1.448528468608855924e-01 7.200000000000000000e+01
-9.513191580772399902e-01 -1.222463369369507058e+00 3.010965883731842041e-01 8.000000000000000000e+01
-1.007273912429810014e+00 -1.293900370597838911e+00 -8.593563735485076904e-02 6.000000000000000000e+01
-9.662619233131408691e-01 -1.240771293640136941e+00 3.630709946155548096e-01 5.100000000000000000e+01
-1.000352263450623003e+00 -1.284084081649780051e+00 -2.841251716017723083e-02 5.400000000000000000e+01
-9.571297168731689453e-01 -1.228160142898560014e+00 4.172163009643555243e-01 8.600000000000000000e+01
-1.045453310012816939e+00 -1.338119149208069070e+00 -4.550038874149323065e-01 5.200000000000000000e+01
-9.925168156623840332e-01 -1.269906640052794966e+00 2.813327871263026844e-02 5.400000000000000000e+01
-1.055063843727112038e+00 -1.349448919296265093e+00 -3.954639434814453125e-01 5.400000000000000000e+01
-9.779968857765197754e-01 -1.250878691673279031e+00 8.321417123079299927e-02 6.000000000000000000e+01
-1.054692625999450906e+00 -1.348489165306091087e+00 -3.327708840370178223e-01 5.600000000000000000e+01
-9.625428318977355957e-01 -1.230227351188659890e+00 1.366602033376694003e-01 5.600000000000000000e+01
-1.043415665626526101e+00 -1.333111643791198953e+00 -2.681286633014678955e-01 5.200000000000000000e+01
-9.826971888542175293e-01 -1.255083680152893066e+00 1.957221627235412875e-01 7.100000000000000000e+01
-1.031878471374511941e+00 -1.317423343658447044e+00 -2.054717093706130981e-01 4.700000000000000000e+01
-9.478650689125061035e-01 -1.209726572036742942e+00 2.434120327234267911e-01 9.200000000000000000e+01
-1.015012264251708984e+00 -1.295424103736876997e+00 -1.439812928438186923e-01 7.000000000000000000e+01
-9.592139124870300293e-01 -1.223770737648010032e+00 3.022414445877075195e-01 8.200000000000000000e+01
-1.019178628921509011e+00 -1.299806714057921919e+00 -8.656366914510726929e-02 5.900000000000000000e+01
-9.705871343612670898e-01 -1.237390875816344993e+00 3.630709946155548096e-01 5.100000000000000000e+01
-1.007297396659851074e+00 -1.283730864524841087e+00 -2.848232723772526134e-02 5.400000000000000000e+01
-9.590253829956054688e-01 -1.221772313117980957e+00 4.161810278892517090e-01 9.000000000000000000e+01
-1.045570969581604004e+00 -1.328206658363342063e+00 -4.529333412647246759e-01 5.400000000000000000e+01
-9.971645474433898926e-01 -1.266260385513306108e+00 2.813327871263026844e-02 5.200000000000000000e+01
-1.057590961456299050e+00 -1.342511296272278054e+00 -3.945641517639160156e-01 5.800000000000000000e+01
-9.875187873840332031e-01 -1.253561377525330034e+00 8.363285660743713379e-02 5.800000000000000000e+01
-1.059628009796143022e+00 -1.344614386558532937e+00 -3.327708840370178223e-01 5.500000000000000000e+01
-9.695122838020324707e-01 -1.229820489883423074e+00 1.370088309049606046e-01 5.800000000000000000e+01
-1.038509130477905051e+00 -1.316869735717772993e+00 -2.656257152557373047e-01 5.500000000000000000e+01
-9.737661480903625488e-01 -1.234330058097838911e+00 1.930410414934158048e-01 6.200000000000000000e+01
-1.050227642059325950e+00 -1.330773591995239036e+00 -2.081528455018996915e-01 5.100000000000000000e+01
-9.569770693778991699e-01 -1.212613105773926003e+00 2.446635067462920865e-01 9.400000000000000000e+01
-1.024691700935363992e+00 -1.297950387001038042e+00 -1.446785330772399902e-01 6.800000000000000000e+01
-9.503082036972045898e-01 -1.203298926353455034e+00 2.980436384677886963e-01 8.800000000000000000e+01
-1.023935914039612038e+00 -1.296062588691710982e+00 -8.656366914510726929e-02 6.000000000000000000e+01
-9.775325059890747070e-01 -1.236882925033568892e+00 3.639708161354064941e-01 5.500000000000000000e+01
-1.016956448554992898e+00 -1.286304950714111106e+00 -2.862194739282130848e-02 5.200000000000000000e+01
-9.634969234466552734e-01 -1.218249201774596946e+00 4.161810278892517090e-01 8.800000000000000000e+01
-1.053801536560059038e+00 -1.329090118408202903e+00 -4.544862508773804266e-01 5.600000000000000000e+01
-9.978505969047546387e-01 -1.258071780204772949e+00 2.802856452763080944e-02 5.200000000000000000e+01
-1.053791880607604980e+00 -1.328125357627869096e+00 -3.914148211479187012e-01 6.000000000000000000e+01
-9.906471371650695801e-01 -1.248542070388793945e+00 8.352818340063095093e-02 5.700000000000000000e+01
-1.066756248474121094e+00 -1.343982934951782005e+00 -3.335341215133666992e-01 5.600000000000000000e+01
-9.700824618339538574e-01 -1.221747756004333052e+00 1.364858895540236872e-01 6.100000000000000000e+01
-1.050471186637877974e+00 -1.322517395019531028e+00 -2.675029337406157892e-01 5.700000000000000000e+01
-9.780688285827636719e-01 -1.230923414230346902e+00 1.930410414934158048e-01 5.900000000000000000e+01
-1.058572053909301980e+00 -1.331761479377747026e+00 -2.088840603828429898e-01 5.000000000000000000e+01
-9.636623859405517578e-01 -1.212357997894287109e+00 2.452892363071441928e-01 9.200000000000000000e+01
-1.037896275520324929e+00 -1.305281996726989968e+00 -1.458987146615982056e-01 5.900000000000000000e+01
-9.520584344863891602e-01 -1.196901440620421919e+00 2.972804009914398193e-01 8.800000000000000000e+01
-1.024722933769226074e+00 -1.287791848182678001e+00 -8.624965697526931763e-02 5.700000000000000000e+01
-9.709212183952331543e-01 -1.219741106033324973e+00 3.599216938018798828e-01 5.200000000000000000e+01
-1.030159950256348100e+00 -1.293697476387023926e+00 -2.886627987027167927e-02 5.100000000000000000e+01
-9.701508879661560059e-01 -1.217900633811950906e+00 4.172163009643555243e-01 8.400000000000000000e+01
-1.060613632202147993e+00 -1.328607797622681108e+00 -4.555215239524840753e-01 5.600000000000000000e+01
-1.014495491981505904e+00 -1.270381689071655051e+00 2.837761305272578846e-02 5.100000000000000000e+01
-1.056974053382873979e+00 -1.323101043701172097e+00 -3.909649252891541082e-01 5.800000000000000000e+01
-9.873024225234985352e-01 -1.235887289047240989e+00 8.290015161037445068e-02 5.700000000000000000e+01
-1.066304683685302956e+00 -1.334303259849547896e+00 -3.320076465606688898e-01 5.600000000000000000e+01
-9.840813875198364258e-01 -1.230973958969115989e+00 1.378803849220275879e-01 6.500000000000000000e+01
-1.054851055145263894e+00 -1.319026708602905051e+00 -2.675029337406157892e-01 5.600000000000000000e+01
-9.809052944183349609e-01 -1.226123213768004927e+00 1.927973031997680942e-01 6.500000000000000000e+01
-1.061742186546325906e+00 -1.326693892478943093e+00 -2.086403220891953070e-01 5.100000000000000000e+01
-9.627402424812316895e-01 -1.202986598014831987e+00 2.440377622842788974e-01 9.200000000000000000e+01
-1.049690127372741921e+00 -1.311165094375609907e+00 -1.469445824623107910e-01 5.800000000000000000e+01
-9.572495222091674805e-01 -1.195270180702209029e+00 2.976620197296143133e-01 1.000000000000000000e+02
-1.028987765312195046e+00 -1.284386634826659934e+00 -8.624965697526931763e-02 5.700000000000000000e+01
-9.749606847763061523e-01 -1.216514706611633079e+00 3.599216938018798828e-01 4.600000000000000000e+01
-1.031942605972290039e+00 -1.287153959274291992e+00 -2.879646979272365917e-02 5.200000000000000000e+01
-9.775974154472351074e-01 -1.219368577003479004e+00 4.187692105770111084e-01 9.500000000000000000e+01
-1.054350376129149947e+00 -1.311347365379333052e+00 -4.508627653121948242e-01 5.700000000000000000e+01
-1.023936867713928001e+00 -1.273065567016602007e+00 2.851723134517670025e-02 5.000000000000000000e+01
-1.065250992774962935e+00 -1.323958277702331987e+00 -3.923146426677703857e-01 6.000000000000000000e+01
-9.916104674339294434e-01 -1.232433438301085982e+00 8.290015161037445068e-02 5.700000000000000000e+01
-1.064800858497620073e+00 -1.322926044464111106e+00 -3.300995528697968084e-01 5.800000000000000000e+01
-9.808751940727233887e-01 -1.218220114707946999e+00 1.368345171213150024e-01 6.100000000000000000e+01
-1.066883683204651101e+00 -1.324566960334778054e+00 -2.693801522254943848e-01 5.100000000000000000e+01
-9.851792454719543457e-01 -1.222691655158997026e+00 1.927973031997680942e-01 5.800000000000000000e+01
-1.072595596313477007e+00 -1.330707311630249023e+00 -2.098590135574341098e-01 5.800000000000000000e+01
-9.607353210449218750e-01 -1.191928863525391069e+00 2.424734234809874933e-01 9.900000000000000000e+01
-1.051759362220763938e+00 -1.304391026496886985e+00 -1.465959548950195035e-01 5.600000000000000000e+01
-9.675788283348083496e-01 -1.199561953544616921e+00 2.995701134204865057e-01 1.000000000000000000e+02
-1.043498516082763894e+00 -1.293221831321716087e+00 -8.708702772855758667e-02 5.300000000000000000e+01
-9.767531752586364746e-01 -1.210071325302124023e+00 3.590218722820281982e-01 4.500000000000000000e+01
-1.032660484313965066e+00 -1.278876543045043945e+00 -2.869175560772418976e-02 5.100000000000000000e+01
-9.796322584152221680e-01 -1.212771654129028098e+00 4.177339375019072931e-01 9.500000000000000000e+01
-1.057705640792846902e+00 -1.306157708168030007e+00 -4.503451287746428888e-01 5.900000000000000000e+01
-1.025857090950011985e+00 -1.266375899314879927e+00 2.844742313027381897e-02 5.200000000000000000e+01
-1.074773550033568892e+00 -1.326287984848022017e+00 -3.941142559051514227e-01 6.200000000000000000e+01
-1.003667235374450906e+00 -1.238099813461303933e+00 8.352818340063095093e-02 5.600000000000000000e+01
-1.069412231445312944e+00 -1.319201231002808061e+00 -3.300995528697968084e-01 5.800000000000000000e+01
-9.826117157936096191e-01 -1.211693763732909934e+00 1.364858895540236872e-01 6.100000000000000000e+01
-1.070256233215332031e+00 -1.319300651550292969e+00 -2.690672874450684149e-01 5.300000000000000000e+01
-9.969465136528015137e-01 -1.228493690490723100e+00 1.942597329616546908e-01 6.300000000000000000e+01
-1.072229504585265891e+00 -1.320790410041809082e+00 -2.088840603828429898e-01 6.100000000000000000e+01
-9.661350846290588379e-01 -1.190101623535156028e+00 2.427862882614136020e-01 9.400000000000000000e+01
-1.053794026374816895e+00 -1.297618508338928001e+00 -1.462473422288894931e-01 5.700000000000000000e+01
-9.705222845077514648e-01 -1.194653391838073953e+00 2.991884946823120117e-01 9.700000000000000000e+01
-1.053044795989990012e+00 -1.295771360397339089e+00 -8.750572055578231812e-02 5.200000000000000000e+01
-9.797418713569641113e-01 -1.205142259597778098e+00 3.585719764232634943e-01 5.000000000000000000e+01
-1.050997018814086914e+00 -1.292329668998718040e+00 -2.907570824027061115e-02 5.200000000000000000e+01
-9.787729382514953613e-01 -1.203521251678467019e+00 4.156633913516997736e-01 9.200000000000000000e+01
-1.062258601188659890e+00 -1.302457690238953081e+00 -4.503451287746428888e-01 6.100000000000000000e+01
-1.022686481475830078e+00 -1.253490686416625977e+00 2.823799289762974132e-02 5.000000000000000000e+01
-1.074467897415160911e+00 -1.316489219665526900e+00 -3.923146426677703857e-01 6.200000000000000000e+01
-1.013035416603087935e+00 -1.240777254104614036e+00 8.394687622785568237e-02 5.200000000000000000e+01
-1.078977108001708984e+00 -1.321543216705322044e+00 -3.316260278224945068e-01 5.400000000000000000e+01
-9.855750203132629395e-01 -1.206713318824768066e+00 1.363115757703781128e-01 5.800000000000000000e+01
-1.071105480194092019e+00 -1.310967564582824929e+00 -2.681286633014678955e-01 5.700000000000000000e+01
-9.999724030494689941e-01 -1.223469257354736106e+00 1.940159946680068970e-01 5.900000000000000000e+01
-1.085628986358643022e+00 -1.327797293663024902e+00 -2.105902284383774081e-01 5.900000000000000000e+01
-9.754930734634399414e-01 -1.192668795585632102e+00 2.440377622842788974e-01 1.000000000000000000e+02
-1.063362836837768999e+00 -1.300101041793823020e+00 -1.469445824623107910e-01 5.600000000000000000e+01
-9.722000360488891602e-01 -1.188219428062438965e+00 2.984252572059630793e-01 9.700000000000000000e+01
-1.055031418800354004e+00 -1.288996577262877974e+00 -8.729637414216995239e-02 5.200000000000000000e+01
-9.790044426918029785e-01 -1.195683836936950906e+00 3.567723631858826239e-01 5.200000000000000000e+01
