-1.057175993919373003e+00 -1.135270357131958008e+00 4.156633913516997736e-01 6.600000000000000000e+01
-1.861382007598876953e+00 -1.993993639945984109e+00 -7.309049963951110840e-01 2.200000000000000000e+01
-1.035890579223633035e+00 -1.109302878379821999e+00 2.649275213479996074e-02 5.200000000000000000e+01
-2.176339387893677202e+00 -2.329758882522583008e+00 -7.360398769378662109e-01 1.400000000000000000e+01
-1.055272817611693892e+00 -1.129663467407227007e+00 8.101606369018554688e-02 5.700000000000000000e+01
-2.616537094116210938e+00 -2.800008296966553178e+00 -7.449183464050292969e-01 5.000000000000000000e+00
-1.057174921035767046e+00 -1.130908131599426047e+00 1.354400217533112127e-01 5.300000000000000000e+01
-1.074037909507751021e+00 -1.148143529891967995e+00 1.930410414934158048e-01 6.300000000000000000e+01
-1.051180124282836914e+00 -1.123315572738647017e+00 -1.888974756002425870e-01 3.800000000000000000e+01
-1.055483460426331010e+00 -1.127914190292357954e+00 2.446635067462920865e-01 7.000000000000000000e+01
-1.042986631393433061e+00 -1.114169955253601074e+00 -1.335225999355315885e-01 6.800000000000000000e+01
-1.077578186988831010e+00 -1.150719881057739036e+00 3.064392507076262873e-01 1.000000000000000000e+02
-1.026809453964232954e+00 -1.096121549606323020e+00 -7.871327549219131470e-02 5.300000000000000000e+01
-1.083335518836975098e+00 -1.156058907508850098e+00 3.657703995704650879e-01 3.100000000000000000e+01
-1.058532476425170898e+00 -1.129195690155029075e+00 -2.701632492244243969e-02 5.600000000000000000e+01
-1.062256097793579102e+00 -1.133167862892151101e+00 4.161810278892517090e-01 6.200000000000000000e+01
-1.877593278884887917e+00 -1.997336983680725098e+00 -7.345284223556518555e-01 1.800000000000000000e+01
-1.046605944633484109e+00 -1.112964034080504927e+00 2.666727639734745026e-02 5.200000000000000000e+01
-2.187129020690917969e+00 -2.324986696243286133e+00 -7.369396686553955078e-01 1.100000000000000000e+01
-1.053735733032227007e+00 -1.120154023170470969e+00 8.059737086296081543e-02 5.700000000000000000e+01
-1.061116099357604980e+00 -1.127210974693297896e+00 1.354400217533112127e-01 5.500000000000000000e+01
-1.059021711349487083e+00 -1.124592781066894975e+00 -2.446635067462920865e-01 3.000000000000000000e+00
-1.082122683525085005e+00 -1.148722290992737038e+00 1.937722563743591031e-01 7.100000000000000000e+01
-1.042842149734497070e+00 -1.106637239456176980e+00 -1.867038309574126920e-01 4.000000000000000000e+01
-1.066187977790832964e+00 -1.131411194801331010e+00 2.462278455495834073e-01 6.100000000000000000e+01
-1.046869397163390891e+00 -1.110522508621216042e+00 -1.335225999355315885e-01 6.700000000000000000e+01
-1.085629224777221902e+00 -1.151236414909363015e+00 3.075841069221497137e-01 1.000000000000000000e+02
-1.030629396438599077e+00 -1.092530727386475053e+00 -7.871327549219131470e-02 5.300000000000000000e+01
-1.086026906967163086e+00 -1.150852918624877930e+00 3.653205037117003839e-01 4.200000000000000000e+01
-1.050113439559936968e+00 -1.112406730651855025e+00 -2.670218236744403839e-02 5.800000000000000000e+01
-1.078339576721190962e+00 -1.141907930374145952e+00 4.208397567272185724e-01 6.500000000000000000e+01
-1.869944930076598899e+00 -1.975338459014893022e+00 -7.288344502449035645e-01 5.000000000000000000e+00
-1.051859498023987038e+00 -1.110755920410156028e+00 2.670218236744403839e-02 5.700000000000000000e+01
-2.239457607269287109e+00 -2.364024162292480025e+00 -7.517864108085632324e-01 1.000000000000000000e+00
-1.052338957786560059e+00 -1.110485553741455078e+00 8.017868548631668091e-02 5.700000000000000000e+01
-1.063673615455626997e+00 -1.122054219245911089e+00 1.352657079696654996e-01 5.600000000000000000e+01
-1.057503700256348100e+00 -1.115155816078186035e+00 -2.434120327234267911e-01 2.400000000000000000e+01
-1.087491989135741965e+00 -1.146378159523010032e+00 1.940159946680068970e-01 5.700000000000000000e+01
-1.046698689460753950e+00 -1.102990269660949929e+00 -1.867038309574126920e-01 5.100000000000000000e+01
-1.067411303520203081e+00 -1.124816775321960005e+00 2.456021159887314120e-01 6.600000000000000000e+01
-1.039765715599060059e+00 -1.095301508903502974e+00 -1.321281045675277988e-01 6.600000000000000000e+01
-1.096400737762450950e+00 -1.154557943344115989e+00 3.094922006130219061e-01 1.000000000000000000e+02
-1.034436702728271040e+00 -1.088926434516906960e+00 -7.871327549219131470e-02 5.300000000000000000e+01
-1.090037465095520020e+00 -1.147055029869080034e+00 3.653205037117003839e-01 5.300000000000000000e+01
-1.042967915534972922e+00 -1.097139835357666016e+00 -2.642294391989707947e-02 5.500000000000000000e+01
-1.079458236694335938e+00 -1.135525465011596902e+00 4.198044836521149237e-01 5.700000000000000000e+01
-1.059715151786803977e+00 -1.111644387245178001e+00 -4.115222692489624023e-01 1.000000000000000000e+00
-1.051590204238892046e+00 -1.102735996246337891e+00 2.659746818244456898e-02 6.100000000000000000e+01
-1.171599745750427024e+00 -1.228153109550476074e+00 -3.918647468090056818e-01 1.000000000000000000e+00
-1.060345411300658958e+00 -1.111140131950377974e+00 8.049269765615463257e-02 5.800000000000000000e+01
-1.077532410621643066e+00 -1.129150390625000000e+00 -3.033863008022307794e-01 6.000000000000000000e+00
-1.053826332092284934e+00 -1.103922843933105025e+00 1.335225999355315885e-01 5.200000000000000000e+01
-1.060025691986083984e+00 -1.110028982162476030e+00 -2.430991530418395996e-01 4.000000000000000000e+01
-1.096971869468688965e+00 -1.148316740989685059e+00 1.949909478425979892e-01 5.400000000000000000e+01
-1.054656863212585005e+00 -1.103635311126708984e+00 -1.874350458383559903e-01 5.000000000000000000e+01
-1.072891712188720925e+00 -1.122324824333190918e+00 2.459149807691574097e-01 7.800000000000000000e+01
-1.038075685501099077e+00 -1.085904598236083984e+00 -1.314308643341063898e-01 6.700000000000000000e+01
-1.099067330360413042e+00 -1.149304866790771040e+00 3.091105818748474121e-01 9.800000000000000000e+01
-1.036850929260253906e+00 -1.083865761756896973e+00 -7.860860973596572876e-02 5.400000000000000000e+01
-1.106160879135132058e+00 -1.155914425849914995e+00 3.693696260452271063e-01 5.200000000000000000e+01
-1.041260004043579102e+00 -1.087714433670043945e+00 -2.628332376480102886e-02 5.700000000000000000e+01
-1.087621331214905007e+00 -1.135747194290160911e+00 4.213573932647705078e-01 4.000000000000000000e+01
-1.079643249511718972e+00 -1.124662160873413086e+00 -4.177339375019072931e-01 7.000000000000000000e+00
-1.044352412223815918e+00 -1.087519764900207964e+00 2.631822973489761006e-02 5.900000000000000000e+01
-1.092177629470824973e+00 -1.136924505233765093e+00 -3.639708161354064941e-01 6.000000000000000000e+00
-1.065601468086242898e+00 -1.108872175216675027e+00 8.059737086296081543e-02 5.700000000000000000e+01
-1.073305249214171919e+00 -1.116888761520385964e+00 -3.010965883731842041e-01 2.000000000000000000e+01
-1.057673335075377974e+00 -1.100237607955933061e+00 1.335225999355315885e-01 5.200000000000000000e+01
-1.040616989135741965e+00 -1.082116842269897017e+00 -2.377803921699523926e-01 4.000000000000000000e+01
-1.089963793754578081e+00 -1.133035778999329057e+00 1.930410414934158048e-01 4.900000000000000000e+01
-1.052996993064879927e+00 -1.094225764274596946e+00 -1.864600926637650091e-01 5.000000000000000000e+01
-1.090304970741271973e+00 -1.132994413375854048e+00 2.490436732769011896e-01 8.500000000000000000e+01
-1.039096355438231978e+00 -1.079403638839721902e+00 -1.310822367668152133e-01 6.700000000000000000e+01
-1.097625255584717019e+00 -1.139804720878601074e+00 3.075841069221497137e-01 1.000000000000000000e+02
-1.032314062118530051e+00 -1.071609377861022949e+00 -7.798057794570922852e-02 5.400000000000000000e+01
-1.121006846427917036e+00 -1.163272023200988992e+00 3.729688525199890137e-01 4.900000000000000000e+01
-1.050601959228516069e+00 -1.089831829071044922e+00 -2.642294391989707947e-02 5.800000000000000000e+01
-1.120878458023071067e+00 -1.162732481956481934e+00 4.327454566955565851e-01 3.900000000000000000e+01
-1.086247801780700906e+00 -1.123664498329163042e+00 -4.187692105770111084e-01 2.900000000000000000e+01
-1.050922393798827903e+00 -1.086742758750915971e+00 2.638803794980049133e-02 6.000000000000000000e+01
-1.067685961723328081e+00 -1.103692054748534934e+00 -3.545228540897368830e-01 2.900000000000000000e+01
-1.075021386146544966e+00 -1.110886812210083008e+00 8.101606369018554688e-02 6.100000000000000000e+01
-1.071736335754394975e+00 -1.107492208480834961e+00 -2.995701134204865057e-01 3.800000000000000000e+01
-1.069822072982788086e+00 -1.105128049850464089e+00 1.345684677362442017e-01 5.000000000000000000e+01
-1.045762181282043013e+00 -1.079896807670593040e+00 -2.380932569503783902e-01 3.400000000000000000e+01
-1.091149806976317915e+00 -1.126372575759887917e+00 1.925535649061203003e-01 5.400000000000000000e+01
-1.049902915954590066e+00 -1.083415746688842995e+00 -1.852414011955260953e-01 4.900000000000000000e+01
-1.099949955940247026e+00 -1.134663939476012962e+00 2.502951323986052912e-01 9.000000000000000000e+01
-1.040084242820739968e+00 -1.072908878326416016e+00 -1.307336091995238980e-01 7.200000000000000000e+01
-1.104330658912658913e+00 -1.138785123825073020e+00 3.083473443984984796e-01 9.800000000000000000e+01
-1.030485630035399947e+00 -1.062265276908874956e+00 -7.756188511848449707e-02 5.500000000000000000e+01
-1.126417756080626997e+00 -1.160750389099121094e+00 3.734187483787537176e-01 4.800000000000000000e+01
-1.055792570114135964e+00 -1.087592720985413042e+00 -2.645784802734851837e-02 5.900000000000000000e+01
-1.162816405296325906e+00 -1.197421789169311968e+00 4.472393095493317206e-01 3.700000000000000000e+01
-1.084773302078247070e+00 -1.114328980445862038e+00 -4.166986644268035889e-01 3.900000000000000000e+01
-1.054709434509276900e+00 -1.083067655563354048e+00 2.638803794980049133e-02 5.900000000000000000e+01
-1.068812489509582964e+00 -1.097166657447814941e+00 -3.536230623722075861e-01 4.200000000000000000e+01
-1.063559412956238015e+00 -1.091393113136291948e+00 7.986466586589813232e-02 6.000000000000000000e+01
-1.061893820762634055e+00 -1.089683890342711958e+00 -2.957539558410645086e-01 4.900000000000000000e+01
-1.077845454216002974e+00 -1.105666995048522949e+00 1.350913941860198975e-01 4.600000000000000000e+01
-1.038492202758789062e+00 -1.064925909042357954e+00 -2.355903089046477994e-01 3.500000000000000000e+01
-1.096461176872252974e+00 -1.123977899551392046e+00 1.927973031997680942e-01 5.800000000000000000e+01
-1.046746253967284934e+00 -1.072640657424926980e+00 -1.840227097272872925e-01 5.400000000000000000e+01
-1.098188042640686035e+00 -1.125355124473571999e+00 2.490436732769011896e-01 8.300000000000000000e+01
-1.043823003768920898e+00 -1.069271802902221902e+00 -1.307336091995238980e-01 7.700000000000000000e+01
-1.119272351264954057e+00 -1.146160244941710982e+00 3.114002943038939875e-01 1.000000000000000000e+02
-1.036978721618651900e+00 -1.061519026756287065e+00 -7.777123153209686279e-02 5.500000000000000000e+01
-1.148168683052062988e+00 -1.174930095672606978e+00 3.792674839496613104e-01 4.200000000000000000e+01
-1.056786894798279031e+00 -1.081040740013123003e+00 -2.638803794980049133e-02 6.100000000000000000e+01
-1.191088795661926047e+00 -1.218425035476685014e+00 4.565567970275878906e-01 1.500000000000000000e+01
-1.079189896583556907e+00 -1.100878715515136941e+00 -4.130752086639403742e-01 3.800000000000000000e+01
-1.069684505462646040e+00 -1.090801477432250977e+00 2.666727639734745026e-02 6.000000000000000000e+01
-1.069906353950500044e+00 -1.090646862983704057e+00 -3.527232408523560125e-01 4.800000000000000000e+01
-1.074357151985168013e+00 -1.094801545143126997e+00 8.038803189992904663e-02 6.300000000000000000e+01
-1.057440519332885964e+00 -1.077563047409058061e+00 -2.934642434120178223e-01 4.900000000000000000e+01
-1.080302715301513894e+00 -1.100476026535033958e+00 1.349170953035354892e-01 4.200000000000000000e+01
-1.044971227645874023e+00 -1.064113259315490945e+00 -2.362160384654999057e-01 4.500000000000000000e+01
-1.105942368507385032e+00 -1.125808119773864968e+00 1.937722563743591031e-01 5.800000000000000000e+01
-1.051875352859497070e+00 -1.070396184921265093e+00 -1.842664480209350863e-01 5.600000000000000000e+01
-1.099535703659058061e+00 -1.118505120277405007e+00 2.484179288148880005e-01 7.800000000000000000e+01
-1.041962265968322976e+00 -1.059938311576843040e+00 -1.300363689661026001e-01 8.500000000000000000e+01
-1.126019477844238059e+00 -1.145045876502990945e+00 3.121635019779204767e-01 8.500000000000000000e+01
-1.043479084968566895e+00 -1.060740470886230025e+00 -7.798057794570922852e-02 5.600000000000000000e+01
-1.157730460166930930e+00 -1.176470994949341042e+00 3.810670971870421808e-01 4.000000000000000000e+01
-1.056345462799072044e+00 -1.073070168495178001e+00 -2.628332376480102886e-02 6.500000000000000000e+01
-1.232144832611083984e+00 -1.251216053962707964e+00 4.705330133438109796e-01 1.000000000000000000e+00
-1.073525905609131081e+00 -1.087481260299683061e+00 -4.094517230987548828e-01 4.500000000000000000e+01
-1.065055131912231001e+00 -1.078523755073546919e+00 2.645784802734851837e-02 6.000000000000000000e+01
-1.073706984519958052e+00 -1.086905598640441895e+00 -3.527232408523560125e-01 4.800000000000000000e+01
-1.075364470481873003e+00 -1.088203430175781028e+00 8.017868548631668091e-02 6.100000000000000000e+01
-1.055675625801085982e+00 -1.068279623985290971e+00 -2.919377684593201239e-01 5.200000000000000000e+01
-1.078534722328186035e+00 -1.091030597686768022e+00 1.342198401689528864e-01 4.100000000000000000e+01
-1.034789562225342019e+00 -1.046413302421570046e+00 -2.330873459577559870e-01 5.000000000000000000e+01
-1.123826026916503906e+00 -1.136053204536437988e+00 1.962096393108367920e-01 5.800000000000000000e+01
-1.047227501869202104e+00 -1.058251976966857910e+00 -1.828040182590484897e-01 6.600000000000000000e+01
-1.111575603485106978e+00 -1.123277306556702104e+00 2.502951323986052912e-01 7.800000000000000000e+01
-1.033040642738342063e+00 -1.043551206588744895e+00 -1.284675598144530972e-01 8.900000000000000000e+01
-1.134153842926024947e+00 -1.145293354988097922e+00 3.133083581924437921e-01 9.100000000000000000e+01
-1.044364213943481001e+00 -1.054253816604614036e+00 -7.777123153209686279e-02 6.000000000000000000e+01
-1.168688535690308061e+00 -1.179343700408935991e+00 3.833166062831879217e-01 1.900000000000000000e+01
-1.060084700584412065e+00 -1.069376230239867942e+00 -2.628332376480102886e-02 6.300000000000000000e+01
-1.181885242462157981e+00 -1.192244410514831987e+00 4.498274922370911200e-01 1.000000000000000000e+00
-1.073229432106018066e+00 -1.079617142677306907e+00 -4.078988134860991877e-01 4.600000000000000000e+01
-1.061763167381287065e+00 -1.067709803581238015e+00 2.628332376480102886e-02 5.600000000000000000e+01
-1.069248318672179954e+00 -1.074861526489258035e+00 -3.500238358974456787e-01 5.200000000000000000e+01
-1.083382844924926980e+00 -1.088690280914307085e+00 8.049269765615463257e-02 5.800000000000000000e+01
-1.060783028602600098e+00 -1.065979719161987083e+00 -2.923193871974945068e-01 5.400000000000000000e+01
-1.087959051132201926e+00 -1.092907309532165971e+00 1.349170953035354892e-01 4.100000000000000000e+01
-1.035648226737976074e+00 -1.039995431900023970e+00 -2.324616163969039917e-01 5.700000000000000000e+01
-1.115175962448119895e+00 -1.119466185569762962e+00 1.940159946680068970e-01 5.400000000000000000e+01
-1.056520104408263938e+00 -1.060214400291443093e+00 -1.837789714336394986e-01 6.600000000000000000e+01
-1.121263623237610085e+00 -1.124791622161865012e+00 2.515466213226317804e-01 7.000000000000000000e+01
-1.040896773338318093e+00 -1.044172048568726030e+00 -1.289905011653899869e-01 9.300000000000000000e+01
-1.131213307380676047e+00 -1.134376645088196023e+00 3.114002943038939875e-01 8.500000000000000000e+01
-1.050858974456787109e+00 -1.053429841995239036e+00 -7.798057794570922852e-02 6.600000000000000000e+01
-1.187939882278441939e+00 -1.190430521965027078e+00 3.882655203342437744e-01 4.000000000000000000e+00
-1.068049311637877974e+00 -1.069915056228637917e+00 -2.638803794980049133e-02 6.100000000000000000e+01
-1.191707372665405051e+00 -1.193372488021851030e+00 4.518980383872985840e-01 1.000000000000000000e+00
-1.078358173370361106e+00 -1.077229619026184082e+00 -4.084164500236511230e-01 4.000000000000000000e+01
-1.071143627166748047e+00 -1.069649100303649902e+00 2.642294391989707947e-02 5.600000000000000000e+01
-1.063339591026305930e+00 -1.061485290527343972e+00 -3.468745350837708075e-01 5.500000000000000000e+01
-1.087176561355591042e+00 -1.084901928901671919e+00 8.049269765615463257e-02 5.300000000000000000e+01
-1.061718225479125977e+00 -1.059496879577636941e+00 -2.915561497211455744e-01 5.500000000000000000e+01
-1.094588518142699973e+00 -1.091917157173156960e+00 1.352657079696654996e-01 4.300000000000000000e+01
-1.043468356132507102e+00 -1.040558576583862083e+00 -2.334002256393432895e-01 6.300000000000000000e+01
-1.120482683181762917e+00 -1.116968035697937012e+00 1.942597329616546908e-01 5.300000000000000000e+01
-1.054589986801147017e+00 -1.050915122032165971e+00 -1.828040182590484897e-01 6.600000000000000000e+01
-1.130584359169005904e+00 -1.126644730567931907e+00 2.527981102466583252e-01 6.700000000000000000e+01
-1.047358393669127974e+00 -1.043344497680664062e+00 -1.293391287326813022e-01 9.700000000000000000e+01
-1.130992650985717995e+00 -1.126265048980712891e+00 3.102554380893707275e-01 7.000000000000000000e+01
-1.047452330589293990e+00 -1.042709946632385032e+00 -7.745721191167831421e-02 6.700000000000000000e+01
-1.068942189216613992e+00 -1.063359737396240012e+00 -2.631822973489761006e-02 6.100000000000000000e+01
-1.076625943183898926e+00 -1.068016648292541948e+00 -4.063459038734436035e-01 4.200000000000000000e+01
-1.072031021118164062e+00 -1.063087463378906028e+00 2.635313384234904896e-02 5.700000000000000000e+01
-1.061502456665039062e+00 -1.052279353141784890e+00 -3.450749218463898260e-01 6.000000000000000000e+01
-1.089538216590880904e+00 -1.079694509506226030e+00 8.038803189992904663e-02 5.600000000000000000e+01
-1.059831976890563965e+00 -1.050256609916687012e+00 -2.900296747684478760e-01 5.500000000000000000e+01
-1.105470657348633035e+00 -1.095100641250609907e+00 1.361372768878937045e-01 4.400000000000000000e+01
-1.052708745002747026e+00 -1.042469620704651101e+00 -2.346516996622086126e-01 6.100000000000000000e+01
-1.121553301811218040e+00 -1.110257029533386008e+00 1.937722563743591031e-01 4.700000000000000000e+01
-1.051196932792664018e+00 -1.040246009826659934e+00 -1.815853267908096036e-01 6.800000000000000000e+01
-1.131701946258544922e+00 -1.119912385940551980e+00 2.521723508834838867e-01 5.700000000000000000e+01
-1.053826808929442915e+00 -1.042484641075134055e+00 -1.296877413988113126e-01 9.300000000000000000e+01
-1.146084904670715110e+00 -1.133353948593140093e+00 3.133083581924437921e-01 7.600000000000000000e+01
-1.058187603950500044e+00 -1.046067833900452104e+00 -7.798057794570922852e-02 6.600000000000000000e+01
-1.071224808692931907e+00 -1.058216691017151101e+00 -2.628332376480102886e-02 5.700000000000000000e+01
-1.076218724250793013e+00 -1.060184836387634055e+00 -4.047929942607880194e-01 4.500000000000000000e+01
-1.089983582496643066e+00 -1.073369860649109109e+00 2.670218236744403839e-02 5.700000000000000000e+01
-1.070724129676819070e+00 -1.054036021232604980e+00 -3.468745350837708075e-01 6.500000000000000000e+01
-1.097571134567260964e+00 -1.080087423324584961e+00 8.070204406976699829e-02 5.400000000000000000e+01
-1.059293627738953081e+00 -1.042419552803039995e+00 -2.888848185539246161e-01 5.200000000000000000e+01
-1.107866168022155984e+00 -1.089837908744812012e+00 1.359629631042479914e-01 4.200000000000000000e+01
-1.060566544532776101e+00 -1.042943835258484109e+00 -2.355903089046477994e-01 6.000000000000000000e+01
-1.143825054168700950e+00 -1.124426245689392090e+00 1.969408541917800903e-01 4.200000000000000000e+01
-1.060485124588012917e+00 -1.042135834693908913e+00 -1.825602799654006958e-01 6.400000000000000000e+01
-1.124525547027587891e+00 -1.104682445526123047e+00 2.496694028377532959e-01 5.600000000000000000e+01
-1.053195357322693093e+00 -1.034610986709594949e+00 -1.291648149490355890e-01 9.200000000000000000e+01
-1.154236435890197976e+00 -1.133473277091979980e+00 3.144532144069672186e-01 8.200000000000000000e+01
-1.066108465194701926e+00 -1.046565175056457964e+00 -7.829459011554718018e-02 6.300000000000000000e+01
-1.077767252922058105e+00 -1.057271718978882058e+00 -2.635313384234904896e-02 5.700000000000000000e+01
-1.073008060455322044e+00 -1.049667119979857954e+00 -4.022047817707061768e-01 5.000000000000000000e+01
-1.085145473480225053e+00 -1.061169862747191939e+00 2.649275213479996074e-02 5.600000000000000000e+01
-1.073003411293030007e+00 -1.048929810523987038e+00 -3.464246094226837158e-01 6.100000000000000000e+01
-1.102763056755065918e+00 -1.077645540237426980e+00 8.080671727657318115e-02 5.700000000000000000e+01
-1.064329981803894043e+00 -1.040087819099426047e+00 -2.892664372920989990e-01 5.400000000000000000e+01
-1.108813285827636941e+00 -1.083179593086242898e+00 1.356143355369567871e-01 4.300000000000000000e+01
-1.061374068260193093e+00 -1.036475181579590066e+00 -2.349645644426346103e-01 5.800000000000000000e+01
-1.169050216674804910e+00 -1.141226768493651900e+00 2.005969434976578036e-01 3.800000000000000000e+01
-1.064116358757019043e+00 -1.038427710533142090e+00 -1.825602799654006958e-01 6.400000000000000000e+01
-1.138272881507873979e+00 -1.110406160354614036e+00 2.518594861030579168e-01 5.400000000000000000e+01
-1.051095724105834961e+00 -1.025363326072693093e+00 -1.284675598144530972e-01 8.900000000000000000e+01
-1.151158094406127930e+00 -1.122583866119384988e+00 3.125451207160950262e-01 7.300000000000000000e+01
-1.082626581192017046e+00 -1.055384874343872070e+00 -7.923663407564163208e-02 6.000000000000000000e+01
-1.087180733680725098e+00 -1.059084534645081010e+00 -2.649275213479996074e-02 5.700000000000000000e+01
-1.079253911972045898e+00 -1.048795819282531960e+00 -4.032400846481323242e-01 5.400000000000000000e+01
-1.088658452033997026e+00 -1.057565569877624956e+00 2.649275213479996074e-02 5.200000000000000000e+01
-1.079271912574768066e+00 -1.048081040382385032e+00 -3.473244309425354004e-01 6.700000000000000000e+01
-1.116362094879149947e+00 -1.083720803260803001e+00 8.153942227363586426e-02 5.300000000000000000e+01
-1.071999192237854004e+00 -1.040655016899109109e+00 -2.904112935066223145e-01 5.200000000000000000e+01
-1.112399101257323997e+00 -1.079496622085571067e+00 1.356143355369567871e-01 3.700000000000000000e+01
-1.064805269241333008e+00 -1.032949805259705034e+00 -2.349645644426346103e-01 5.700000000000000000e+01
-1.198479413986206055e+00 -1.162218809127808061e+00 2.049842327833175937e-01 3.800000000000000000e+01
-1.070404648780822976e+00 -1.037656664848328081e+00 -1.830477565526962003e-01 6.400000000000000000e+01
-1.151878833770751953e+00 -1.116248250007628950e+00 2.540495693683624268e-01 5.500000000000000000e+01
-1.063074946403502974e+00 -1.030191302299499956e+00 -1.295134276151657104e-01 9.200000000000000000e+01
-1.153464317321776900e+00 -1.117394328117371050e+00 3.121635019779204767e-01 7.200000000000000000e+01
-1.074642181396483931e+00 -1.040673613548279031e+00 -7.839926332235336304e-02 6.000000000000000000e+01
-1.096434831619262917e+00 -1.061035990715027078e+00 -2.663237228989601135e-02 5.600000000000000000e+01
-1.084298372268676980e+00 -1.046363592147826926e+00 -4.037577211856842041e-01 5.600000000000000000e+01
-1.098100185394287109e+00 -1.059312462806702104e+00 2.663237228989601135e-02 5.200000000000000000e+01
-1.080118298530579057e+00 -1.041601896286010964e+00 -3.464246094226837158e-01 6.700000000000000000e+01
-1.112948656082153098e+00 -1.072886586189270020e+00 8.101606369018554688e-02 5.200000000000000000e+01
-1.082692384719849077e+00 -1.043719530105591042e+00 -2.923193871974945068e-01 5.400000000000000000e+01
-1.130506992340087891e+00 -1.089432358741760032e+00 1.373574435710906982e-01 3.700000000000000000e+01
-1.065559267997741921e+00 -1.026485681533813032e+00 -2.343388348817825040e-01 5.800000000000000000e+01
-1.215397953987122026e+00 -1.170421004295348899e+00 2.071778774261474887e-01 4.500000000000000000e+01
-1.068299770355225053e+00 -1.028407096862792969e+00 -1.820728033781051913e-01 5.300000000000000000e+01
-1.160038232803344949e+00 -1.116329789161681907e+00 2.549881637096405029e-01 4.900000000000000000e+01
-1.072406888008117898e+00 -1.032000303268433061e+00 -1.302106827497482022e-01 8.800000000000000000e+01
-1.160187363624572976e+00 -1.116083383560181108e+00 3.129267394542694092e-01 4.200000000000000000e+01
-1.081147551536560059e+00 -1.039684891700745073e+00 -7.860860973596572876e-02 5.500000000000000000e+01
-1.107341170310973899e+00 -1.064130187034606934e+00 -2.680689655244350086e-02 5.400000000000000000e+01
-1.096313118934630904e+00 -1.050592064857482910e+00 -4.068635404109954834e-01 5.600000000000000000e+01
-1.113343358039855957e+00 -1.066539406776428001e+00 2.691161073744297028e-02 5.100000000000000000e+01
-1.076710224151611106e+00 -1.031086087226867898e+00 -3.441751003265380859e-01 6.500000000000000000e+01
-1.116500377655029075e+00 -1.069190025329590066e+00 8.101606369018554688e-02 4.900000000000000000e+01
-1.077819943428039995e+00 -1.031788229942321999e+00 -2.900296747684478760e-01 5.500000000000000000e+01
-1.140060782432555930e+00 -1.090989589691162109e+00 1.380546987056731900e-01 1.700000000000000000e+01
-1.071990609169005904e+00 -1.025490999221801980e+00 -2.349645644426346103e-01 5.800000000000000000e+01
-1.192217111587523970e+00 -1.140103936195373979e+00 2.025468498468399048e-01 7.000000000000000000e+00
-1.074752926826477051e+00 -1.027415156364440918e+00 -1.825602799654006958e-01 5.000000000000000000e+01
-1.166589617729187012e+00 -1.115206837654113992e+00 2.556139230728148859e-01 4.100000000000000000e+01
-1.076002717018126997e+00 -1.028250575065613015e+00 -1.302106827497482022e-01 7.800000000000000000e+01
-1.166915416717529075e+00 -1.114738941192626953e+00 3.136899769306182861e-01 1.100000000000000000e+01
-1.090547919273376021e+00 -1.041422128677367942e+00 -7.902729511260986328e-02 4.900000000000000000e+01
-1.111048817634582964e+00 -1.060258388519287109e+00 -2.680689655244350086e-02 5.300000000000000000e+01
-1.098574161529541016e+00 -1.045427083969115989e+00 -4.063459038734436035e-01 5.200000000000000000e+01
-1.122854828834533913e+00 -1.068159699440001997e+00 2.705123089253902088e-02 5.100000000000000000e+01
-1.088775873184204102e+00 -1.035378813743591087e+00 -3.468745350837708075e-01 5.900000000000000000e+01
-1.124754309654236062e+00 -1.069218993186950906e+00 8.133007586002349854e-02 2.600000000000000000e+01
-1.079992175102234109e+00 -1.026666998863219993e+00 -2.896480560302733820e-01 5.700000000000000000e+01
-1.153972029685973899e+00 -1.096610665321350098e+00 1.392748802900314053e-01 1.000000000000000000e+00
-1.084156870841979980e+00 -1.029905796051024947e+00 -2.368417829275130948e-01 5.700000000000000000e+01
-1.178916096687316895e+00 -1.119531989097594993e+00 1.996219903230667114e-01 1.300000000000000000e+01
-1.097048759460448997e+00 -1.041424393653870073e+00 -1.857288777828217108e-01 5.200000000000000000e+01
-1.172102093696594016e+00 -1.112283349037169966e+00 2.559267878532410223e-01 2.300000000000000000e+01
-1.082475900650023970e+00 -1.027231335639954057e+00 -1.305592954158782959e-01 7.200000000000000000e+01
-1.222075343132019043e+00 -1.159300923347472922e+00 3.274282217025756836e-01 1.000000000000000000e+00
-1.102871894836426003e+00 -1.045854926109313965e+00 -7.965532690286636353e-02 5.000000000000000000e+01
-1.106034159660338911e+00 -1.048120737075806108e+00 -2.659746818244456898e-02 5.200000000000000000e+01
-1.093792080879210982e+00 -1.033624768257140891e+00 -4.032400846481323242e-01 5.000000000000000000e+01
-1.126576542854309082e+00 -1.064233660697937012e+00 2.705123089253902088e-02 4.300000000000000000e+01
-1.107968568801880105e+00 -1.046289563179015891e+00 -3.518234491348267157e-01 6.000000000000000000e+01
-1.083569288253783958e+00 -1.022890806198119895e+00 -2.896480560302733820e-01 5.700000000000000000e+01
-1.081997632980346902e+00 -1.020693063735961914e+00 -2.355903089046477994e-01 5.700000000000000000e+01
-1.198703289031981978e+00 -1.130391120910644975e+00 2.023031115531921109e-01 1.800000000000000000e+01
-1.107899665832519975e+00 -1.044396996498107910e+00 -1.869475692510605136e-01 5.400000000000000000e+01
-1.090405106544495073e+00 -1.027545690536499023e+00 -1.310822367668152133e-01 5.700000000000000000e+01
-1.115240097045897993e+00 -1.050214290618896040e+00 -8.028335869312286377e-02 5.400000000000000000e+01
-1.124248862266540971e+00 -1.057957649230957031e+00 -2.694651484489440918e-02 4.800000000000000000e+01
-1.107254505157470925e+00 -1.039054155349731001e+00 -4.068635404109954834e-01 4.900000000000000000e+01
-1.125909328460692915e+00 -1.056190371513366921e+00 2.694651484489440918e-02 1.400000000000000000e+01
-1.107349634170532005e+00 -1.038416624069214089e+00 -3.504737317562103271e-01 5.900000000000000000e+01
-1.091430187225342019e+00 -1.023130297660828081e+00 -2.907929122447968084e-01 5.500000000000000000e+01
-1.086995482444762962e+00 -1.018260478973388894e+00 -2.359031736850739081e-01 5.400000000000000000e+01
-1.191050052642822044e+00 -1.115345001220702903e+00 2.003532052040100098e-01 9.000000000000000000e+00
-1.118784546852112038e+00 -1.047306418418884055e+00 -1.881662607192992887e-01 5.100000000000000000e+01
-1.102713823318481001e+00 -1.031901359558105025e+00 -1.321281045675277988e-01 5.700000000000000000e+01
-1.121816873550415039e+00 -1.049043297767638938e+00 -8.049269765615463257e-02 5.400000000000000000e+01
-1.136701345443726030e+00 -1.062218785285949929e+00 -2.715594507753849030e-02 4.200000000000000000e+01
-1.316916823387145996e+00 -1.230625629425049050e+00 4.829563498497009277e-01 1.000000000000000000e+00
-1.119354724884032981e+00 -1.043084859848022017e+00 -4.099693596363068182e-01 4.700000000000000000e+01
-1.198359608650207964e+00 -1.116315841674804910e+00 2.858704142272472035e-02 1.000000000000000000e+00
-1.108115315437316895e+00 -1.031888842582703081e+00 -3.495739400386809748e-01 5.800000000000000000e+01
-1.109364986419677956e+00 -1.032691121101378950e+00 -2.946090996265410822e-01 5.400000000000000000e+01
-1.096328616142272949e+00 -1.019841670989990012e+00 -2.371546477079390924e-01 4.800000000000000000e+01
-1.245815277099608931e+00 -1.158493638038635032e+00 2.088840603828429898e-01 1.000000000000000000e+00
-1.119525671005249023e+00 -1.040691614151000977e+00 -1.876787841320038119e-01 4.900000000000000000e+01
-1.123823285102844016e+00 -1.044321060180664062e+00 -1.342198401689528864e-01 6.100000000000000000e+01
-1.122544765472412109e+00 -1.042402982711791992e+00 -8.028335869312286377e-02 4.900000000000000000e+01
-1.163855195045470969e+00 -1.080007791519165039e+00 -2.771442197263241161e-02 3.500000000000000000e+01
-1.256268143653870073e+00 -1.165355086326598899e+00 4.591449797153472900e-01 1.000000000000000000e+00
-1.122988939285278098e+00 -1.039171218872070090e+00 -4.099693596363068182e-01 4.700000000000000000e+01
-1.117433547973633035e+00 -1.033306717872620073e+00 -3.513735532760620117e-01 5.800000000000000000e+01
-1.102871298789978027e+00 -1.019483804702759011e+00 -2.919377684593201239e-01 5.200000000000000000e+01
-1.104235053062438965e+00 -1.020029783248900923e+00 -2.380932569503783902e-01 4.200000000000000000e+01
-1.121692895889282005e+00 -1.035430908203125000e+00 -1.874350458383559903e-01 4.800000000000000000e+01
-1.137711405754088911e+00 -1.049849867820739968e+00 -1.354400217533112127e-01 5.500000000000000000e+01
-1.127644777297974077e+00 -1.039832115173340066e+00 -8.038803189992904663e-02 2.100000000000000000e+01
-1.263170123100280984e+00 -1.163580417633057085e+00 4.601802527904509943e-01 6.000000000000000000e+00
-1.133903741836548074e+00 -1.041582703590393066e+00 -4.125575721263884943e-01 4.600000000000000000e+01
-1.121213316917418990e+00 -1.029204130172729048e+00 -3.513735532760620117e-01 5.400000000000000000e+01
-1.110940098762511985e+00 -1.019416809082031028e+00 -2.930826246738433838e-01 5.100000000000000000e+01
-1.116701722145081010e+00 -1.023985981941222922e+00 -2.399704754352570135e-01 4.100000000000000000e+01
-1.124016761779784934e+00 -1.029971599578856978e+00 -1.871913075447083075e-01 4.400000000000000000e+01
-1.147428393363953081e+00 -1.051056027412414995e+00 -1.361372768878937045e-01 1.300000000000000000e+01
-3.027743339538573863e+01 -2.769558715820312855e+01 -7.162467837333679199e-01 1.000000000000000000e+01
-1.268851995468140093e+00 -1.160246491432189941e+00 4.606978893280028742e-01 9.000000000000000000e+00
-1.128969073295593040e+00 -1.029806852340698020e+00 -4.094517230987548828e-01 4.400000000000000000e+01
-1.132000088691710982e+00 -1.031848073005676047e+00 -3.536230623722075861e-01 4.900000000000000000e+01
-1.120296478271483931e+00 -1.020821928977966087e+00 -2.946090996265410822e-01 4.800000000000000000e+01
-1.123190522193908913e+00 -1.022741675376892090e+00 -2.405962049961090088e-01 3.700000000000000000e+01
-1.132009983062743919e+00 -1.030049800872802956e+00 -1.879225224256516058e-01 1.300000000000000000e+01
-5.936737060546875000e+00 -5.400121212005615234e+00 -7.021266818046569824e-01 5.000000000000000000e+00
-3.051306533813476918e+01 -2.771611595153808949e+01 -7.195278406143188477e-01 1.000000000000000000e+01
-1.267173409461975098e+00 -1.150615692138672097e+00 4.586273431777954102e-01 7.000000000000000000e+00
-1.146874904632567915e+00 -1.038828969001770020e+00 -4.146281182765961248e-01 3.900000000000000000e+01
-1.139929413795470969e+00 -1.031813621520996094e+00 -3.549727499485015869e-01 4.700000000000000000e+01
-1.135499119758605957e+00 -1.027443051338196023e+00 -2.976620197296143133e-01 4.200000000000000000e+01
-1.123823285102844016e+00 -1.016165018081665039e+00 -2.399704754352570135e-01 1.100000000000000000e+01
-4.869376182556152344e+00 -4.399818897247313565e+00 -8.058000802993774414e-01 8.000000000000000000e+00
-5.948157787322998047e+00 -5.372687816619873047e+00 -7.012550830841064453e-01 6.000000000000000000e+00
-3.070763015747069957e+01 -2.769783401489258168e+01 -7.218315005302429199e-01 1.000000000000000000e+01
-1.268113017082213911e+00 -1.143819451332092063e+00 4.575920701026917059e-01 3.000000000000000000e+00
-1.170602560043334961e+00 -1.052906036376952903e+00 -4.218750298023223877e-01 3.300000000000000000e+01
-1.149321436882019043e+00 -1.033038973808289018e+00 -3.567723631858826239e-01 4.600000000000000000e+01
-1.149301171302794966e+00 -1.032658100128174050e+00 -3.003333508968353271e-01 1.800000000000000000e+01
-3.570229530334473100e+00 -3.205633878707886186e+00 -7.599586248397827148e-01 1.100000000000000000e+01
-4.895047187805175781e+00 -4.392074584960938388e+00 -8.075062632560729980e-01 1.000000000000000000e+01
-5.966876029968261719e+00 -5.351891994476318359e+00 -7.012550830841064453e-01 6.000000000000000000e+00
-3.094712448120116832e+01 -2.771855545043944957e+01 -7.251824140548706055e-01 1.000000000000000000e+01
-1.339941501617432085e+00 -1.199730277061461958e+00 4.819210767745972235e-01 6.000000000000000000e+00
-1.189934253692626953e+00 -1.063176870346068892e+00 -4.275690615177155096e-01 4.500000000000000000e+01
-1.154194474220276101e+00 -1.030519962310791016e+00 -3.572222888469696045e-01 3.200000000000000000e+01
-2.850306987762451172e+00 -2.543996334075928178e+00 -7.426286339759826660e-01 1.100000000000000000e+01
-3.582314252853393999e+00 -3.195091724395751953e+00 -7.602714896202087402e-01 1.200000000000000000e+01
-4.911067008972167969e+00 -4.377139091491699219e+00 -8.077499866485595703e-01 1.000000000000000000e+01
-5.993516445159912109e+00 -5.340028285980224609e+00 -7.023009657859802246e-01 5.000000000000000000e+00
-3.107472801208496094e+01 -2.764768028259276988e+01 -7.260200977325439453e-01 1.000000000000000000e+01
-1.363910079002379927e+00 -1.213492512702941895e+00 4.891679883003234863e-01 1.200000000000000000e+01
-1.189303040504456010e+00 -1.055170416831969993e+00 -4.260161519050598145e-01 3.600000000000000000e+01
-2.379728555679320845e+00 -2.109852790832519975e+00 -7.342402338981628418e-01 1.000000000000000000e+01
-2.854762077331542969e+00 -2.530124902725220171e+00 -7.414837479591369629e-01 1.300000000000000000e+01
-3.599360466003417969e+00 -3.187806606292725053e+00 -7.615229487419128418e-01 1.200000000000000000e+01
-4.932262420654296875e+00 -4.365231990814208984e+00 -8.087249398231506348e-01 8.000000000000000000e+00
-5.982275485992431641e+00 -5.292670249938964844e+00 -6.988147497177124023e-01 8.000000000000000000e+00
-3.130592155456542969e+01 -2.765819931030273082e+01 -7.291615605354309082e-01 1.000000000000000000e+01
-1.362556576728821023e+00 -1.203370094299315962e+00 4.870974421501160223e-01 1.900000000000000000e+01
-1.179933071136475053e+00 -1.039519071578979048e+00 -4.213573932647705078e-01 6.000000000000000000e+00
-2.390004158020019975e+00 -2.104108572006226030e+00 -7.351400256156921387e-01 1.400000000000000000e+01
-2.867997884750366211e+00 -2.524035453796387163e+00 -7.426286339759826660e-01 1.400000000000000000e+01
-3.603049278259276900e+00 -3.168700456619263139e+00 -7.599586248397827148e-01 1.200000000000000000e+01
-4.945978641510009766e+00 -4.346678256988525391e+00 -8.084812164306640625e-01 1.000000000000000000e+01
-6.000714302062988281e+00 -5.271756172180175781e+00 -6.988147497177124023e-01 6.000000000000000000e+00
-3.141430091857910156e+01 -2.755930328369140980e+01 -7.294408082962036133e-01 1.000000000000000000e+01
-1.370896339416503906e+00 -1.202667117118835005e+00 4.886503517627716064e-01 2.800000000000000000e+01
-2.045775413513184038e+00 -1.789679884910583052e+00 -7.283167839050292969e-01 3.100000000000000000e+01
-2.400268793106079102e+00 -2.098318338394165039e+00 -7.360398769378662109e-01 1.200000000000000000e+01
-2.882704019546508789e+00 -2.519176483154296875e+00 -7.441551089286804199e-01 1.400000000000000000e+01
-3.612600326538085938e+00 -3.154804706573485884e+00 -7.596457600593566895e-01 1.200000000000000000e+01
-4.973086357116699219e+00 -4.339828491210938388e+00 -8.104311227798461914e-01 1.000000000000000000e+01
-6.049107074737548828e+00 -5.276972770690917969e+00 -7.023009657859802246e-01 8.000000000000000000e+00
-3.166410636901855113e+01 -2.758345603942871094e+01 -7.330010533332824707e-01 1.000000000000000000e+01
-1.378208875656127930e+00 -1.200171828269958052e+00 4.896856248378754217e-01 3.400000000000000000e+01
-2.052010059356689009e+00 -1.782527923583983931e+00 -7.283167839050292969e-01 3.100000000000000000e+01
-2.394333839416503906e+00 -2.078429937362670898e+00 -7.319907546043395996e-01 1.300000000000000000e+01
-2.897411346435546875e+00 -2.514245510101317915e+00 -7.456815242767333984e-01 1.300000000000000000e+01
-3.610158920288085938e+00 -3.130527973175048828e+00 -7.568299174308776855e-01 1.100000000000000000e+01
-4.976203441619873047e+00 -4.312043190002441406e+00 -8.084812164306640625e-01 1.000000000000000000e+01
-6.052431106567382812e+00 -5.242780208587645596e+00 -7.005578875541687012e-01 9.000000000000000000e+00
-3.186909103393555043e+01 -2.756695175170898082e+01 -7.355142235755920410e-01 1.000000000000000000e+01
-1.383642196655272993e+00 -1.196858763694762962e+00 4.902032613754271906e-01 3.200000000000000000e+01
-2.058219671249390093e+00 -1.775354146957397017e+00 -7.283167839050292969e-01 3.100000000000000000e+01
-2.411906957626343218e+00 -2.078965663909912109e+00 -7.351400256156921387e-01 1.400000000000000000e+01
-2.898733615875244141e+00 -2.497708559036254883e+00 -7.437734603881835938e-01 1.300000000000000000e+01
-3.630046129226685014e+00 -3.125640630722045898e+00 -7.587071657180786133e-01 1.200000000000000000e+01
-4.980691432952880859e+00 -4.285583496093750000e+00 -8.067750334739685059e-01 8.000000000000000000e+00
-6.097883701324462891e+00 -5.245007514953613281e+00 -7.036954760551452637e-01 9.000000000000000000e+00
-3.205310440063477273e+01 -2.753111076354980113e+01 -7.375386953353881836e-01 1.000000000000000000e+01
-1.393882513046265093e+00 -1.196813344955443892e+00 4.922738373279572088e-01 3.200000000000000000e+01
-2.068805932998656782e+00 -1.771928906440735085e+00 -7.298697233200073242e-01 3.200000000000000000e+01
-2.410266160964965820e+00 -2.062930822372436968e+00 -7.324406504631042480e-01 1.400000000000000000e+01
-2.895500421524047852e+00 -2.477364301681518999e+00 -7.407205104827880859e-01 1.300000000000000000e+01
-3.649942874908446822e+00 -3.120652437210083008e+00 -7.605843544006347656e-01 1.100000000000000000e+01
-5.000148773193359375e+00 -4.272039890289306641e+00 -8.075062632560729980e-01 1.000000000000000000e+01
-6.119184970855712891e+00 -5.226277828216552734e+00 -7.040441036224365234e-01 7.000000000000000000e+00
-3.234071731567382812e+01 -2.758255958557128906e+01 -7.419366836547851562e-01 1.000000000000000000e+01
-1.408132672309875044e+00 -1.200959801673888938e+00 4.958972930908203125e-01 2.800000000000000000e+01
-2.066148757934569868e+00 -1.757187247276305930e+00 -7.267639040946960449e-01 2.600000000000000000e+01
-2.429331779479980025e+00 -2.064600706100463867e+00 -7.360398769378662109e-01 1.600000000000000000e+01
-2.913107633590697798e+00 -2.474868774414062944e+00 -7.430102229118347168e-01 1.300000000000000000e+01
-3.657802104949951172e+00 -3.105335950851439986e+00 -7.599586248397827148e-01 1.100000000000000000e+01
-5.004434108734130859e+00 -4.245570659637451172e+00 -8.058000802993774414e-01 8.000000000000000000e+00
-6.128273963928222656e+00 -5.197154045104979581e+00 -7.029982209205627441e-01 9.000000000000000000e+00
-3.258940505981445312e+01 -2.759873199462890980e+01 -7.454271912574768066e-01 1.000000000000000000e+01
-1.411050438880919966e+00 -1.194542407989501953e+00 4.953796565532683771e-01 2.700000000000000000e+01
-2.072269916534423828e+00 -1.749964356422424094e+00 -7.267639040946960449e-01 2.300000000000000000e+01
-2.432055950164794922e+00 -2.052337884902954102e+00 -7.346901297569274902e-01 1.500000000000000000e+01
-2.921728849411011186e+00 -2.464684963226317915e+00 -7.430102229118347168e-01 1.200000000000000000e+01
-3.652005672454833984e+00 -3.078543901443481001e+00 -7.565170526504516602e-01 1.200000000000000000e+01
-5.023777961730957031e+00 -4.231912612915039062e+00 -8.065313100814819336e-01 7.000000000000000000e+00
-6.193622589111328125e+00 -5.215514659881591797e+00 -7.084018588066101074e-01 6.000000000000000000e+00
-3.282022857666016336e+01 -2.759806060791015980e+01 -7.484987974166870117e-01 1.000000000000000000e+01
-1.412046790122986062e+00 -1.187369942665100098e+00 4.943443834781646729e-01 2.400000000000000000e+01
-2.087247848510742188e+00 -1.750167608261107954e+00 -7.298697233200073242e-01 2.200000000000000000e+01
-2.427255392074584961e+00 -2.033823251724243164e+00 -7.310909032821655273e-01 1.600000000000000000e+01
-2.934829473495482954e+00 -2.458253145217895952e+00 -7.441551089286804199e-01 1.300000000000000000e+01
-3.664244413375854048e+00 -3.067045211791992188e+00 -7.568299174308776855e-01 1.100000000000000000e+01
-5.044610500335693359e+00 -4.219445228576660156e+00 -8.075062632560729980e-01 8.000000000000000000e+00
-6.173578262329101562e+00 -5.161912441253662109e+00 -7.040441036224365234e-01 7.000000000000000000e+00
-3.297776412963867188e+01 -2.753459358215332031e+01 -7.498949766159057617e-01 1.000000000000000000e+01
-1.417665839195251021e+00 -1.183671951293945090e+00 4.948620200157166082e-01 8.000000000000000000e+00
-2.093344211578369141e+00 -1.742871165275573953e+00 -7.298697233200073242e-01 2.100000000000000000e+01
-2.440332174301147017e+00 -2.030323505401610884e+00 -7.328905463218688965e-01 1.500000000000000000e+01
-2.937354803085327148e+00 -2.442972183227539062e+00 -7.426286339759826660e-01 1.300000000000000000e+01
-3.693158388137816939e+00 -3.069387197494506836e+00 -7.605843544006347656e-01 1.100000000000000000e+01
-5.034874439239501953e+00 -4.181518077850341797e+00 -8.036064505577087402e-01 8.000000000000000000e+00
-6.216085910797119141e+00 -5.160694122314453125e+00 -7.068330645561218262e-01 7.000000000000000000e+00
-3.315988540649414062e+01 -2.749078369140625000e+01 -7.518496513366699219e-01 1.000000000000000000e+01
-1.441122889518738015e+00 -1.194744706153870073e+00 5.015913248062133789e-01 1.000000000000000000e+00
-2.097926378250122070e+00 -1.734322547912598100e+00 -7.293520569801330566e-01 2.300000000000000000e+01
-2.453414201736450195e+00 -2.026757240295410156e+00 -7.346901297569274902e-01 1.500000000000000000e+01
-2.936781644821166992e+00 -2.425203323364257812e+00 -7.403389215469360352e-01 1.200000000000000000e+01
-3.700802803039550781e+00 -3.053962230682373047e+00 -7.599586248397827148e-01 1.100000000000000000e+01
-5.038719177246093750e+00 -4.155076980590820312e+00 -8.019002676010131836e-01 8.000000000000000000e+00
-6.292482376098632812e+00 -5.187122344970703125e+00 -7.134569287300109863e-01 5.000000000000000000e+00
-3.340385818481445312e+01 -2.749687194824219105e+01 -7.552005052566528320e-01 1.000000000000000000e+01
-2.095008134841918945e+00 -1.719634652137755904e+00 -7.262462377548217773e-01 2.600000000000000000e+01
-2.463487386703491211e+00 -2.020652770996094194e+00 -7.355899214744567871e-01 1.500000000000000000e+01
-2.954338312149047852e+00 -2.422406196594237837e+00 -7.426286339759826660e-01 1.200000000000000000e+01
-3.717552423477172852e+00 -3.046033382415771040e+00 -7.612100839614868164e-01 1.100000000000000000e+01
-5.073159694671630859e+00 -4.153811931610107422e+00 -8.050689101219177246e-01 7.000000000000000000e+00
-6.333677768707275391e+00 -5.184054851531982422e+00 -7.160716056823730469e-01 6.000000000000000000e+00
-3.368543624877929688e+01 -2.753196144104003906e+01 -7.593891024589538574e-01 1.100000000000000000e+01
-2.103992938995360884e+00 -1.714752197265625000e+00 -7.272815108299255371e-01 2.300000000000000000e+01
-2.464481592178345171e+00 -2.007118940353393999e+00 -7.337903380393981934e-01 1.600000000000000000e+01
-2.962775945663452148e+00 -2.412078857421875000e+00 -7.426286339759826660e-01 1.200000000000000000e+01
-3.722033023834228960e+00 -3.028051614761352983e+00 -7.599586248397827148e-01 1.100000000000000000e+01
-5.089168548583984375e+00 -4.137330055236816406e+00 -8.053126335144042969e-01 8.000000000000000000e+00
-6.364104270935058594e+00 -5.171967029571533203e+00 -7.174660563468933105e-01 6.000000000000000000e+00
-3.389623641967772727e+01 -2.750745391845703125e+01 -7.619720697402954102e-01 1.100000000000000000e+01
-2.112969398498535156e+00 -1.709827899932861106e+00 -7.283167839050292969e-01 2.300000000000000000e+01
-2.462380886077880859e+00 -1.991152048110961914e+00 -7.310909032821655273e-01 1.600000000000000000e+01
-2.969650983810424805e+00 -2.400488138198852983e+00 -7.422469854354858398e-01 1.200000000000000000e+01
-3.724896907806396040e+00 -3.008834600448607954e+00 -7.583943009376525879e-01 1.100000000000000000e+01
-5.106668949127197266e+00 -4.122034072875976562e+00 -8.058000802993774414e-01 8.000000000000000000e+00
-6.403826713562011719e+00 -5.167236804962158203e+00 -7.199064493179321289e-01 7.000000000000000000e+00
-3.411039352416992188e+01 -2.748431968688964844e+01 -7.646248340606689453e-01 1.100000000000000000e+01
-2.123442888259888139e+00 -1.706071734428405984e+00 -7.298697233200073242e-01 2.200000000000000000e+01
-2.475394725799560991e+00 -1.987424731254578081e+00 -7.328905463218688965e-01 1.900000000000000000e+01
-2.976480960845946822e+00 -2.388878583908081055e+00 -7.418653964996337891e-01 1.200000000000000000e+01
-3.733835935592650923e+00 -2.994577884674071822e+00 -7.580814361572265625e-01 1.100000000000000000e+01
-5.099339962005615234e+00 -4.086803436279296875e+00 -8.023877739906311035e-01 8.000000000000000000e+00
-6.429599285125732422e+00 -5.151080608367919922e+00 -7.207779884338378906e-01 7.000000000000000000e+00
-3.432167434692382812e+01 -2.745752716064453125e+01 -7.672078013420104980e-01 1.100000000000000000e+01
-2.121834039688109907e+00 -1.692625641822814941e+00 -7.272815108299255371e-01 2.000000000000000000e+01
-2.488412380218505859e+00 -1.983630657196044922e+00 -7.346901297569274902e-01 1.900000000000000000e+01
