-2.094590187072753906e+00 2.330364465713500977e+00 -6.090623140335083008e-01 1.200000000000000000e+01
-2.534381866455078125e+00 2.821640968322753906e+00 -6.007083654403686523e-01 9.000000000000000000e+00
-3.204862594604492188e+00 3.570623636245727983e+00 -5.891163945198059082e-01 8.000000000000000000e+00
-4.300442695617675781e+00 4.792921543121337891e+00 -5.633746981620788574e-01 6.000000000000000000e+00
-6.523913383483886719e+00 7.276128292083740234e+00 -5.121596455574035645e-01 2.000000000000000000e+00
-1.557438254356384055e+00 1.743124127388000044e+00 -6.263421177864074707e-01 1.600000000000000000e+01
-1.793675780296325906e+00 2.008938074111938032e+00 -6.217647194862365723e-01 1.100000000000000000e+01
-2.086442947387694868e+00 2.337661743164062944e+00 -6.090623140335083008e-01 1.100000000000000000e+01
-2.533720970153809038e+00 2.840790033340454102e+00 -6.028984189033508301e-01 8.000000000000000000e+00
-3.187095880508422852e+00 3.575861454010010210e+00 -5.881414413452148438e-01 9.000000000000000000e+00
-4.282360553741455078e+00 4.806416034698486328e+00 -5.632004141807556152e-01 7.000000000000000000e+00
-6.466600418090820312e+00 7.263055801391601562e+00 -5.096475481986999512e-01 2.000000000000000000e+00
-1.550062060356139915e+00 1.747104883193969949e+00 -6.258244514465332031e-01 1.800000000000000000e+01
-1.789237976074218972e+00 2.018103122711182085e+00 -6.226645112037658691e-01 1.200000000000000000e+01
-2.078270196914672852e+00 2.344930648803710938e+00 -6.090623140335083008e-01 1.100000000000000000e+01
-2.515931129455565962e+00 2.840744256973267046e+00 -6.010212302207946777e-01 9.000000000000000000e+00
-3.171963214874268022e+00 3.583991527557373047e+00 -5.876539945602416992e-01 8.000000000000000000e+00
-4.261596202850341797e+00 4.816858291625976562e+00 -5.626775026321411133e-01 6.000000000000000000e+00
-6.451791286468505859e+00 7.297554969787597656e+00 -5.104849338531494141e-01 2.000000000000000000e+00
-1.541399955749511941e+00 1.749605894088744895e+00 -6.247891783714294434e-01 1.800000000000000000e+01
-1.774456262588500977e+00 2.015560388565063032e+00 -6.199650764465332031e-01 1.100000000000000000e+01
-2.075260400772095171e+00 2.358066082000731978e+00 -6.105887889862060547e-01 1.100000000000000000e+01
-2.500781536102294922e+00 2.843575716018677202e+00 -5.997697114944458008e-01 9.000000000000000000e+00
-3.159433364868164062e+00 3.595041990280150923e+00 -5.876539945602416992e-01 8.000000000000000000e+00
-4.232921600341796875e+00 4.818233489990234375e+00 -5.611086487770080566e-01 6.000000000000000000e+00
-6.426279067993164062e+00 7.320031642913818359e+00 -5.104849338531494141e-01 2.000000000000000000e+00
-1.535283327102660911e+00 1.754975676536560059e+00 -6.247891783714294434e-01 1.800000000000000000e+01
-5.845825958251953125e+01 6.684692382812500000e+01 1.550052881240844949e+00 7.000000000000000000e+00
-1.767409920692444070e+00 2.021742105484008789e+00 -6.199650764465332031e-01 1.300000000000000000e+01
-2.069600343704224077e+00 2.368252277374268022e+00 -6.113520264625549316e-01 1.100000000000000000e+01
-2.481745004653931108e+00 2.841872692108153853e+00 -5.975796580314636230e-01 9.000000000000000000e+00
-3.148170471191405806e+00 3.607544183731079102e+00 -5.878977179527282715e-01 9.000000000000000000e+00
-4.220006465911865234e+00 4.837483882904052734e+00 -5.616316199302673340e-01 6.000000000000000000e+00
-6.413812160491943359e+00 7.357473850250244141e+00 -5.115316510200500488e-01 2.000000000000000000e+00
-1.309294700622558949e+01 1.502989578247069957e+01 -3.479311764240264893e-01 3.000000000000000000e+00
-1.534523725509643999e+00 1.765890002250670943e+00 -6.268597245216369629e-01 1.800000000000000000e+01
-1.760695815086364968e+00 2.027591943740845171e+00 -6.199650764465332031e-01 1.600000000000000000e+01
-2.054013729095458984e+00 2.366206884384154829e+00 -6.090623140335083008e-01 1.100000000000000000e+01
-2.482662677764893022e+00 2.862024307250977007e+00 -6.000826358795166016e-01 9.000000000000000000e+00
-3.127088308334351030e+00 3.607464313507080078e+00 -5.861915349960327148e-01 8.000000000000000000e+00
-4.201332092285156250e+00 4.848440170288085938e+00 -5.612829923629760742e-01 4.000000000000000000e+00
-6.402452945709229404e+00 7.393801212310791016e+00 -5.125783681869506836e-01 2.000000000000000000e+00
-1.291218566894531072e+01 1.492201519012450994e+01 -3.444406986236572266e-01 3.000000000000000000e+00
-1.528350353240967019e+00 1.771235823631287065e+00 -6.268597245216369629e-01 1.700000000000000000e+01
-1.757425189018249956e+00 2.038153171539307085e+00 -6.213148236274719238e-01 1.500000000000000000e+01
-2.041896343231201172e+00 2.368901014328002930e+00 -6.079174876213073730e-01 1.100000000000000000e+01
-2.475235462188721147e+00 2.873666286468505859e+00 -6.007083654403686523e-01 9.000000000000000000e+00
-3.114476919174193892e+00 3.618357896804810014e+00 -5.861915349960327148e-01 9.000000000000000000e+00
-4.180483818054199219e+00 4.858545303344726562e+00 -5.607600212097167969e-01 4.000000000000000000e+00
-6.306289196014404297e+00 7.334326267242431641e+00 -5.069260597229003906e-01 2.000000000000000000e+00
-1.282352924346924006e+01 1.492452812194824041e+01 -3.434633612632750910e-01 3.000000000000000000e+00
-1.514616608619689941e+00 1.767757773399353027e+00 -6.237539052963256836e-01 1.800000000000000000e+01
-1.752834796905518022e+00 2.047235965728760210e+00 -6.222146153450012207e-01 1.500000000000000000e+01
-2.036168098449707031e+00 2.378997325897216797e+00 -6.086806654930114746e-01 1.100000000000000000e+01
-2.457485914230347124e+00 2.873281955718994141e+00 -5.988311171531677246e-01 9.000000000000000000e+00
-3.104406833648682085e+00 3.632225275039672852e+00 -5.866790413856506348e-01 8.000000000000000000e+00
-4.150556564331054688e+00 4.857960224151611328e+00 -5.590169429779052734e-01 4.000000000000000000e+00
-6.259899139404296875e+00 7.331991195678710938e+00 -5.052513480186462402e-01 2.000000000000000000e+00
-1.512192130088805930e+00 1.777448177337646040e+00 -6.253067851066589355e-01 1.900000000000000000e+01
-1.745677947998047097e+00 2.053342103958129883e+00 -6.222146153450012207e-01 1.600000000000000000e+01
-2.034208297729492188e+00 2.393570184707642046e+00 -6.105887889862060547e-01 1.200000000000000000e+01
-2.447441101074219194e+00 2.881842613220214844e+00 -5.988311171531677246e-01 9.000000000000000000e+00
-3.091709136962891069e+00 3.643039703369141069e+00 -5.866790413856506348e-01 8.000000000000000000e+00
-4.130995750427246094e+00 4.869379997253417969e+00 -5.586683154106140137e-01 4.000000000000000000e+00
-6.260098457336425781e+00 7.384267330169677734e+00 -5.073447823524475098e-01 2.000000000000000000e+00
-1.257425498962401988e+01 1.484280109405517933e+01 -3.395540118217468262e-01 3.000000000000000000e+00
-1.509718537330626997e+00 1.787143230438231978e+00 -6.268597245216369629e-01 1.800000000000000000e+01
-1.734728693962096946e+00 2.054955720901488814e+00 -6.208649277687072754e-01 1.600000000000000000e+01
-2.018243789672852007e+00 2.391653776168822798e+00 -6.082990765571594238e-01 1.100000000000000000e+01
-2.430999517440795898e+00 2.882817506790161133e+00 -5.972667932510375977e-01 8.000000000000000000e+00
-3.081532239913939986e+00 3.656845569610596147e+00 -5.871664881706237793e-01 8.000000000000000000e+00
-4.113973617553710938e+00 4.883770465850830078e+00 -5.586683154106140137e-01 4.000000000000000000e+00
-6.252291679382324219e+00 7.427465438842773438e+00 -5.088101625442504883e-01 2.000000000000000000e+00
-1.252751636505126953e+01 1.489272403717041016e+01 -3.396936357021331787e-01 3.000000000000000000e+00
-1.505954027175903098e+00 1.795362472534179910e+00 -6.278949975967407227e-01 1.700000000000000000e+01
-1.726293206214905007e+00 2.059504985809326172e+00 -6.204150319099426270e-01 1.500000000000000000e+01
-2.007361173629761186e+00 2.395674705505371094e+00 -6.075358390808105469e-01 1.100000000000000000e+01
-2.427262783050537109e+00 2.898858547210692915e+00 -5.988311171531677246e-01 9.000000000000000000e+00
-3.059831619262694868e+00 3.656922578811645952e+00 -5.854603052139282227e-01 9.000000000000000000e+00
-4.108405590057373047e+00 4.911855220794677734e+00 -5.602371096611022949e-01 4.000000000000000000e+00
-6.182776927947998047e+00 7.397141456604003906e+00 -5.052513480186462402e-01 2.000000000000000000e+00
-1.247032737731933949e+01 1.493022346496582031e+01 -3.395540118217468262e-01 3.000000000000000000e+00
-1.499677896499634011e+00 1.800608277320862038e+00 -6.278949975967407227e-01 1.800000000000000000e+01
-1.716600418090820090e+00 2.062522649765015093e+00 -6.195151805877685547e-01 1.500000000000000000e+01
-1.996475338935852051e+00 2.399648666381835938e+00 -6.067726016044616699e-01 1.100000000000000000e+01
-2.423443317413330078e+00 2.914908647537231001e+00 -6.003955006599426270e-01 8.000000000000000000e+00
-3.050853490829468218e+00 3.672161817550659180e+00 -5.861915349960327148e-01 9.000000000000000000e+00
-4.078505516052246094e+00 4.910839080810546875e+00 -5.584939718246459961e-01 6.000000000000000000e+00
-6.156918525695800781e+00 7.418678283691406250e+00 -5.052513480186462402e-01 2.000000000000000000e+00
-1.237473297119140980e+01 1.492132759094237926e+01 -3.383672535419464111e-01 3.000000000000000000e+00
-1.478609681129456010e+00 1.787967324256896973e+00 -6.216833591461181641e-01 1.700000000000000000e+01
-1.713114500045775923e+00 2.073008775711060014e+00 -6.208649277687072754e-01 1.200000000000000000e+01
-1.985586047172545943e+00 2.403575897216796875e+00 -6.060093641281127930e-01 1.100000000000000000e+01
-2.414511203765869141e+00 2.924873590469359907e+00 -6.007083654403686523e-01 9.000000000000000000e+00
-3.034227132797241211e+00 3.678194999694824219e+00 -5.854603052139282227e-01 9.000000000000000000e+00
-4.038521766662597656e+00 4.897377014160156250e+00 -5.553563833236694336e-01 6.000000000000000000e+00
-6.141146183013916016e+00 7.452455997467041016e+00 -5.060886740684509277e-01 2.000000000000000000e+00
-1.228952217102050959e+01 1.492429733276367010e+01 -3.374597430229187012e-01 3.000000000000000000e+00
-1.479715108871459961e+00 1.802075862884521040e+00 -6.247891783714294434e-01 1.700000000000000000e+01
-1.703395724296570046e+00 2.075963020324707031e+00 -6.199650764465332031e-01 1.100000000000000000e+01
-1.979674100875854048e+00 2.413527965545653853e+00 -6.067726016044616699e-01 1.100000000000000000e+01
-2.388007640838623047e+00 2.913423061370850053e+00 -5.966410636901855469e-01 8.000000000000000000e+00
-3.020111322402954102e+00 3.687228441238402876e+00 -5.852165818214416504e-01 8.000000000000000000e+00
-4.031499862670898438e+00 4.923777103424072266e+00 -5.567508935928344727e-01 6.000000000000000000e+00
-6.084740638732910156e+00 7.436748027801513672e+00 -5.035765767097473145e-01 2.000000000000000000e+00
-1.221203708648681996e+01 1.493614292144775035e+01 -3.367616236209868830e-01 3.000000000000000000e+00
-1.475857138633728027e+00 1.810224652290344016e+00 -6.258244514465332031e-01 1.800000000000000000e+01
-1.692446231842041016e+00 2.077363967895507812e+00 -6.186153888702392578e-01 1.200000000000000000e+01
-1.976196289062500000e+00 2.426512718200684038e+00 -6.082990765571594238e-01 1.100000000000000000e+01
-2.379070281982421875e+00 2.923273324966431108e+00 -5.969539284706115723e-01 9.000000000000000000e+00
-3.002212285995482954e+00 3.691587686538695845e+00 -5.842416286468505859e-01 9.000000000000000000e+00
-4.009261131286621094e+00 4.931635856628417969e+00 -5.560536384582519531e-01 7.000000000000000000e+00
-6.048669815063476562e+00 7.445541381835938388e+00 -5.027391910552978516e-01 2.000000000000000000e+00
-1.210437011718750000e+01 1.491036891937256037e+01 -3.352258205413817804e-01 3.000000000000000000e+00
-1.474391341209412065e+00 1.821371555328368919e+00 -6.278949975967407227e-01 1.500000000000000000e+01
-1.681507825851439986e+00 2.078713655471802202e+00 -6.172657012939453125e-01 1.200000000000000000e+01
-1.962776303291321023e+00 2.427289724349976030e+00 -6.067726016044616699e-01 1.100000000000000000e+01
-2.375059366226195845e+00 2.939242124557495117e+00 -5.985182523727416992e-01 9.000000000000000000e+00
-2.989307880401610884e+00 3.702044963836669922e+00 -5.842416286468505859e-01 8.000000000000000000e+00
-3.984513521194458008e+00 4.936298370361328125e+00 -5.550077557563781738e-01 6.000000000000000000e+00
-6.010103702545166016e+00 7.451064109802246094e+00 -5.016924738883972168e-01 2.000000000000000000e+00
-1.203970050811767933e+01 1.493696117401123047e+01 -3.348767757415770929e-01 3.000000000000000000e+00
-1.464393854141234907e+00 1.821989655494689941e+00 -6.263421177864074707e-01 1.600000000000000000e+01
-1.677902340888977051e+00 2.089128732681273970e+00 -6.186153888702392578e-01 1.300000000000000000e+01
-1.951833367347717063e+00 2.431064605712891069e+00 -6.060093641281127930e-01 1.100000000000000000e+01
-2.366021156311035156e+00 2.949055671691894975e+00 -5.988311171531677246e-01 9.000000000000000000e+00
-2.976366996765137163e+00 3.712456941604613814e+00 -5.842416286468505859e-01 9.000000000000000000e+00
-3.964766263961791992e+00 4.947067737579345703e+00 -5.546591281890869141e-01 6.000000000000000000e+00
-5.994046211242675781e+00 7.484469413757324219e+00 -5.025298595428466797e-01 2.000000000000000000e+00
-1.195500087738036932e+01 1.493830299377441051e+01 -3.339692354202271063e-01 3.000000000000000000e+00
-1.449907183647155984e+00 1.816267251968384011e+00 -6.227186322212219238e-01 1.700000000000000000e+01
-1.670965313911437988e+00 2.094681262969971147e+00 -6.186153888702392578e-01 1.300000000000000000e+01
-1.944984912872314009e+00 2.439058780670166016e+00 -6.063910126686096191e-01 1.100000000000000000e+01
-2.351304531097412109e+00 2.950706005096435991e+00 -5.975796580314636230e-01 9.000000000000000000e+00
-2.962803125381470171e+00 3.720753669738769975e+00 -5.839979052543640137e-01 9.000000000000000000e+00
-3.933449506759643999e+00 4.941482067108154297e+00 -5.525674223899841309e-01 4.000000000000000000e+00
-5.939353942871093750e+00 7.466791152954101562e+00 -5.000177025794982910e-01 2.000000000000000000e+00
-1.190539836883544922e+01 1.497786521911620916e+01 -3.339692354202271063e-01 3.000000000000000000e+00
-1.443558335304260032e+00 1.821317315101623979e+00 -6.227186322212219238e-01 1.700000000000000000e+01
-1.667273163795470969e+00 2.105084180831909180e+00 -6.199650764465332031e-01 1.400000000000000000e+01
-1.934021830558777078e+00 2.442754745483397993e+00 -6.056277751922607422e-01 1.000000000000000000e+01
-2.336087703704833984e+00 2.952698945999145952e+00 -5.963281989097595215e-01 9.000000000000000000e+00
-2.954721927642821822e+00 3.737301826477050781e+00 -5.849728584289550781e-01 9.000000000000000000e+00
-3.918647289276123047e+00 4.958308696746826172e+00 -5.529160499572753906e-01 4.000000000000000000e+00
-5.928108215332031250e+00 7.506286621093750000e+00 -5.012738108634948730e-01 2.000000000000000000e+00
-1.185304355621338068e+01 1.501933193206786932e+01 -3.339692354202271063e-01 3.000000000000000000e+00
-1.446749329566956010e+00 1.838490486145019975e+00 -6.268597245216369629e-01 1.800000000000000000e+01
-1.655096530914307085e+00 2.104763984680175781e+00 -6.181654930114746094e-01 1.400000000000000000e+01
-1.931549668312072976e+00 2.457208156585692915e+00 -6.075358390808105469e-01 1.100000000000000000e+01
-2.326987028121947798e+00 2.962388753890991211e+00 -5.966410636901855469e-01 8.000000000000000000e+00
-2.939206838607788086e+00 3.744470119476317915e+00 -5.844853520393371582e-01 9.000000000000000000e+00
-3.891476154327393022e+00 4.959417343139648438e+00 -5.515215396881103516e-01 6.000000000000000000e+00
-5.850110054016113281e+00 7.460922241210938388e+00 -4.968775808811187744e-01 2.000000000000000000e+00
-1.176847743988036932e+01 1.501968955993651988e+01 -3.330617249011992853e-01 3.000000000000000000e+00
-1.443891048431396040e+00 1.848096370697021040e+00 -6.284126639366149902e-01 1.900000000000000000e+01
-1.642942547798156960e+00 2.104384183883666992e+00 -6.163659095764160156e-01 1.400000000000000000e+01
-1.921752810478210005e+00 2.462387800216674805e+00 -6.071542501449584961e-01 1.000000000000000000e+01
-2.322706222534180132e+00 2.978281736373900923e+00 -5.982053875923156738e-01 9.000000000000000000e+00
-2.921237468719481978e+00 3.748443841934204102e+00 -5.835103988647460938e-01 9.000000000000000000e+00
-3.871691942214965820e+00 4.969827651977539062e+00 -5.511729121208190918e-01 6.000000000000000000e+00
-5.814216136932373047e+00 7.468689441680908203e+00 -4.960401952266693115e-01 2.000000000000000000e+00
-1.174790000915526988e+01 1.510171508789063033e+01 -3.339692354202271063e-01 3.000000000000000000e+00
-1.428821325302124023e+00 1.842689394950866921e+00 -6.247891783714294434e-01 1.700000000000000000e+01
-1.636412143707274947e+00 2.111932277679442915e+00 -6.168158054351806641e-01 1.500000000000000000e+01
-1.909108161926269975e+00 2.464758634567261186e+00 -6.060093641281127930e-01 9.000000000000000000e+00
-2.314192771911621094e+00 2.989899158477783203e+00 -5.988311171531677246e-01 9.000000000000000000e+00
-2.902621030807495117e+00 3.752844810485839844e+00 -5.825354456901550293e-01 9.000000000000000000e+00
-3.847357273101807085e+00 4.976103305816650391e+00 -5.503013730049133301e-01 7.000000000000000000e+00
-5.806340694427490234e+00 7.515237331390380859e+00 -4.977149367332457941e-01 2.000000000000000000e+00
-1.161426067352294922e+01 1.504336929321289062e+01 -3.317353427410125732e-01 3.000000000000000000e+00
-1.417666673660278098e+00 1.841542482376099077e+00 -6.227186322212219238e-01 1.800000000000000000e+01
-1.638535737991333008e+00 2.129988193511962891e+00 -6.204150319099426270e-01 1.500000000000000000e+01
-1.894508957862854004e+00 2.463626146316527876e+00 -6.041013002395629883e-01 1.000000000000000000e+01
-2.291705608367919922e+00 2.982295751571654829e+00 -5.957024693489074707e-01 9.000000000000000000e+00
-2.899175405502318892e+00 3.775549411773682085e+00 -5.844853520393371582e-01 9.000000000000000000e+00
-3.812979698181151900e+00 4.967376708984375000e+00 -5.478609800338745117e-01 6.000000000000000000e+00
-5.765485286712645596e+00 7.516442298889160156e+00 -4.964588880538939875e-01 2.000000000000000000e+00
-1.157870960235596058e+01 1.510603904724120916e+01 -3.322240114212036133e-01 3.000000000000000000e+00
-1.412725448608397993e+00 1.847768187522887962e+00 -6.232362389564514160e-01 1.600000000000000000e+01
-1.630280375480652078e+00 2.133861541748046875e+00 -6.199650764465332031e-01 1.600000000000000000e+01
-1.888712167739867942e+00 2.473015546798706055e+00 -6.048645377159118652e-01 1.000000000000000000e+01
-2.281803369522095171e+00 2.989878892898560014e+00 -5.957024693489074707e-01 9.000000000000000000e+00
-2.881824254989624023e+00 3.778828859329224077e+00 -5.835103988647460938e-01 9.000000000000000000e+00
-3.794070482254027876e+00 4.976824760437011719e+00 -5.475123524665832520e-01 8.000000000000000000e+00
-5.733265876770020419e+00 7.525987625122070312e+00 -4.958308637142180841e-01 2.000000000000000000e+00
-1.146799087524414062e+01 1.506479549407958984e+01 -3.304787576198577881e-01 3.000000000000000000e+00
-1.405098915100098100e+00 1.851149439811706987e+00 -6.227186322212219238e-01 1.800000000000000000e+01
-1.607512235641479048e+00 2.119354963302611861e+00 -6.141163706779479980e-01 1.500000000000000000e+01
-1.884812831878662109e+00 2.485850811004639116e+00 -6.063910126686096191e-01 1.000000000000000000e+01
-2.273738861083983931e+00 3.000974655151367188e+00 -5.963281989097595215e-01 9.000000000000000000e+00
-2.868616104125977007e+00 3.788865327835083008e+00 -5.835103988647460938e-01 9.000000000000000000e+00
-3.788698911666870117e+00 5.005924701690673828e+00 -5.492554903030395508e-01 7.000000000000000000e+00
-5.704551219940186435e+00 7.542768478393554688e+00 -4.956215023994445801e-01 2.000000000000000000e+00
-1.141533470153808949e+01 1.510473442077637074e+01 -3.304787576198577881e-01 3.000000000000000000e+00
-1.400953888893126997e+00 1.859128594398498979e+00 -6.237539052963256836e-01 1.500000000000000000e+01
-1.605965733528136985e+00 2.132736921310424805e+00 -6.163659095764160156e-01 1.700000000000000000e+01
-1.869039893150330034e+00 2.483003616333007812e+00 -6.041013002395629883e-01 1.000000000000000000e+01
-2.263249635696411133e+00 3.008893251419066939e+00 -5.963281989097595215e-01 9.000000000000000000e+00
-2.848216772079468218e+00 3.789334774017333984e+00 -5.820479989051818848e-01 9.000000000000000000e+00
-3.766414403915404829e+00 5.012747764587402344e+00 -5.485582351684570312e-01 7.000000000000000000e+00
-5.682983875274658203e+00 7.569024085998535156e+00 -4.960401952266693115e-01 2.000000000000000000e+00
-1.128573322296142933e+01 1.504211902618408025e+01 -3.282448649406433105e-01 3.000000000000000000e+00
-1.396770238876342995e+00 1.867101311683655007e+00 -6.247891783714294434e-01 1.500000000000000000e+01
-1.600844860076904075e+00 2.141451597213745117e+00 -6.172657012939453125e-01 1.700000000000000000e+01
-1.852134823799133079e+00 2.478504180908203125e+00 -6.014299392700195312e-01 1.100000000000000000e+01
-2.255096673965454102e+00 3.019940614700316939e+00 -5.969539284706115723e-01 1.000000000000000000e+01
-2.837346553802489790e+00 3.802435636520386186e+00 -5.825354456901550293e-01 9.000000000000000000e+00
-3.740555047988892046e+00 5.014685153961181641e+00 -5.473380684852600098e-01 8.000000000000000000e+00
-5.642205238342285156e+00 7.569598674774169922e+00 -4.947841167449951172e-01 2.000000000000000000e+00
-1.123315811157226918e+01 1.508142185211181996e+01 -3.282448649406433105e-01 3.000000000000000000e+00
-1.383333444595336914e+00 1.862660050392151101e+00 -6.216833591461181641e-01 1.400000000000000000e+01
-1.596844077110290971e+00 2.151721239089965820e+00 -6.186153888702392578e-01 1.600000000000000000e+01
-1.851659893989562988e+00 2.495991468429564986e+00 -6.041013002395629883e-01 1.200000000000000000e+01
-2.242188453674315962e+00 3.024620294570922852e+00 -5.963281989097595215e-01 9.000000000000000000e+00
-2.826419591903686968e+00 3.815506935119628906e+00 -5.830229520797729492e-01 9.000000000000000000e+00
-3.718284845352172852e+00 5.021306991577148438e+00 -5.466408133506774902e-01 6.000000000000000000e+00
-5.615747928619384766e+00 7.589247703552246094e+00 -4.947841167449951172e-01 2.000000000000000000e+00
-1.119709014892577947e+01 1.514305114746093928e+01 -3.287335336208344061e-01 3.000000000000000000e+00
-1.379115939140320046e+00 1.870587348937988059e+00 -6.227186322212219238e-01 1.100000000000000000e+01
-1.587011694908142090e+00 2.154144287109375000e+00 -6.177155971527099609e-01 1.500000000000000000e+01
-1.844100236892699973e+00 2.504020452499390093e+00 -6.044828891754150391e-01 1.200000000000000000e+01
-2.226933717727661133e+00 3.026064395904541016e+00 -5.950766801834106445e-01 9.000000000000000000e+00
-2.810731649398804155e+00 3.822151184082030806e+00 -5.825354456901550293e-01 1.100000000000000000e+01
-3.693654298782349077e+00 5.024623870849609375e+00 -5.455949306488037109e-01 8.000000000000000000e+00
-5.589222431182861328e+00 7.608804225921630859e+00 -4.947841167449951172e-01 2.000000000000000000e+00
-1.112759685516357067e+01 1.515947532653808949e+01 -3.282448649406433105e-01 3.000000000000000000e+00
-1.377141833305359109e+00 1.881625652313231978e+00 -6.247891783714294434e-01 1.000000000000000000e+01
-1.570279598236083984e+00 2.147087097167969194e+00 -6.141163706779479980e-01 1.500000000000000000e+01
-1.839982986450195090e+00 2.516781806945800781e+00 -6.060093641281127930e-01 1.100000000000000000e+01
-2.218687772750854048e+00 3.037009716033935991e+00 -5.957024693489074707e-01 9.000000000000000000e+00
-2.785668134689331055e+00 3.815906047821044922e+00 -5.800980925559997559e-01 1.100000000000000000e+01
-3.678441524505614790e+00 5.040705204010009766e+00 -5.459435582160949707e-01 6.000000000000000000e+00
-5.543799877166748047e+00 7.602447509765625000e+00 -4.931093752384185791e-01 1.000000000000000000e+00
-1.103221702575683949e+01 1.514004516601563033e+01 -3.269882798194885254e-01 3.000000000000000000e+00
-1.375107288360595925e+00 1.892672896385193093e+00 -6.268597245216369629e-01 8.000000000000000000e+00
-1.563920140266418013e+00 2.154132366180419922e+00 -6.145662665367126465e-01 1.600000000000000000e+01
-1.827727198600769043e+00 2.518422603607178178e+00 -6.048645377159118652e-01 1.200000000000000000e+01
-2.208073139190673828e+00 3.044735908508300781e+00 -5.957024693489074707e-01 9.000000000000000000e+00
-2.780485153198242188e+00 3.836858510971068892e+00 -5.818042159080505371e-01 1.100000000000000000e+01
-3.664330244064331055e+00 5.058355331420898438e+00 -5.464665293693542480e-01 8.000000000000000000e+00
-5.517228603363037109e+00 7.621752738952636719e+00 -4.931093752384185791e-01 1.000000000000000000e+00
-1.097930145263672053e+01 1.517846202850341975e+01 -3.269882798194885254e-01 3.000000000000000000e+00
-1.361711978912353960e+00 1.888060212135314941e+00 -6.237539052963256836e-01 6.000000000000000000e+00
-1.555251955986022949e+00 2.157997369766234907e+00 -6.141163706779479980e-01 1.600000000000000000e+01
-1.813187122344970925e+00 2.516822576522827148e+00 -6.029564142227172852e-01 1.100000000000000000e+01
-2.199739694595336914e+00 3.055631160736083984e+00 -5.963281989097595215e-01 9.000000000000000000e+00
-2.762438058853148970e+00 3.840094804763793945e+00 -5.808292627334594727e-01 1.100000000000000000e+01
-3.640834808349608931e+00 5.063027381896972656e+00 -5.455949306488037109e-01 6.000000000000000000e+00
-5.509238243103027344e+00 7.666915893554688388e+00 -4.947841167449951172e-01 2.000000000000000000e+00
-1.353988528251647949e+00 1.891231179237365945e+00 -6.232362389564514160e-01 8.000000000000000000e+00
-1.554512739181518999e+00 2.172922611236571822e+00 -6.168158054351806641e-01 1.600000000000000000e+01
-1.803248763084412065e+00 2.521539449691772017e+00 -6.025748252868652344e-01 1.000000000000000000e+01
-2.184466123580933061e+00 3.056862354278564009e+00 -5.950766801834106445e-01 9.000000000000000000e+00
-2.740941762924193892e+00 3.838405847549438032e+00 -5.791231393814086914e-01 9.000000000000000000e+00
-3.613878965377808061e+00 5.062732696533203125e+00 -5.442004799842834473e-01 8.000000000000000000e+00
-5.454606533050537109e+00 7.647076129913330078e+00 -4.922719895839691162e-01 1.000000000000000000e+00
-1.083128547668457031e+01 1.519611930847167969e+01 -3.257317245006560724e-01 3.000000000000000000e+00
-1.348497748374938965e+00 1.897520661354064941e+00 -6.237539052963256836e-01 9.000000000000000000e+00
-1.542405128479003906e+00 2.171980142593383789e+00 -6.150161623954772949e-01 1.600000000000000000e+01
-1.801254630088805930e+00 2.537424087524414062e+00 -6.048645377159118652e-01 1.000000000000000000e+01
-2.164639234542847124e+00 3.051579475402832031e+00 -5.925737619400024414e-01 9.000000000000000000e+00
-2.730970382690430132e+00 3.852808475494385210e+00 -5.798543095588684082e-01 1.100000000000000000e+01
-3.603096008300780806e+00 5.085070610046386719e+00 -5.452463030815124512e-01 9.000000000000000000e+00
-5.427879810333251953e+00 7.666069507598876953e+00 -4.922719895839691162e-01 1.000000000000000000e+00
-1.076200580596924006e+01 1.521098136901854936e+01 -3.252430558204650879e-01 3.000000000000000000e+00
-1.346320271492003950e+00 1.908530712127685991e+00 -6.258244514465332031e-01 1.200000000000000000e+01
-1.529200315475464089e+00 2.169386863708496094e+00 -6.127666831016540527e-01 1.600000000000000000e+01
-1.793517231941222922e+00 2.545300960540771040e+00 -6.052461266517639160e-01 1.100000000000000000e+01
-2.158523082733153853e+00 3.065577507019042969e+00 -5.938252210617065430e-01 9.000000000000000000e+00
-2.715220212936400923e+00 3.859071016311645952e+00 -5.793668627738952637e-01 1.100000000000000000e+01
-3.580739021301269975e+00 5.091097831726074219e+00 -5.445491075515747070e-01 9.000000000000000000e+00
-5.385009288787841797e+00 7.662093162536621094e+00 -4.908066093921660822e-01 1.000000000000000000e+00
-1.067436599731444957e+01 1.519936180114745916e+01 -3.241958916187285822e-01 3.000000000000000000e+00
-1.340758204460144043e+00 1.914801120758057085e+00 -6.263421177864074707e-01 1.400000000000000000e+01
-1.520501255989074929e+00 2.173114776611328125e+00 -6.123167872428894043e-01 1.500000000000000000e+01
-1.778995275497436968e+00 2.543502092361450195e+00 -6.033380627632141113e-01 1.000000000000000000e+01
-2.146677494049071822e+00 3.071474313735961914e+00 -5.935123562812805176e-01 1.000000000000000000e+01
-2.694913387298583984e+00 3.858760356903076172e+00 -5.779044032096862793e-01 1.000000000000000000e+01
-3.582334756851195845e+00 5.131338119506835938e+00 -5.475123524665832520e-01 8.000000000000000000e+00
-5.328519821166992188e+00 7.638254165649414062e+00 -4.880851209163665771e-01 1.000000000000000000e+00
-1.059837436676025035e+01 1.520372009277343928e+01 -3.234978020191193182e-01 3.000000000000000000e+00
-1.328553438186645952e+00 1.911537885665893999e+00 -6.237539052963256836e-01 1.500000000000000000e+01
-1.517352819442749023e+00 2.184811592102050781e+00 -6.141163706779479980e-01 1.600000000000000000e+01
-1.765627503395081010e+00 2.543245553970336914e+00 -6.018115878105163574e-01 1.100000000000000000e+01
-2.139320850372314009e+00 3.083818197250366211e+00 -5.944509506225585938e-01 1.000000000000000000e+01
-2.682558298110961914e+00 3.869775295257567915e+00 -5.781481862068176270e-01 8.000000000000000000e+00
-3.538300752639770952e+00 5.106145858764648438e+00 -5.435032248497009277e-01 8.000000000000000000e+00
-5.299551010131835938e+00 7.653523445129395419e+00 -4.878757894039154053e-01 1.000000000000000000e+00
-1.050427722930908025e+01 1.518142318725585938e+01 -3.222412467002869207e-01 3.000000000000000000e+00
-1.315956354141234907e+00 1.906163454055785911e+00 -6.206480860710144043e-01 2.000000000000000000e+01
-1.516014456748961958e+00 2.197587966918944868e+00 -6.163659095764160156e-01 1.600000000000000000e+01
-1.759858131408690962e+00 2.552012443542480025e+00 -6.025748252868652344e-01 1.100000000000000000e+01
-2.128501415252685991e+00 3.088897228240966797e+00 -5.941380858421325684e-01 1.000000000000000000e+01
-2.668136358261107954e+00 3.874913930892943892e+00 -5.776606798171997070e-01 8.000000000000000000e+00
-3.517723321914672852e+00 5.110671997070313388e+00 -5.428059697151184082e-01 8.000000000000000000e+00
-5.304908275604248047e+00 7.712920188903808594e+00 -4.905972480773925781e-01 1.000000000000000000e+00
-1.045653152465819957e+01 1.521434879302979049e+01 -3.222412467002869207e-01 3.000000000000000000e+00
-1.315846443176269975e+00 1.920307040214539018e+00 -6.237539052963256836e-01 1.900000000000000000e+01
-1.506132245063781960e+00 2.199650764465332031e+00 -6.154660582542419434e-01 1.600000000000000000e+01
-1.747612476348876953e+00 2.553279638290404829e+00 -6.014299392700195312e-01 1.200000000000000000e+01
-2.107669591903686968e+00 3.081633806228638139e+00 -5.913223028182983398e-01 9.000000000000000000e+00
-2.661314487457274947e+00 3.894037246704102007e+00 -5.791231393814086914e-01 9.000000000000000000e+00
-3.495366573333739790e+00 5.116339683532714844e+00 -5.421087145805358887e-01 6.000000000000000000e+00
-5.248674392700195312e+00 7.688502788543701172e+00 -4.878757894039154053e-01 1.000000000000000000e+00
-1.037406158447265980e+01 1.520780563354492010e+01 -3.213337063789368231e-01 3.000000000000000000e+00
-1.308048963546752930e+00 1.923291087150573953e+00 -6.232362389564514160e-01 1.900000000000000000e+01
-1.487491369247436968e+00 2.188776969909667969e+00 -6.109670400619506836e-01 1.400000000000000000e+01
-1.739792466163635032e+00 2.560988187789916992e+00 -6.018115878105163574e-01 1.200000000000000000e+01
-2.102447032928466797e+00 3.097144126892089844e+00 -5.928866267204284668e-01 1.000000000000000000e+01
-2.643248081207274947e+00 3.896731853485106978e+00 -5.781481862068176270e-01 8.000000000000000000e+00
-3.476367950439453125e+00 5.126860618591308594e+00 -5.419344305992126465e-01 6.000000000000000000e+00
-5.221804618835449219e+00 7.706777095794677734e+00 -4.878757894039154053e-01 1.000000000000000000e+00
-1.030745983123778942e+01 1.522405433654784979e+01 -3.209148347377777100e-01 3.000000000000000000e+00
-1.304569959640502930e+00 1.932648897171020952e+00 -6.247891783714294434e-01 1.800000000000000000e+01
-1.480931758880615012e+00 2.195571660995482954e+00 -6.114169359207153320e-01 1.600000000000000000e+01
-1.726452112197875977e+00 2.560534477233887163e+00 -6.002851128578186035e-01 1.200000000000000000e+01
-2.090519428253173828e+00 3.102825880050659180e+00 -5.925737619400024414e-01 9.000000000000000000e+00
-2.625195503234862837e+00 3.899348020553588867e+00 -5.771732330322265625e-01 8.000000000000000000e+00
-3.466237306594849077e+00 5.150534629821777344e+00 -5.431545972824096680e-01 6.000000000000000000e+00
-5.174809455871582031e+00 7.695125579833984375e+00 -4.859916865825653076e-01 1.000000000000000000e+00
-1.022525691986083984e+01 1.521678733825683949e+01 -3.200073242187500000e-01 3.000000000000000000e+00
-1.296740531921386941e+00 1.935585975646973100e+00 -6.242715120315551758e-01 1.600000000000000000e+01
-1.478679060935973899e+00 2.208824396133422852e+00 -6.136664748191833496e-01 1.400000000000000000e+01
-1.714228153228759988e+00 2.561650514602661133e+00 -5.991402268409729004e-01 1.200000000000000000e+01
-2.084068059921265093e+00 3.116672515869141069e+00 -5.938252210617065430e-01 9.000000000000000000e+00
-2.602745294570922852e+00 3.895283699035644975e+00 -5.752233266830444336e-01 8.000000000000000000e+00
-3.442704439163208008e+00 5.154318332672119141e+00 -5.422830581665039062e-01 9.000000000000000000e+00
-5.147917270660400391e+00 7.713141918182373047e+00 -4.859916865825653076e-01 1.000000000000000000e+00
-1.014323043823242010e+01 1.520913219451903942e+01 -3.190998136997222900e-01 3.000000000000000000e+00
-1.287836909294127974e+00 1.936883211135864036e+00 -6.232362389564514160e-01 1.600000000000000000e+01
-1.475273489952086958e+00 2.220465183258057085e+00 -6.154660582542419434e-01 1.400000000000000000e+01
-1.711792826652527078e+00 2.577431201934814009e+00 -6.014299392700195312e-01 1.200000000000000000e+01
-2.074268341064453125e+00 3.125574350357056108e+00 -5.941380858421325684e-01 1.000000000000000000e+01
-2.599006175994873047e+00 3.919234752655028853e+00 -5.774169564247131348e-01 1.000000000000000000e+01
-3.419187307357788086e+00 5.158000946044921875e+00 -5.414114594459533691e-01 6.000000000000000000e+00
-5.134197235107421875e+00 7.751045703887938565e+00 -4.872477650642395020e-01 1.000000000000000000e+00
-1.009007930755615057e+01 1.524444580078125000e+01 -3.190998136997222900e-01 3.000000000000000000e+00
-1.275410532951354980e+00 1.933527350425719993e+00 -6.206480860710144043e-01 1.800000000000000000e+01
-1.461762905120850053e+00 2.217721939086914062e+00 -6.132165789604187012e-01 1.500000000000000000e+01
-1.702334523200988992e+00 2.583687782287598100e+00 -6.014299392700195312e-01 1.100000000000000000e+01
-2.057367324829102007e+00 3.124906301498413086e+00 -5.925737619400024414e-01 9.000000000000000000e+00
-2.586806058883666992e+00 3.932050943374633789e+00 -5.779044032096862793e-01 1.000000000000000000e+01
-3.395880460739136186e+00 5.163839817047119141e+00 -5.407142043113708496e-01 6.000000000000000000e+00
-5.090397834777832031e+00 7.746443748474121094e+00 -4.857823550701140802e-01 1.000000000000000000e+00
-1.002316188812256037e+01 1.526461029052734020e+01 -3.187507390975952148e-01 3.000000000000000000e+00
-1.275002121925354004e+00 1.947665452957153098e+00 -6.237539052963256836e-01 1.600000000000000000e+01
-1.447612047195435014e+00 2.213026046752930132e+00 -6.105171442031860352e-01 1.300000000000000000e+01
-1.696528792381287065e+00 2.594543933868408203e+00 -6.025748252868652344e-01 1.200000000000000000e+01
-2.042124986648560014e+00 3.125454187393188032e+00 -5.913223028182983398e-01 9.000000000000000000e+00
-2.568723917007445845e+00 3.934407949447631836e+00 -5.769294500350952148e-01 1.000000000000000000e+01
-3.388723850250244141e+00 5.192347049713134766e+00 -5.424573421478271484e-01 6.000000000000000000e+00
-5.065508842468261719e+00 7.767510890960693359e+00 -4.859916865825653076e-01 1.000000000000000000e+00
-9.939248085021972656e+00 1.525259399414063033e+01 -3.177734017372130793e-01 3.000000000000000000e+00
-1.270641803741455078e+00 1.955122470855712891e+00 -6.247891783714294434e-01 1.800000000000000000e+01
-1.437081336975098100e+00 2.212911128997803178e+00 -6.091674566268920898e-01 1.200000000000000000e+01
-1.684708714485168013e+00 2.595215320587158203e+00 -6.014299392700195312e-01 1.100000000000000000e+01
-2.031749248504639116e+00 3.132208824157714844e+00 -5.913223028182983398e-01 9.000000000000000000e+00
-2.549184799194335938e+00 3.932909727096558061e+00 -5.754670500755310059e-01 1.000000000000000000e+01
-3.364986419677733931e+00 5.193523406982421875e+00 -5.414114594459533691e-01 6.000000000000000000e+00
-5.009330272674561435e+00 7.737322330474854404e+00 -4.830608665943145752e-01 1.000000000000000000e+00
-9.919027328491210938e+00 1.533248138427734020e+01 -3.187507390975952148e-01 3.000000000000000000e+00
-1.262762427330017090e+00 1.957922458648682085e+00 -6.242715120315551758e-01 1.600000000000000000e+01
-1.437793254852294922e+00 2.231018543243408203e+00 -6.127666831016540527e-01 1.400000000000000000e+01
-1.671386480331420898e+00 2.594478607177733931e+00 -5.999034643173217773e-01 1.200000000000000000e+01
-2.022942066192626953e+00 3.142603874206542969e+00 -5.919480323791503906e-01 9.000000000000000000e+00
-2.533293008804320845e+00 3.938445091247559038e+00 -5.749795436859130859e-01 1.000000000000000000e+01
-3.342526912689208984e+00 5.198534011840820312e+00 -5.407142043113708496e-01 6.000000000000000000e+00
-4.982291698455811435e+00 7.754761219024658203e+00 -4.830608665943145752e-01 1.000000000000000000e+00
-9.796306610107421875e+00 1.525931549072265980e+01 -3.165168464183806818e-01 3.000000000000000000e+00
-1.247929334640502930e+00 1.949083566665648970e+00 -6.201304197311401367e-01 1.600000000000000000e+01
-1.436688303947448953e+00 2.245623350143433061e+00 -6.154660582542419434e-01 1.400000000000000000e+01
-1.660658240318297896e+00 2.596698999404906782e+00 -5.991402268409729004e-01 1.100000000000000000e+01
-2.010382175445557085e+00 3.145965814590454102e+00 -5.913223028182983398e-01 9.000000000000000000e+00
-2.523423671722412109e+00 3.951843261718750000e+00 -5.757107734680175781e-01 1.100000000000000000e+01
-3.316693782806396040e+00 5.196154594421386719e+00 -5.393197536468505859e-01 6.000000000000000000e+00
-4.956548690795898438e+00 7.771240711212158203e+00 -4.830608665943145752e-01 1.000000000000000000e+00
-9.706960678100585938e+00 1.523100852966308949e+01 -3.152602612972260077e-01 3.000000000000000000e+00
-1.242154121398926003e+00 1.955058336257935014e+00 -6.206480860710144043e-01 1.700000000000000000e+01
-1.422574043273926003e+00 2.240753412246704102e+00 -6.127666831016540527e-01 1.300000000000000000e+01
-1.655791759490967019e+00 2.609110355377196822e+00 -6.006667017936706543e-01 1.100000000000000000e+01
-1.993041157722472922e+00 3.142954826354980025e+00 -5.894450545310974121e-01 9.000000000000000000e+00
-2.512801408767700195e+00 3.965658187866210938e+00 -5.764420032501220703e-01 1.000000000000000000e+01
-3.303866147994995117e+00 5.216115951538085938e+00 -5.401912927627563477e-01 6.000000000000000000e+00
-4.912301540374755859e+00 7.761492252349854404e+00 -4.813861250877379816e-01 1.000000000000000000e+00
-9.692213058471679688e+00 1.532564258575438920e+01 -3.165168464183806818e-01 3.000000000000000000e+00
-1.241503953933716042e+00 1.969187378883362038e+00 -6.237539052963256836e-01 1.700000000000000000e+01
-1.410588741302490012e+00 2.239110231399536133e+00 -6.109670400619506836e-01 1.300000000000000000e+01
-1.645628094673156960e+00 2.613213062286376953e+00 -6.002851128578186035e-01 1.100000000000000000e+01
-1.984162211418152078e+00 3.153236627578734907e+00 -5.900707840919494629e-01 9.000000000000000000e+00
-2.494716644287108931e+00 3.967683315277100053e+00 -5.754670500755310059e-01 1.000000000000000000e+01
-3.293060064315795898e+00 5.239424705505371094e+00 -5.414114594459533691e-01 6.000000000000000000e+00
-4.889428138732910156e+00 7.785357475280761719e+00 -4.818048179149628241e-01 1.000000000000000000e+00
-9.638657569885253906e+00 1.535938167572020951e+01 -3.165168464183806818e-01 3.000000000000000000e+00
-1.234622597694396973e+00 1.973509073257446067e+00 -6.237539052963256836e-01 1.900000000000000000e+01
-1.400698304176331010e+00 2.240715503692626953e+00 -6.100672483444213867e-01 1.200000000000000000e+01
-1.633375048637389915e+00 2.613946676254272017e+00 -5.991402268409729004e-01 1.100000000000000000e+01
-1.970004677772521973e+00 3.155116558074951172e+00 -5.891321897506713867e-01 9.000000000000000000e+00
-2.475597858428955078e+00 3.967946290969849077e+00 -5.742483735084533691e-01 8.000000000000000000e+00
-3.267370700836182085e+00 5.239054203033447266e+00 -5.401912927627563477e-01 6.000000000000000000e+00
-4.834757804870604581e+00 7.758306026458740234e+00 -4.790833294391632080e-01 1.000000000000000000e+00
-9.546932220458984375e+00 1.533182239532471058e+01 -3.152602612972260077e-01 3.000000000000000000e+00
-1.221944332122802956e+00 1.970026731491089089e+00 -6.211656928062438965e-01 1.900000000000000000e+01
-1.394137501716613992e+00 2.249390125274658203e+00 -6.109670400619506836e-01 1.300000000000000000e+01
-1.621258378028870073e+00 2.616861104965209961e+00 -5.983769893646240234e-01 1.200000000000000000e+01
-1.965153694152832031e+00 3.174414634704589844e+00 -5.913223028182983398e-01 9.000000000000000000e+00
-2.457211017608643022e+00 3.972357988357543945e+00 -5.735171437263488770e-01 1.000000000000000000e+01
-3.250373601913452148e+00 5.256644725799561435e+00 -5.407142043113708496e-01 6.000000000000000000e+00
-4.811231613159179688e+00 7.787007331848145419e+00 -4.797113835811614990e-01 1.000000000000000000e+00
-9.462779998779296875e+00 1.532752990722656072e+01 -3.144225478172302246e-01 3.000000000000000000e+00
-1.209997534751892090e+00 1.966053843498229980e+00 -6.185775399208068848e-01 1.800000000000000000e+01
-1.386277198791503906e+00 2.254242897033690962e+00 -6.109670400619506836e-01 1.100000000000000000e+01
-1.612113952636718972e+00 2.622504472732543945e+00 -5.983769893646240234e-01 1.200000000000000000e+01
-1.943722009658813032e+00 3.164422988891602007e+00 -5.881935954093933105e-01 9.000000000000000000e+00
-2.444368362426757812e+00 3.982602834701538086e+00 -5.737608671188354492e-01 1.000000000000000000e+01
-3.215334177017211914e+00 5.240787029266357422e+00 -5.379252433776855469e-01 6.000000000000000000e+00
-4.777757167816162109e+00 7.793537616729736328e+00 -4.790833294391632080e-01 1.000000000000000000e+00
-9.398774147033691406e+00 1.534341621398925959e+01 -3.140735030174254816e-01 3.000000000000000000e+00
-1.207154512405395952e+00 1.976860642433166948e+00 -6.206480860710144043e-01 1.800000000000000000e+01
-1.380429983139038086e+00 2.262395143508911133e+00 -6.118668913841247559e-01 1.300000000000000000e+01
-1.608061313629149947e+00 2.636496305465697798e+00 -6.002851128578186035e-01 1.100000000000000000e+01
-1.934720277786255105e+00 3.174562215805054155e+00 -5.888193249702453613e-01 9.000000000000000000e+00
-2.433548927307128906e+00 3.996197462081909180e+00 -5.744920969009399414e-01 1.000000000000000000e+01
-3.188732862472534180e+00 5.238363742828369141e+00 -5.365307331085205078e-01 6.000000000000000000e+00
-4.746372222900390625e+00 7.803342342376708984e+00 -4.786646664142609198e-01 1.000000000000000000e+00
-9.314001083374023438e+00 1.532486534118651988e+01 -3.130263686180114746e-01 3.000000000000000000e+00
-1.202248692512511985e+00 1.984366893768310991e+00 -6.216833591461181641e-01 1.700000000000000000e+01
-1.369496703147887962e+00 2.262198925018310991e+00 -6.105171442031860352e-01 1.200000000000000000e+01
-1.599864840507507102e+00 2.643773078918457031e+00 -6.006667017936706543e-01 1.200000000000000000e+01
-1.921583056449889915e+00 3.177915573120117188e+00 -5.881935954093933105e-01 9.000000000000000000e+00
-2.417531728744506836e+00 4.001269817352294922e+00 -5.740045905113220215e-01 1.000000000000000000e+01
-3.173518180847167969e+00 5.254579067230224609e+00 -5.370537042617797852e-01 9.000000000000000000e+00
-4.698465347290039062e+00 7.785662174224854404e+00 -4.765712320804595947e-01 1.000000000000000000e+00
-9.297624588012695312e+00 1.541893196105957031e+01 -3.142829239368439276e-01 3.000000000000000000e+00
-1.196657299995421919e+00 1.989998340606689009e+00 -6.222009658813476562e-01 1.900000000000000000e+01
-1.360983848571776900e+00 2.265057325363159180e+00 -6.100672483444213867e-01 1.100000000000000000e+01
-1.588056325912476030e+00 2.644014835357666016e+00 -5.995218753814697266e-01 1.200000000000000000e+01
-1.913067102432250977e+00 3.187657833099364790e+00 -5.888193249702453613e-01 9.000000000000000000e+00
-2.400166034698485884e+00 4.002454757690429688e+00 -5.730296373367309570e-01 1.000000000000000000e+01
-3.162222146987915039e+00 5.275327205657958984e+00 -5.380995273590087891e-01 6.000000000000000000e+00
-4.674674034118652344e+00 7.804626941680908203e+00 -4.767805635929108221e-01 3.000000000000000000e+00
-9.172503471374511719e+00 1.532613658905028942e+01 -3.117697834968566895e-01 3.000000000000000000e+00
-1.186734318733215110e+00 1.989186167716979980e+00 -6.206480860710144043e-01 1.800000000000000000e+01
-1.353068947792053001e+00 2.269794225692749023e+00 -6.100672483444213867e-01 1.200000000000000000e+01
-1.571782588958740012e+00 2.637736320495605025e+00 -5.968505144119262695e-01 1.100000000000000000e+01
-1.904960155487060991e+00 3.199408054351807085e+00 -5.897579193115234375e-01 1.000000000000000000e+01
-2.388210296630858931e+00 4.014220714569091797e+00 -5.735171437263488770e-01 1.000000000000000000e+01
-3.131567955017089844e+00 5.265783786773681641e+00 -5.360078215599060059e-01 6.000000000000000000e+00
-4.641280651092529297e+00 7.810595035552979404e+00 -4.761525392532349188e-01 3.000000000000000000e+00
-9.104656219482421875e+00 1.533398914337158025e+01 -3.112811148166655939e-01 3.000000000000000000e+00
-3.165366172790526988e+01 5.333204269409179688e+01 1.661773490905762074e+01 2.700000000000000000e+01
-1.175209999084473100e+00 1.984799027442931907e+00 -6.180598735809326172e-01 1.900000000000000000e+01
-1.346526861190795898e+00 2.275945901870727983e+00 -6.105171442031860352e-01 1.200000000000000000e+01
-1.568023681640625000e+00 2.651383399963378906e+00 -5.987586379051208496e-01 1.100000000000000000e+01
-1.887305378913878950e+00 3.193803071975708008e+00 -5.875678658485412598e-01 9.000000000000000000e+00
-2.372866868972777876e+00 4.018699169158936435e+00 -5.730296373367309570e-01 1.000000000000000000e+01
-3.115101337432860884e+00 5.277855396270751953e+00 -5.361821055412292480e-01 6.000000000000000000e+00
-4.625499725341796875e+00 7.843146800994873047e+00 -4.771992564201354980e-01 3.000000000000000000e+00
-9.067970275878906250e+00 1.538821697235107067e+01 -3.117697834968566895e-01 3.000000000000000000e+00
-3.158403587341308949e+01 5.359766006469727273e+01 1.666950035095214844e+01 2.700000000000000000e+01
-1.169253110885619895e+00 1.990554928779602051e+00 -6.185775399208068848e-01 1.800000000000000000e+01
-1.337587714195251021e+00 2.278951644897460938e+00 -6.100672483444213867e-01 1.200000000000000000e+01
-1.558759093284606934e+00 2.656840562820435014e+00 -5.987586379051208496e-01 1.200000000000000000e+01
-1.872149467468261941e+00 3.193555116653441939e+00 -5.863163471221923828e-01 9.000000000000000000e+00
-2.363841056823730025e+00 4.035521984100341797e+00 -5.742483735084533691e-01 8.000000000000000000e+00
-3.084578752517700195e+00 5.268064498901367188e+00 -5.340903997421264648e-01 8.000000000000000000e+00
-4.592042446136474609e+00 7.848901748657226562e+00 -4.765712320804595947e-01 3.000000000000000000e+00
-9.000071525573730469e+00 1.539560699462890980e+01 -3.112811148166655939e-01 3.000000000000000000e+00
-3.132500076293944957e+01 5.360631179809570312e+01 1.663636970520019887e+01 2.700000000000000000e+01
-1.165215492248534934e+00 1.999631762504578081e+00 -6.201304197311401367e-01 1.900000000000000000e+01
-1.325702428817749023e+00 2.276870489120482954e+00 -6.082676649093627930e-01 1.100000000000000000e+01
