-4.695967197418212891e+00 2.253962755203247070e+00 -6.395702958106994629e-01 1.000000000000000000e+01
-6.501699447631835938e+00 3.122071743011475053e+00 -6.310075521469116211e-01 3.000000000000000000e+00
-1.084582805633544922e+01 5.212752342224121094e+00 -6.306482553482055664e-01 3.000000000000000000e+00
-2.186830997467041016e+00 1.055743098258971946e+00 -6.506710648536682129e-01 1.900000000000000000e+01
-2.531938791275023970e+00 1.223441839218140093e+00 -6.492087244987487793e-01 1.300000000000000000e+01
-2.973026990890502930e+00 1.437217473983765093e+00 -6.418814659118652344e-01 1.100000000000000000e+01
-3.632798194885253906e+00 1.757727980613708052e+00 -6.391912102699279785e-01 1.000000000000000000e+01
-4.689857006072998047e+00 2.271206140518188032e+00 -6.398140788078308105e-01 1.000000000000000000e+01
-6.508692264556884766e+00 3.153434991836547852e+00 -6.327506899833679199e-01 3.000000000000000000e+00
-1.068379783630370916e+01 5.180862426757813388e+00 -6.222745180130004883e-01 3.000000000000000000e+00
-2.177922010421752930e+00 1.060832262039185014e+00 -6.491181850433349609e-01 1.800000000000000000e+01
-6.088719177246093750e+01 2.967036437988280895e+01 1.182260870933532937e+00 3.900000000000000000e+01
-2.524149417877196822e+00 1.230564594268799050e+00 -6.483089327812194824e-01 1.400000000000000000e+01
-2.971521377563477007e+00 1.449307799339293990e+00 -6.426447033882141113e-01 1.100000000000000000e+01
-3.619539976119995117e+00 1.766931772232056108e+00 -6.379397511482238770e-01 1.000000000000000000e+01
-4.680117130279541016e+00 2.286691665649414062e+00 -6.395702958106994629e-01 1.000000000000000000e+01
-6.481534957885742188e+00 3.168260574340819868e+00 -6.311818957328796387e-01 3.000000000000000000e+00
-1.062976741790770951e+01 5.200569629669188565e+00 -6.201810836791992188e-01 3.000000000000000000e+00
-2.181141138076781782e+00 1.071836233139038086e+00 -6.511887311935424805e-01 1.800000000000000000e+01
-2.512843847274779829e+00 1.235927700996398926e+00 -6.465093493461608887e-01 1.400000000000000000e+01
-2.964682579040526900e+00 1.458804726600646973e+00 -6.422630548477172852e-01 1.200000000000000000e+01
-3.620438575744628906e+00 1.783046603202820046e+00 -6.391912102699279785e-01 1.000000000000000000e+01
-4.664984226226806641e+00 2.299503564834595171e+00 -6.385953426361083984e-01 1.000000000000000000e+01
-6.486518859863281250e+00 3.198796987533568892e+00 -6.327506899833679199e-01 3.000000000000000000e+00
-1.056498336791992010e+01 5.214658737182617188e+00 -6.174595952033996582e-01 3.000000000000000000e+00
-2.189502239227294922e+00 1.085449814796447976e+00 -6.548121571540832520e-01 1.900000000000000000e+01
-2.508514404296875000e+00 1.244691729545593040e+00 -6.465093493461608887e-01 1.300000000000000000e+01
-2.954296827316284180e+00 1.466525673866271973e+00 -6.411182284355163574e-01 1.100000000000000000e+01
-3.603578090667725053e+00 1.790399789810181108e+00 -6.373140215873718262e-01 1.000000000000000000e+01
-4.639154434204101562e+00 2.306934595108031782e+00 -6.361579895019531250e-01 1.000000000000000000e+01
-6.450339794158936435e+00 3.208995580673218218e+00 -6.303103566169738770e-01 2.000000000000000000e+00
-1.059320163726806996e+01 5.274652004241943359e+00 -6.201810836791992188e-01 3.000000000000000000e+00
-2.176870822906494141e+00 1.089145421981811968e+00 -6.522240042686462402e-01 1.800000000000000000e+01
-2.498708009719849077e+00 1.251259803771973100e+00 -6.451596021652221680e-01 1.300000000000000000e+01
-2.941880702972412109e+00 1.473826408386230025e+00 -6.395917534828186035e-01 1.200000000000000000e+01
-3.595226049423218218e+00 1.802710175514220969e+00 -6.370011568069458008e-01 9.000000000000000000e+00
-4.632442474365234375e+00 2.324812889099121094e+00 -6.364017128944396973e-01 1.000000000000000000e+01
-6.463462829589843750e+00 3.245131254196166992e+00 -6.327506899833679199e-01 3.000000000000000000e+00
-1.052025985717773082e+01 5.286539077758789062e+00 -6.170409321784973145e-01 3.000000000000000000e+00
-2.162707805633544922e+00 1.091514945030211958e+00 -6.491181850433349609e-01 2.000000000000000000e+01
-2.497803926467895952e+00 1.261731624603271040e+00 -6.460594534873962402e-01 1.300000000000000000e+01
-2.941974878311156782e+00 1.486742973327636941e+00 -6.407365798950195312e-01 1.200000000000000000e+01
-3.587148666381835938e+00 1.814357280731200950e+00 -6.366882920265197754e-01 1.000000000000000000e+01
-4.620756626129150391e+00 2.339175701141356978e+00 -6.359142065048217773e-01 9.000000000000000000e+00
-6.405882358551025391e+00 3.244268417358397993e+00 -6.282185912132263184e-01 2.000000000000000000e+00
-1.052311992645264027e+01 5.334065437316895419e+00 -6.182969808578491211e-01 3.000000000000000000e+00
-2.162711858749390093e+00 1.100055575370789018e+00 -6.501534581184387207e-01 2.000000000000000000e+01
-2.495564460754394975e+00 1.270456552505492942e+00 -6.465093493461608887e-01 1.400000000000000000e+01
-2.933790683746337891e+00 1.494196176528931108e+00 -6.399733424186706543e-01 1.200000000000000000e+01
-3.572631359100341797e+00 1.821132183074950950e+00 -6.351239085197448730e-01 9.000000000000000000e+00
-4.622226715087890625e+00 2.358191490173339844e+00 -6.371329426765441895e-01 7.000000000000000000e+00
-6.413404464721679688e+00 3.273434638977050781e+00 -6.299617290496826172e-01 3.000000000000000000e+00
-1.040670776367188033e+01 5.316216945648193359e+00 -6.124353408813476562e-01 3.000000000000000000e+00
-2.165734052658081055e+00 1.111125469207763894e+00 -6.522240042686462402e-01 1.900000000000000000e+01
-2.477246046066284180e+00 1.272038698196410911e+00 -6.429101228713989258e-01 1.200000000000000000e+01
-2.940781354904174805e+00 1.510707497596740945e+00 -6.426447033882141113e-01 1.100000000000000000e+01
-3.562739133834838867e+00 1.831785321235656960e+00 -6.344981789588928223e-01 9.000000000000000000e+00
-4.594550609588623047e+00 2.364320278167725053e+00 -6.344518065452575684e-01 7.000000000000000000e+00
-6.424967765808104581e+00 3.307657003402709961e+00 -6.322277784347534180e-01 3.000000000000000000e+00
-1.041294288635254084e+01 5.365317821502686435e+00 -6.139007806777954102e-01 3.000000000000000000e+00
-2.160126447677611861e+00 1.117790699005126953e+00 -6.517063379287719727e-01 1.900000000000000000e+01
-2.477982044219971147e+00 1.283366680145263894e+00 -6.442598104476928711e-01 1.500000000000000000e+01
-2.925030946731566939e+00 1.515544414520263894e+00 -6.403549909591674805e-01 1.200000000000000000e+01
-3.563337802886962891e+00 1.847847938537598100e+00 -6.357496380805969238e-01 7.000000000000000000e+00
-4.580984115600585938e+00 2.377600431442261186e+00 -6.337205767631530762e-01 7.000000000000000000e+00
-6.372713088989257812e+00 3.308947086334228960e+00 -6.282185912132263184e-01 2.000000000000000000e+00
-1.035161781311034979e+01 5.379529476165770596e+00 -6.113886237144470215e-01 3.000000000000000000e+00
-2.151073694229125977e+00 1.122642636299133079e+00 -6.501534581184387207e-01 1.800000000000000000e+01
-6.092679214477539062e+01 3.181114768981933949e+01 1.199713349342345969e+00 3.600000000000000000e+01
-2.476941823959351030e+00 1.293813109397887962e+00 -6.451596021652221680e-01 1.500000000000000000e+01
-2.904062986373900923e+00 1.517562150955199973e+00 -6.369204521179199219e-01 1.300000000000000000e+01
-3.546363353729248047e+00 1.854782104492187944e+00 -6.338724493980407715e-01 5.000000000000000000e+00
-4.565621852874755859e+00 2.389894247055054155e+00 -6.327456235885620117e-01 9.000000000000000000e+00
-6.375244140625000000e+00 3.338566303253173828e+00 -6.296131014823913574e-01 2.000000000000000000e+00
-1.030801105499267933e+01 5.402649879455566406e+00 -6.099232435226440430e-01 3.000000000000000000e+00
-2.142013311386107954e+00 1.127445101737976074e+00 -6.486005187034606934e-01 1.900000000000000000e+01
-2.482755184173583984e+00 1.307901024818419966e+00 -6.478590369224548340e-01 1.500000000000000000e+01
-2.909168958663939986e+00 1.533181905746459961e+00 -6.392101049423217773e-01 1.300000000000000000e+01
-3.553845167160034180e+00 1.874522686004638894e+00 -6.363754272460937500e-01 5.000000000000000000e+00
-6.099660491943358664e+01 3.218707656860352273e+01 8.468213081359863281e+00 6.300000000000000000e+01
-4.574806690216063565e+00 2.415083885192871094e+00 -6.351830363273620605e-01 1.000000000000000000e+01
-6.328315734863281250e+00 3.342190742492675781e+00 -6.261268854141235352e-01 2.000000000000000000e+00
-1.028908920288085938e+01 5.438598632812500000e+00 -6.099232435226440430e-01 3.000000000000000000e+00
-2.136358261108397993e+00 1.134009480476378950e+00 -6.480829119682312012e-01 1.800000000000000000e+01
-2.467849016189575195e+00 1.311073780059814009e+00 -6.451596021652221680e-01 1.500000000000000000e+01
-2.905533075332642046e+00 1.544248819351196067e+00 -6.395917534828186035e-01 1.400000000000000000e+01
-3.540304183959960938e+00 1.883205771446228027e+00 -6.351239085197448730e-01 7.000000000000000000e+00
-4.557587146759033203e+00 2.426373958587646040e+00 -6.339643001556396484e-01 1.000000000000000000e+01
-6.323645114898681641e+00 3.368006706237792969e+00 -6.268240809440612793e-01 2.000000000000000000e+00
-1.027004241943359020e+01 5.474481105804443359e+00 -6.099232435226440430e-01 3.000000000000000000e+00
-2.139199733734130859e+00 1.145106673240662065e+00 -6.501534581184387207e-01 2.000000000000000000e+01
-2.454668760299683061e+00 1.315078854560852051e+00 -6.429101228713989258e-01 1.400000000000000000e+01
-2.891472816467285156e+00 1.549744486808777078e+00 -6.376836895942687988e-01 1.400000000000000000e+01
-3.533709049224853960e+00 1.895552277565001997e+00 -6.351239085197448730e-01 9.000000000000000000e+00
-4.559583663940429688e+00 2.447901964187622070e+00 -6.354267597198486328e-01 1.000000000000000000e+01
-6.297808170318604404e+00 3.382518053054810014e+00 -6.254296302795410156e-01 2.000000000000000000e+00
-1.025086975097656072e+01 5.510296821594238281e+00 -6.099232435226440430e-01 3.000000000000000000e+00
-2.136889457702637163e+00 1.153484582901000977e+00 -6.506710648536682129e-01 1.900000000000000000e+01
-2.451777696609497070e+00 1.324565410614013894e+00 -6.433600187301635742e-01 1.300000000000000000e+01
-2.886045694351195845e+00 1.559828162193297896e+00 -6.376836895942687988e-01 1.300000000000000000e+01
-3.527070760726929155e+00 1.907875657081604004e+00 -6.351239085197448730e-01 9.000000000000000000e+00
-4.530063152313232422e+00 2.452462196350098100e+00 -6.325019001960754395e-01 1.000000000000000000e+01
-6.289466381072998047e+00 3.406378507614136186e+00 -6.257782578468322754e-01 2.000000000000000000e+00
-1.023157310485840021e+01 5.546045780181884766e+00 -6.099232435226440430e-01 3.000000000000000000e+00
-2.131153345108031782e+00 1.160013079643249956e+00 -6.501534581184387207e-01 1.800000000000000000e+01
-2.448850631713867188e+00 1.334047913551331010e+00 -6.438099145889282227e-01 1.400000000000000000e+01
-2.873687744140625000e+00 1.566134810447693093e+00 -6.361572146415710449e-01 1.400000000000000000e+01
-3.525592088699340820e+00 1.923013567924499956e+00 -6.360625624656677246e-01 1.000000000000000000e+01
-4.521474838256835938e+00 2.468260049819945845e+00 -6.325019001960754395e-01 1.000000000000000000e+01
-6.291526317596436435e+00 3.435951709747314009e+00 -6.271727085113525391e-01 3.000000000000000000e+00
-1.014905929565430043e+01 5.547242164611816406e+00 -6.061550378799438477e-01 3.000000000000000000e+00
-2.115236282348632812e+00 1.160938739776611106e+00 -6.465299725532531738e-01 1.900000000000000000e+01
-2.444178819656372070e+00 1.342587947845458984e+00 -6.438099145889282227e-01 1.300000000000000000e+01
-2.861321210861206055e+00 1.572374343872070090e+00 -6.346307396888732910e-01 1.400000000000000000e+01
-3.506742000579833984e+00 1.928644776344299094e+00 -6.338724493980407715e-01 9.000000000000000000e+00
-4.507614135742188388e+00 2.481156349182128906e+00 -6.317706704139709473e-01 1.000000000000000000e+01
-6.209683418273925781e+00 3.419450044631958008e+00 -6.202002763748168945e-01 3.000000000000000000e+00
-1.019260501861572088e+01 5.617339611053466797e+00 -6.099232435226440430e-01 3.000000000000000000e+00
-2.107790231704711914e+00 1.166444301605225053e+00 -6.454946994781494141e-01 1.900000000000000000e+01
-2.437772750854492188e+00 1.350167274475098100e+00 -6.433600187301635742e-01 1.300000000000000000e+01
-2.864401340484619141e+00 1.587110161781311035e+00 -6.365388035774230957e-01 1.600000000000000000e+01
-3.499988317489624023e+00 1.940873861312865989e+00 -6.338724493980407715e-01 9.000000000000000000e+00
-4.519754409790039062e+00 2.508435249328612837e+00 -6.346955299377441406e-01 1.000000000000000000e+01
-6.215128898620604581e+00 3.450776338577270952e+00 -6.219433546066284180e-01 2.000000000000000000e+00
-1.017293548583984020e+01 5.652884483337402344e+00 -6.099232435226440430e-01 3.000000000000000000e+00
-2.107079982757567915e+00 1.175677418708801047e+00 -6.465299725532531738e-01 1.900000000000000000e+01
-2.424537897109984907e+00 1.353917956352234109e+00 -6.411104798316955566e-01 1.400000000000000000e+01
-2.858844041824340820e+00 1.597099184989928977e+00 -6.365388035774230957e-01 1.400000000000000000e+01
-3.486295461654663086e+00 1.949223279953002930e+00 -6.326209902763366699e-01 9.000000000000000000e+00
-4.486718177795410156e+00 2.510625839233397993e+00 -6.312832236289978027e-01 1.000000000000000000e+01
-6.196091175079345703e+00 3.468557357788085938e+00 -6.212461590766906738e-01 3.000000000000000000e+00
-9.978898048400878906e+00 5.590739250183104581e+00 -5.994560718536376953e-01 3.000000000000000000e+00
-2.112858057022095171e+00 1.189077138900757058e+00 -6.496357917785644531e-01 2.100000000000000000e+01
-2.422955036163330078e+00 1.364707946777343972e+00 -6.420103311538696289e-01 1.300000000000000000e+01
-2.847839832305908203e+00 1.604675292968750000e+00 -6.353939771652221680e-01 1.300000000000000000e+01
-3.479127645492554155e+00 1.961988091468811035e+00 -6.326209902763366699e-01 9.000000000000000000e+00
-4.474028587341308594e+00 2.525102376937866211e+00 -6.307957172393798828e-01 1.000000000000000000e+01
-6.204155921936035156e+00 3.502998828887939009e+00 -6.233378648757934570e-01 3.000000000000000000e+00
-1.002093791961669922e+01 5.662649631500244141e+00 -6.032242178916931152e-01 3.000000000000000000e+00
-2.107014179229735884e+00 1.195491790771483931e+00 -6.491181850433349609e-01 1.900000000000000000e+01
-2.414787292480469194e+00 1.371232748031615989e+00 -6.411104798316955566e-01 1.200000000000000000e+01
-2.838807106018065962e+00 1.612666845321655051e+00 -6.346307396888732910e-01 1.200000000000000000e+01
-3.475692272186278853e+00 1.976073145866394043e+00 -6.332467198371887207e-01 9.000000000000000000e+00
-4.453109741210938388e+00 2.533832073211669922e+00 -6.290895342826843262e-01 9.000000000000000000e+00
-6.167649269104003906e+00 3.510835170745850053e+00 -6.208975315093994141e-01 3.000000000000000000e+00
-9.938635826110839844e+00 5.662003040313720703e+00 -5.994560718536376953e-01 3.000000000000000000e+00
-2.091298818588256836e+00 1.195760011672974077e+00 -6.454946994781494141e-01 1.900000000000000000e+01
-6.087230300903320312e+01 3.481958389282227273e+01 1.224076867103577104e+00 3.200000000000000000e+01
-2.410226821899414062e+00 1.379232883453368919e+00 -6.411104798316955566e-01 1.300000000000000000e+01
-2.830035924911499023e+00 1.620121002197266069e+00 -6.338675022125244141e-01 1.200000000000000000e+01
-3.470834255218505859e+00 1.988570094108581987e+00 -6.335595846176147461e-01 1.000000000000000000e+01
-4.439516544342041016e+00 2.545622825622559038e+00 -6.283583641052246094e-01 1.000000000000000000e+01
-6.145603656768798828e+00 3.525320291519165039e+00 -6.198516488075256348e-01 2.000000000000000000e+00
-9.919805526733398438e+00 5.694929599761962891e+00 -5.994560718536376953e-01 3.000000000000000000e+00
-2.087111949920653853e+00 1.203052759170532005e+00 -6.454946994781494141e-01 1.900000000000000000e+01
-2.410461902618408203e+00 1.390559077262877974e+00 -6.424602270126342773e-01 1.200000000000000000e+01
-2.832865476608275923e+00 1.634896516799926980e+00 -6.357755661010742188e-01 1.100000000000000000e+01
-3.445055723190308061e+00 1.989805579185486062e+00 -6.301180124282836914e-01 1.200000000000000000e+01
-4.434040546417236328e+00 2.563091039657593218e+00 -6.288458108901977539e-01 1.000000000000000000e+01
-6.133260726928710938e+00 3.546751022338867188e+00 -6.198516488075256348e-01 2.000000000000000000e+00
-9.899866104125976562e+00 5.729521751403808594e+00 -5.994560718536376953e-01 3.000000000000000000e+00
-2.083111047744750977e+00 1.209967255592345969e+00 -6.454946994781494141e-01 1.900000000000000000e+01
-2.388989686965941939e+00 1.388751149177551047e+00 -6.379612088203430176e-01 1.300000000000000000e+01
-2.822336912155150923e+00 1.641320705413817915e+00 -6.346307396888732910e-01 1.200000000000000000e+01
-3.446974754333496094e+00 2.006187200546265093e+00 -6.316823959350585938e-01 1.000000000000000000e+01
-4.418655395507813388e+00 2.573784351348876953e+00 -6.278708577156066895e-01 1.000000000000000000e+01
-6.090479373931884766e+00 3.549014091491699219e+00 -6.167140603065490723e-01 2.000000000000000000e+00
-9.794547080993652344e+00 5.712010860443115234e+00 -5.942224264144897461e-01 3.000000000000000000e+00
-2.090544462203979048e+00 1.224064111709594949e+00 -6.491181850433349609e-01 1.800000000000000000e+01
-2.395896911621094194e+00 1.403978586196898970e+00 -6.411104798316955566e-01 1.300000000000000000e+01
-2.816590547561645952e+00 1.651162505149841087e+00 -6.346307396888732910e-01 1.200000000000000000e+01
-3.439950704574584961e+00 2.018207073211669922e+00 -6.316823959350585938e-01 1.000000000000000000e+01
-3.600836944580078125e+01 2.113443183898926137e+01 5.126555919647216797e+00 2.700000000000000000e+01
-4.389102458953857422e+00 2.577131032943726030e+00 -6.249459981918334961e-01 1.000000000000000000e+01
-6.098669052124023438e+00 3.582361698150635210e+00 -6.188057661056518555e-01 3.000000000000000000e+00
-9.740113258361816406e+00 5.725921630859375000e+00 -5.921289920806884766e-01 3.000000000000000000e+00
-2.076062917709351030e+00 1.225824832916259988e+00 -6.460123658180236816e-01 1.800000000000000000e+01
-2.387379407882689986e+00 1.410767674446105957e+00 -6.402106881141662598e-01 1.400000000000000000e+01
-2.807139635086060014e+00 1.659476637840270996e+00 -6.338675022125244141e-01 1.200000000000000000e+01
-3.434230804443358931e+00 2.031807422637939009e+00 -6.319952607154846191e-01 1.100000000000000000e+01
-4.379627704620361328e+00 2.593200683593750000e+00 -6.249459981918334961e-01 1.000000000000000000e+01
-6.064927577972412109e+00 3.592505455017089844e+00 -6.167140603065490723e-01 3.000000000000000000e+00
-9.691572189331054688e+00 5.745286941528320312e+00 -5.904542803764343262e-01 3.000000000000000000e+00
-2.066791296005249023e+00 1.230100035667418990e+00 -6.444594264030456543e-01 1.900000000000000000e+01
-2.390811681747436968e+00 1.424078941345215066e+00 -6.424602270126342773e-01 1.300000000000000000e+01
-2.794583797454833984e+00 1.665245294570923074e+00 -6.323410272598266602e-01 1.200000000000000000e+01
-3.416937828063964844e+00 2.037712097167969194e+00 -6.301180124282836914e-01 1.000000000000000000e+01
-4.387594699859619141e+00 2.618646144866942915e+00 -6.273833513259887695e-01 1.000000000000000000e+01
-6.021558284759520596e+00 3.595269203186035156e+00 -6.135764122009277344e-01 3.000000000000000000e+00
-9.671458244323730469e+00 5.779081821441650391e+00 -5.904542803764343262e-01 3.000000000000000000e+00
-2.064141511917113814e+00 1.238300800323486106e+00 -6.449770331382751465e-01 1.900000000000000000e+01
-2.374130964279174805e+00 1.425394058227539062e+00 -6.393108963966369629e-01 1.200000000000000000e+01
-2.797169208526610884e+00 1.680044412612915039e+00 -6.342490911483764648e-01 1.100000000000000000e+01
-3.394566774368286133e+00 2.040467977523804155e+00 -6.273022294044494629e-01 1.000000000000000000e+01
-3.377730941772460938e+01 2.031150627136230113e+01 4.839431762695313388e+00 2.000000000000000000e+01
-4.378427028656005859e+00 2.633945703506470171e+00 -6.273833513259887695e-01 1.000000000000000000e+01
-6.032871246337890625e+00 3.630649328231811968e+00 -6.160168051719665527e-01 2.000000000000000000e+00
-9.627273559570312500e+00 5.798379898071289062e+00 -5.889888405799865723e-01 3.000000000000000000e+00
-2.059806346893310991e+00 1.245498418807982954e+00 -6.449770331382751465e-01 1.900000000000000000e+01
-2.359137535095214844e+00 1.427619099617003950e+00 -6.366114616394042969e-01 1.300000000000000000e+01
-2.798005580902100053e+00 1.693864941596985085e+00 -6.357755661010742188e-01 1.100000000000000000e+01
-3.394181251525878906e+00 2.056399106979370117e+00 -6.285536885261535645e-01 1.100000000000000000e+01
-3.341421508789063211e+01 2.025231170654296875e+01 4.797508716583251953e+00 2.000000000000000000e+01
-4.345442295074462891e+00 2.634804010391234907e+00 -6.239710450172424316e-01 1.000000000000000000e+01
-6.006533145904541016e+00 3.643419504165648970e+00 -6.146222949028015137e-01 2.000000000000000000e+00
-9.572829246520996094e+00 5.811221599578857422e+00 -5.868954062461853027e-01 3.000000000000000000e+00
-2.060395002365111861e+00 1.255697011947632058e+00 -6.465299725532531738e-01 2.100000000000000000e+01
-2.360794544219971147e+00 1.439904332160949929e+00 -6.384111046791076660e-01 1.300000000000000000e+01
-2.782020330429077148e+00 1.697486042976378950e+00 -6.334858536720275879e-01 1.100000000000000000e+01
-3.381924867630004883e+00 2.065145969390869141e+00 -6.276150941848754883e-01 1.100000000000000000e+01
-3.340430068969727273e+01 2.040608024597167969e+01 4.806282997131347656e+00 2.000000000000000000e+01
-4.322667598724365234e+00 2.641675233840941939e+00 -6.220211386680603027e-01 1.000000000000000000e+01
-5.993778228759765625e+00 3.664363861083983931e+00 -6.146222949028015137e-01 2.000000000000000000e+00
-9.559300422668457031e+00 5.848771095275878906e+00 -5.873141288757324219e-01 3.000000000000000000e+00
-2.052707195281981978e+00 1.260859251022339089e+00 -6.454946994781494141e-01 2.100000000000000000e+01
-2.357414007186890093e+00 1.449156761169434038e+00 -6.388610005378723145e-01 1.300000000000000000e+01
-2.772733211517333984e+00 1.705129861831665039e+00 -6.327226161956787109e-01 1.200000000000000000e+01
-3.379742383956909180e+00 2.080044507980347124e+00 -6.285536885261535645e-01 1.000000000000000000e+01
-3.400902557373046875e+01 2.093885993957519887e+01 4.903778553009033203e+00 2.100000000000000000e+01
-4.320181369781494141e+00 2.660912275314331055e+00 -6.229960918426513672e-01 1.000000000000000000e+01
-5.967381000518798828e+00 3.676902532577515093e+00 -6.132277846336364746e-01 2.000000000000000000e+00
-9.460624694824218750e+00 5.833880901336669922e+00 -5.824992060661315918e-01 3.000000000000000000e+00
-2.040080547332764116e+00 1.262932538986206055e+00 -6.429064869880676270e-01 2.000000000000000000e+01
-2.358967542648314986e+00 1.461482167243957964e+00 -6.406605839729309082e-01 1.400000000000000000e+01
-2.771770715713500977e+00 1.717900991439818892e+00 -6.338675022125244141e-01 1.300000000000000000e+01
-3.372461080551147017e+00 2.091829538345336914e+00 -6.285536885261535645e-01 1.000000000000000000e+01
-3.410440063476563211e+01 2.116210937500000000e+01 4.928152561187744141e+00 2.200000000000000000e+01
-4.310866355895996094e+00 2.675976514816284180e+00 -6.229960918426513672e-01 1.000000000000000000e+01
-3.484513473510742188e+01 2.163016510009765980e+01 6.495784759521484375e+00 1.400000000000000000e+01
-5.952817440032958984e+00 3.696659088134766069e+00 -6.130535006523132324e-01 3.000000000000000000e+00
-9.436810493469238281e+00 5.864760875701904297e+00 -5.822898745536804199e-01 3.000000000000000000e+00
-3.389863204956054688e+01 2.107542228698730113e+01 9.215344429016113281e+00 1.200000000000000000e+01
-2.038937568664550781e+00 1.272091269493103027e+00 -6.439417600631713867e-01 1.900000000000000000e+01
-2.343933820724486861e+00 1.463514924049376997e+00 -6.379612088203430176e-01 1.300000000000000000e+01
-2.759096622467041016e+00 1.723405480384827104e+00 -6.323410272598266602e-01 1.200000000000000000e+01
-3.355088472366333008e+00 2.097306251525878906e+00 -6.266764402389526367e-01 1.000000000000000000e+01
-4.301499366760253906e+00 2.691007852554320845e+00 -6.229960918426513672e-01 1.000000000000000000e+01
-3.443448257446289062e+01 2.154213142395019887e+01 6.433210849761962891e+00 1.400000000000000000e+01
-5.968588829040527344e+00 3.735384464263916016e+00 -6.160168051719665527e-01 3.000000000000000000e+00
-9.456905364990234375e+00 5.923109531402587891e+00 -5.848019719123840332e-01 3.000000000000000000e+00
-2.039614915847777876e+00 1.281929612159729004e+00 -6.454946994781494141e-01 2.100000000000000000e+01
-2.330819845199584961e+00 1.466091752052306907e+00 -6.357116699218750000e-01 1.200000000000000000e+01
-3.363296127319335938e+01 2.116341400146484020e+01 2.082552433013916016e+00 2.300000000000000000e+01
-2.758351564407349077e+00 1.735682249069214089e+00 -6.334858536720275879e-01 1.200000000000000000e+01
-3.346443653106689009e+00 2.107367992401123047e+00 -6.263635754585266113e-01 1.100000000000000000e+01
-4.282475471496582031e+00 2.698906898498535156e+00 -6.215336322784423828e-01 1.000000000000000000e+01
-3.440586471557617188e+01 2.169169807434082031e+01 6.441971302032470703e+00 1.400000000000000000e+01
-5.922461032867431641e+00 3.733904838562012163e+00 -6.125305891036987305e-01 3.000000000000000000e+00
-9.335863113403320312e+00 5.890491008758544922e+00 -5.785216689109802246e-01 3.000000000000000000e+00
-3.285132980346679688e+01 2.073566246032714844e+01 8.968798637390136719e+00 1.200000000000000000e+01
-2.038391828536986861e+00 1.291108846664428933e+00 -6.465299725532531738e-01 2.100000000000000000e+01
-2.333917617797852007e+00 1.479435563087462935e+00 -6.379612088203430176e-01 1.200000000000000000e+01
-2.748960018157958984e+00 1.743197321891784890e+00 -6.327226161956787109e-01 1.300000000000000000e+01
-3.335731506347655806e+00 2.116919517517089844e+00 -6.257378458976745605e-01 1.100000000000000000e+01
-6.100717544555664062e+01 3.873126983642578125e+01 8.872818946838378906e+00 6.300000000000000000e+01
-4.262974262237548828e+00 2.707453727722167969e+00 -6.200712323188781738e-01 1.000000000000000000e+01
-3.461671447753906250e+01 2.199386978149414062e+01 6.495784759521484375e+00 1.400000000000000000e+01
-5.906027793884277344e+00 3.752418518066405806e+00 -6.121819615364074707e-01 2.000000000000000000e+00
-9.355694770812988281e+00 5.948763370513916016e+00 -5.810337662696838379e-01 3.000000000000000000e+00
-2.028761148452758789e+00 1.295452237129210982e+00 -6.449770331382751465e-01 1.900000000000000000e+01
-2.325195550918579102e+00 1.485881209373473899e+00 -6.370613574981689453e-01 1.200000000000000000e+01
-2.739244222640991211e+00 1.751146197319030984e+00 -6.319593787193298340e-01 1.300000000000000000e+01
-3.329614162445067915e+00 2.130195856094359907e+00 -6.260507106781005859e-01 1.000000000000000000e+01
-4.239648342132568359e+00 2.714496850967406782e+00 -6.181213259696960449e-01 1.000000000000000000e+01
-3.436952972412108664e+01 2.201405525207519887e+01 6.464498043060302734e+00 1.400000000000000000e+01
-5.902301311492919922e+00 3.780487537384033203e+00 -6.132277846336364746e-01 3.000000000000000000e+00
-9.293473243713378906e+00 5.957145690917968750e+00 -5.785216689109802246e-01 3.000000000000000000e+00
-3.268570327758789062e+01 2.095969009399414062e+01 8.964299201965332031e+00 1.200000000000000000e+01
-2.009605646133422852e+00 1.293117761611938032e+00 -6.403183341026306152e-01 1.900000000000000000e+01
-2.319994688034058061e+00 1.493988633155822976e+00 -6.370613574981689453e-01 1.400000000000000000e+01
-2.726513147354125977e+00 1.756444334983825906e+00 -6.304329037666320801e-01 1.200000000000000000e+01
-3.318837404251099077e+00 2.139664649963378906e+00 -6.254249811172485352e-01 1.000000000000000000e+01
-4.243491172790527344e+00 2.737889289855957031e+00 -6.200712323188781738e-01 1.000000000000000000e+01
-3.420949172973632812e+01 2.208033180236816051e+01 6.448854446411132812e+00 1.400000000000000000e+01
-5.872329235076904297e+00 3.790262937545775923e+00 -6.114847064018249512e-01 3.000000000000000000e+00
-9.272622108459472656e+00 5.989549636840820312e+00 -5.785216689109802246e-01 3.000000000000000000e+00
-3.272364044189453125e+01 2.114557647705078125e+01 8.994893074035644531e+00 1.200000000000000000e+01
-2.008321523666381836e+00 1.302226781845092995e+00 -6.413536071777343750e-01 1.900000000000000000e+01
-2.306591749191284180e+00 1.496773838996886985e+00 -6.348118782043457031e-01 1.300000000000000000e+01
-2.733539104461669922e+00 1.774502754211426003e+00 -6.334858536720275879e-01 1.200000000000000000e+01
-3.303066015243529829e+00 2.145855903625487837e+00 -6.238606572151184082e-01 9.000000000000000000e+00
-3.481552886962891336e+01 2.262675285339355113e+01 5.098282337188720703e+00 2.600000000000000000e+01
-4.223922729492188388e+00 2.746192932128905806e+00 -6.186087727546691895e-01 1.000000000000000000e+01
-3.405327606201171875e+01 2.213981628417969105e+01 6.433210849761962891e+00 1.400000000000000000e+01
-5.845701217651367188e+00 3.802047729492187944e+00 -6.100901961326599121e-01 2.000000000000000000e+00
-3.297762298583983664e+01 2.145685577392578125e+01 7.647624492645263672e+00 6.300000000000000000e+01
-2.011849880218505859e+00 1.314512610435486062e+00 -6.439417600631713867e-01 1.800000000000000000e+01
-2.302983999252318892e+00 1.505882740020751953e+00 -6.352617740631103516e-01 1.200000000000000000e+01
-3.302737808227539062e+01 2.160427856445312855e+01 2.068316936492919922e+00 2.200000000000000000e+01
-2.728971242904663086e+00 1.785108566284179910e+00 -6.338675022125244141e-01 1.200000000000000000e+01
-3.290597200393677202e+00 2.154126882553101030e+00 -6.229220628738403320e-01 1.000000000000000000e+01
-3.473633575439453125e+01 2.274814224243164062e+01 5.098282337188720703e+00 2.600000000000000000e+01
-4.227594852447509766e+00 2.769623041152954102e+00 -6.205586791038513184e-01 1.000000000000000000e+01
-5.832394123077392578e+00 3.822429656982421875e+00 -6.100901961326599121e-01 2.000000000000000000e+00
-9.230581283569335938e+00 6.054138183593750000e+00 -5.785216689109802246e-01 3.000000000000000000e+00
-3.261106491088867188e+01 2.139703178405762074e+01 9.004790306091308594e+00 1.200000000000000000e+01
-2.008862495422362837e+00 1.322589516639709029e+00 -6.444594264030456543e-01 1.900000000000000000e+01
-2.297713518142700195e+00 1.513912439346313032e+00 -6.352617740631103516e-01 1.400000000000000000e+01
-2.712888002395629883e+00 1.788140892982482910e+00 -6.315777897834777832e-01 1.300000000000000000e+01
-3.288004636764525923e+00 2.168863058090209961e+00 -6.238606572151184082e-01 9.000000000000000000e+00
-4.198021411895751953e+00 2.771239757537841797e+00 -6.176338195800781250e-01 1.000000000000000000e+01
-5.822340965270996094e+00 3.844961166381835938e+00 -6.104388236999511719e-01 3.000000000000000000e+00
-9.209392547607421875e+00 6.086322307586669922e+00 -5.785216689109802246e-01 3.000000000000000000e+00
-3.234436035156250000e+01 2.138391685485839844e+01 8.951702117919921875e+00 1.200000000000000000e+01
-1.999404191970824973e+00 1.326389908790587935e+00 -6.429064869880676270e-01 1.900000000000000000e+01
-2.297285556793212891e+00 1.525157332420348899e+00 -6.366114616394042969e-01 1.500000000000000000e+01
-2.698452711105347124e+00 1.792168855667114036e+00 -6.296696662902832031e-01 1.200000000000000000e+01
-3.286994457244873047e+00 2.184700965881348100e+00 -6.251121163368225098e-01 9.000000000000000000e+00
-4.181710720062255859e+00 2.781479120254517046e+00 -6.166588664054870605e-01 1.000000000000000000e+01
-5.795614242553710938e+00 3.856431722640991211e+00 -6.090443134307861328e-01 2.000000000000000000e+00
-9.188091278076171875e+00 6.118432044982910156e+00 -5.785216689109802246e-01 3.000000000000000000e+00
-1.982144474983215110e+00 1.324426651000977007e+00 -6.387653946876525879e-01 1.800000000000000000e+01
-2.301934957504272017e+00 1.539266347885132058e+00 -6.393108963966369629e-01 1.500000000000000000e+01
-2.702285766601562944e+00 1.807656884193419966e+00 -6.319593787193298340e-01 1.200000000000000000e+01
-3.269882678985596147e+00 2.188995599746704102e+00 -6.232349276542663574e-01 9.000000000000000000e+00
-4.182359218597412109e+00 2.801960229873656782e+00 -6.181213259696960449e-01 1.000000000000000000e+01
-5.772863388061523438e+00 3.868974208831787109e+00 -6.079984903335571289e-01 3.000000000000000000e+00
-9.167751312255859375e+00 6.148867130279541016e+00 -5.785216689109802246e-01 3.000000000000000000e+00
-3.346998977661132812e+01 2.245699691772460938e+01 9.305325508117675781e+00 1.200000000000000000e+01
-1.987124443054198997e+00 1.337810754776000977e+00 -6.418712139129638672e-01 1.800000000000000000e+01
-2.288467168807982954e+00 1.541847825050354004e+00 -6.370613574981689453e-01 1.400000000000000000e+01
-2.692703247070312944e+00 1.814884066581726074e+00 -6.311961412429809570e-01 1.300000000000000000e+01
-3.249120473861693892e+00 2.191559314727783203e+00 -6.207319498062133789e-01 9.000000000000000000e+00
-4.170907974243164062e+00 2.815431594848632812e+00 -6.178775429725646973e-01 9.000000000000000000e+00
-3.317384719848632812e+01 2.240132331848144887e+01 6.339975833892822266e+00 1.400000000000000000e+01
-5.746113777160645419e+00 3.880181550979613814e+00 -6.066039800643920898e-01 2.000000000000000000e+00
-9.146231651306152344e+00 6.180830955505371094e+00 -5.785216689109802246e-01 3.000000000000000000e+00
-1.984041213989258035e+00 1.345823526382446067e+00 -6.423888802528381348e-01 1.900000000000000000e+01
-2.275009393692017046e+00 1.544354081153870073e+00 -6.348118782043457031e-01 1.500000000000000000e+01
-3.347597503662108664e+01 2.272463607788085938e+01 2.120443582534790039e+00 2.400000000000000000e+01
-2.684727668762207031e+00 1.823169350624084029e+00 -6.308145523071289062e-01 1.200000000000000000e+01
-3.247985839843750000e+00 2.207328796386719194e+00 -6.219834089279174805e-01 9.000000000000000000e+00
-3.322508239746093750e+01 2.258822059631348012e+01 4.933027267456054688e+00 2.200000000000000000e+01
-4.159413337707520419e+00 2.828857421875000000e+00 -6.176338195800781250e-01 1.000000000000000000e+01
-3.305691146850585938e+01 2.248232650756835938e+01 6.331841468811035156e+00 1.400000000000000000e+01
-5.752301692962645596e+00 3.913664579391479048e+00 -6.086956858634948730e-01 2.000000000000000000e+00
-9.065168380737304688e+00 6.172253131866455078e+00 -5.747534632682800293e-01 3.000000000000000000e+00
-1.987306118011475053e+00 1.358191132545470969e+00 -6.449770331382751465e-01 1.900000000000000000e+01
-2.266387701034545898e+00 1.550085663795470969e+00 -6.339120864868164062e-01 1.300000000000000000e+01
-2.676726818084716797e+00 1.831421136856079102e+00 -6.304329037666320801e-01 1.200000000000000000e+01
-3.233741283416748047e+00 2.214188814163208008e+00 -6.207319498062133789e-01 9.000000000000000000e+00
-3.308052062988281250e+01 2.265918731689453125e+01 4.923277854919433594e+00 2.200000000000000000e+01
-4.131500720977783203e+00 2.831016302108765093e+00 -6.149526834487915039e-01 1.000000000000000000e+01
-3.296845626831054688e+01 2.259087944030762074e+01 6.329964160919188565e+00 1.400000000000000000e+01
-5.725458621978759766e+00 3.924708127975463867e+00 -6.073012351989746094e-01 2.000000000000000000e+00
-8.980982780456542969e+00 6.160925865173339844e+00 -5.707759261131286621e-01 3.000000000000000000e+00
-3.235247421264647727e+01 2.220199966430664062e+01 9.058778762817382812e+00 1.200000000000000000e+01
-1.974597334861754927e+00 1.359641790390015093e+00 -6.423888802528381348e-01 1.900000000000000000e+01
-2.265777111053466797e+00 1.561304688453674094e+00 -6.352617740631103516e-01 1.400000000000000000e+01
-3.331651306152343750e+01 2.295778656005859020e+01 2.120443582534790039e+00 2.400000000000000000e+01
-2.671934127807617188e+00 1.841867685317992942e+00 -6.308145523071289062e-01 1.300000000000000000e+01
-3.232496738433837891e+00 2.229950189590454102e+00 -6.219834089279174805e-01 9.000000000000000000e+00
-3.303390121459960938e+01 2.279707336425780895e+01 4.928152561187744141e+00 2.200000000000000000e+01
-4.134662151336669922e+00 2.854442834854125977e+00 -6.169025897979736328e-01 1.000000000000000000e+01
-5.682214260101318359e+00 3.924289703369141069e+00 -6.041635870933532715e-01 2.000000000000000000e+00
-3.333547592163085938e+01 2.303096771240234020e+01 7.875832080841063565e+00 6.300000000000000000e+01
-8.975852012634277344e+00 6.203593254089354581e+00 -5.718226432800292969e-01 3.000000000000000000e+00
-3.237736511230468750e+01 2.238572502136230113e+01 9.087573051452636719e+00 1.200000000000000000e+01
-1.957140922546386941e+00 1.357716917991637962e+00 -6.382477879524230957e-01 1.900000000000000000e+01
-2.263514995574951172e+00 1.571426868438720925e+00 -6.361615657806396484e-01 1.400000000000000000e+01
-2.655813455581665039e+00 1.844463944435120073e+00 -6.285248398780822754e-01 1.200000000000000000e+01
-3.218204736709595171e+00 2.236710548400878906e+00 -6.207319498062133789e-01 9.000000000000000000e+00
-3.299649810791016336e+01 2.294170761108398082e+01 4.934489727020263672e+00 2.200000000000000000e+01
-4.124672889709472656e+00 2.868858337402344194e+00 -6.169025897979736328e-01 9.000000000000000000e+00
-3.360780715942382812e+01 2.337543678283691051e+01 6.483895778656005859e+00 1.400000000000000000e+01
-5.673387527465820312e+00 3.947514295578002930e+00 -6.046865582466125488e-01 3.000000000000000000e+00
-3.325487899780272727e+01 2.314719009399414062e+01 7.875832080841063565e+00 6.300000000000000000e+01
-8.937752723693847656e+00 6.223474025726318359e+00 -5.707759261131286621e-01 3.000000000000000000e+00
-3.217430114746093750e+01 2.241172599792480113e+01 9.052480697631835938e+00 1.200000000000000000e+01
-1.954449653625488059e+00 1.364964962005615012e+00 -6.387653946876525879e-01 1.900000000000000000e+01
-2.255372524261475053e+00 1.576297402381896973e+00 -6.352617740631103516e-01 1.400000000000000000e+01
-2.650005817413330078e+00 1.852798342704772949e+00 -6.285248398780822754e-01 1.300000000000000000e+01
-3.207925081253052202e+00 2.244544744491577148e+00 -6.201062202453613281e-01 9.000000000000000000e+00
-4.122144222259520596e+00 2.886356592178345171e+00 -6.178775429725646973e-01 1.000000000000000000e+01
-5.649535179138183594e+00 3.957316875457764116e+00 -6.034663915634155273e-01 3.000000000000000000e+00
-8.875635147094726562e+00 6.221714973449707031e+00 -5.680544972419738770e-01 2.000000000000000000e+00
-1.954413056373595969e+00 1.375113844871520996e+00 -6.403183341026306152e-01 1.900000000000000000e+01
-2.245076179504394975e+00 1.580794811248779075e+00 -6.339120864868164062e-01 1.500000000000000000e+01
-2.648337364196776900e+00 1.865428924560547097e+00 -6.296696662902832031e-01 1.100000000000000000e+01
-3.185539484024047852e+00 2.245486021041870117e+00 -6.172903776168823242e-01 8.000000000000000000e+00
-4.099067211151123047e+00 2.891573667526245117e+00 -6.159276366233825684e-01 9.000000000000000000e+00
-3.302505874633789062e+01 2.330525016784667969e+01 6.401924133300781250e+00 1.400000000000000000e+01
-5.655221462249755859e+00 3.990798473358153853e+00 -6.055580973625183105e-01 2.000000000000000000e+00
-8.853862762451171875e+00 6.252658843994140625e+00 -5.680544972419738770e-01 2.000000000000000000e+00
-3.304677200317382812e+01 2.334650230407714844e+01 9.341317176818847656e+00 1.200000000000000000e+01
-1.952511668205261008e+00 1.384502768516540971e+00 -6.413536071777343750e-01 1.900000000000000000e+01
-2.244035005569458008e+00 1.592396020889282005e+00 -6.352617740631103516e-01 1.300000000000000000e+01
-2.633477926254272017e+00 1.869440913200377974e+00 -6.277616024017333984e-01 9.000000000000000000e+00
-3.188560485839844194e+00 2.265154600143433061e+00 -6.194804906845092773e-01 9.000000000000000000e+00
-4.088441371917724609e+00 2.906578063964844194e+00 -6.159276366233825684e-01 9.000000000000000000e+00
-3.288554763793945312e+01 2.337918090820312855e+01 6.390660762786865234e+00 1.400000000000000000e+01
-5.621072769165039062e+00 3.997642278671265093e+00 -6.034663915634155273e-01 2.000000000000000000e+00
-8.765797615051269531e+00 6.238743305206298828e+00 -5.638675689697265625e-01 2.000000000000000000e+00
-1.950810790061950906e+00 1.393555760383605957e+00 -6.423888802528381348e-01 1.900000000000000000e+01
-2.230536222457886186e+00 1.594552993774414062e+00 -6.330122947692871094e-01 1.500000000000000000e+01
-2.620548725128173828e+00 1.874053955078125000e+00 -6.262351274490356445e-01 9.000000000000000000e+00
-3.177421569824219194e+00 2.273971796035767046e+00 -6.188547611236572266e-01 9.000000000000000000e+00
-3.311608123779296875e+01 2.370878601074219105e+01 5.000786781311035156e+00 2.400000000000000000e+01
-4.068587303161621094e+00 2.913896560668944868e+00 -6.144652366638183594e-01 9.000000000000000000e+00
-3.285744476318358664e+01 2.354097366333008168e+01 6.401924133300781250e+00 1.400000000000000000e+01
-5.603845119476318359e+00 4.014918327331542969e+00 -6.031177639961242676e-01 2.000000000000000000e+00
-8.776430130004882812e+00 6.292579174041748047e+00 -5.659610033035278320e-01 2.000000000000000000e+00
-1.931579589843750000e+00 1.390538334846497026e+00 -6.377301216125488281e-01 1.700000000000000000e+01
-2.234163999557495117e+00 1.609552264213562012e+00 -6.357116699218750000e-01 1.300000000000000000e+01
-2.632775068283081055e+00 1.897420525550842063e+00 -6.308145523071289062e-01 7.000000000000000000e+00
-3.172270059585570845e+00 2.287913322448730025e+00 -6.194804906845092773e-01 9.000000000000000000e+00
-4.064318656921386719e+00 2.933436155319213867e+00 -6.154401898384094238e-01 9.000000000000000000e+00
-5.566477298736572266e+00 4.019102096557617188e+00 -6.006773710250854492e-01 2.000000000000000000e+00
-8.688552856445312500e+00 6.277915000915527344e+00 -5.617741346359252930e-01 2.000000000000000000e+00
-3.266586303710938211e+01 2.361140251159667969e+01 9.305325508117675781e+00 1.200000000000000000e+01
-1.926713943481445090e+00 1.397272348403931108e+00 -6.377301216125488281e-01 1.700000000000000000e+01
-2.228531837463378906e+00 1.617341041564940962e+00 -6.357116699218750000e-01 1.300000000000000000e+01
-2.630901813507080078e+00 1.910059332847594993e+00 -6.319593787193298340e-01 8.000000000000000000e+00
-3.164264440536499023e+00 2.298972606658935991e+00 -6.194804906845092773e-01 9.000000000000000000e+00
-4.050843238830566406e+00 2.945270776748656782e+00 -6.149526834487915039e-01 1.000000000000000000e+01
-3.308752822875977273e+01 2.406597518920898082e+01 6.480141162872313565e+00 1.400000000000000000e+01
-5.552413940429688388e+00 4.038508415222167969e+00 -6.006773710250854492e-01 2.000000000000000000e+00
-8.695652008056640625e+00 6.329362392425537109e+00 -5.636582374572753906e-01 2.000000000000000000e+00
-1.926995635032654031e+00 1.406735539436340110e+00 -6.392830610275268555e-01 1.900000000000000000e+01
-2.213998556137084961e+00 1.617436885833740012e+00 -6.330122947692871094e-01 1.300000000000000000e+01
-2.635983705520629883e+00 1.926423907279968040e+00 -6.346307396888732910e-01 1.000000000000000000e+01
-3.153837442398070845e+00 2.306569814682006836e+00 -6.188547611236572266e-01 9.000000000000000000e+00
-3.295029449462891336e+01 2.410713958740234020e+01 5.012973785400390625e+00 2.400000000000000000e+01
-4.035162448883056641e+00 2.953292608261107954e+00 -6.139777302742004395e-01 9.000000000000000000e+00
-3.309567642211914062e+01 2.422237396240234020e+01 6.495784759521484375e+00 1.400000000000000000e+01
-5.539699077606201172e+00 4.055932044982910156e+00 -6.006773710250854492e-01 2.000000000000000000e+00
-8.601614952087402344e+00 6.302349090576171875e+00 -5.588433146476745605e-01 2.000000000000000000e+00
-1.926742553710937944e+00 1.416886925697327104e+00 -6.408359408378601074e-01 1.800000000000000000e+01
-2.206769704818726030e+00 1.624000191688538042e+00 -6.325623393058776855e-01 1.400000000000000000e+01
-2.611851930618286133e+00 1.922810316085814986e+00 -6.304329037666320801e-01 1.000000000000000000e+01
-3.147357225418090820e+00 2.318736314773560014e+00 -6.191676259040832520e-01 8.000000000000000000e+00
-3.318554306030272727e+01 2.445755386352539062e+01 5.061721324920654297e+00 2.500000000000000000e+01
-4.012046813964843750e+00 2.957936048507689986e+00 -6.120278239250183105e-01 9.000000000000000000e+00
-5.512680053710938388e+00 4.065783500671386719e+00 -5.992828607559204102e-01 2.000000000000000000e+00
-8.560278892517089844e+00 6.318103313446044922e+00 -5.575872659683227539e-01 2.000000000000000000e+00
-1.918680310249329057e+00 1.421303987503051980e+00 -6.398006677627563477e-01 1.700000000000000000e+01
-2.202652931213378906e+00 1.632853984832763894e+00 -6.330122947692871094e-01 1.300000000000000000e+01
-2.594085693359375000e+00 1.923729538917541948e+00 -6.277616024017333984e-01 1.100000000000000000e+01
-3.144002914428710938e+00 2.333240270614624023e+00 -6.201062202453613281e-01 9.000000000000000000e+00
-3.325935363769531250e+01 2.469157218933105113e+01 5.086095333099365234e+00 2.600000000000000000e+01
-4.008071899414063388e+00 2.976656913757324219e+00 -6.130027770996093750e-01 1.000000000000000000e+01
-5.503252029418945312e+00 4.088566303253173828e+00 -5.998058319091796875e-01 3.000000000000000000e+00
-8.576640129089355469e+00 6.376545429229736328e+00 -5.600994229316711426e-01 2.000000000000000000e+00
-1.904417514801024947e+00 1.421060800552367942e+00 -6.366948485374450684e-01 1.700000000000000000e+01
-2.201623916625977007e+00 1.644030570983886941e+00 -6.343619823455810547e-01 1.200000000000000000e+01
-2.595218896865845171e+00 1.938647508621216042e+00 -6.296696662902832031e-01 1.100000000000000000e+01
-3.127928495407104048e+00 2.338286876678466797e+00 -6.185418963432312012e-01 8.000000000000000000e+00
-3.991298913955688032e+00 2.985873222351074219e+00 -6.120278239250183105e-01 9.000000000000000000e+00
-5.477780818939208984e+00 4.099394798278808594e+00 -5.985856652259826660e-01 3.000000000000000000e+00
-8.541541099548339844e+00 6.396866798400878906e+00 -5.592620372772216797e-01 2.000000000000000000e+00
-1.905372500419616921e+00 1.432675242424011008e+00 -6.387653946876525879e-01 1.700000000000000000e+01
-2.192469120025635210e+00 1.649745583534240945e+00 -6.334621906280517578e-01 1.400000000000000000e+01
-2.589664697647095171e+00 1.949327230453490989e+00 -6.300513148307800293e-01 1.300000000000000000e+01
-3.119337081909180132e+00 2.349735736846923828e+00 -6.185418963432312012e-01 8.000000000000000000e+00
-3.220986557006835938e+01 2.427187347412109020e+01 4.952038764953613281e+00 2.300000000000000000e+01
-3.999350309371947798e+00 3.014821052551269975e+00 -6.149526834487915039e-01 9.000000000000000000e+00
-5.442039012908936435e+00 4.103849411010742188e+00 -5.963196158409118652e-01 4.000000000000000000e+00
-8.511660575866699219e+00 6.423317909240722656e+00 -5.588433146476745605e-01 2.000000000000000000e+00
-1.901899933815001997e+00 1.440483927726746050e+00 -6.392830610275268555e-01 2.100000000000000000e+01
-2.180485010147095171e+00 1.652680158615112083e+00 -6.316625475883483887e-01 1.300000000000000000e+01
-2.589102029800415039e+00 1.963099598884582964e+00 -6.315777897834777832e-01 1.200000000000000000e+01
-3.104821443557738814e+00 2.355833768844604048e+00 -6.172903776168823242e-01 8.000000000000000000e+00
-3.216605377197266336e+01 2.441536521911621094e+01 4.958375930786132812e+00 2.300000000000000000e+01
-3.966668605804442915e+00 3.011956691741942915e+00 -6.115403771400451660e-01 9.000000000000000000e+00
-5.435613632202148438e+00 4.128846645355224609e+00 -5.971911549568176270e-01 5.000000000000000000e+00
-8.271352767944335938e+00 6.287404537200927734e+00 -5.445032715797424316e-01 1.000000000000000000e+01
-1.898396015167236106e+00 1.448285818099976030e+00 -6.398006677627563477e-01 1.900000000000000000e+01
-2.174702882766724077e+00 1.660281419754028098e+00 -6.316625475883483887e-01 1.400000000000000000e+01
-2.577553033828734907e+00 1.968550443649291992e+00 -6.304329037666320801e-01 1.300000000000000000e+01
-3.093440055847167969e+00 2.364258289337158203e+00 -6.166646480560302734e-01 8.000000000000000000e+00
-3.209640502929688211e+01 2.453955268859862926e+01 4.960813522338867188e+00 2.300000000000000000e+01
