3.881624698638916016e+00 -3.034455478191375732e-01 -6.166646480560302734e-01 1.000000000000000000e+01
4.957395076751708984e+00 -3.892848789691925049e-01 -6.105654239654541016e-01 1.200000000000000000e+01
6.516878128051757812e+00 -5.128894448280334473e-01 -5.719159841537475586e-01 7.000000000000000000e+00
1.003288745880126953e+01 -7.931293249130249023e-01 -5.274417400360107422e-01 2.000000000000000000e+00
1.937206459045410156e+01 -1.538223385810852051e+00 -3.392049670219420832e-01 3.000000000000000000e+00
3.806271362304688211e+01 -3.029024600982666016e+00 1.023111724853515980e+01 8.000000000000000000e+00
2.378017663955688032e+00 -1.930017620325089056e-01 -6.392830610275268555e-01 1.800000000000000000e+01
2.746409654617310014e+00 -2.238657772541045865e-01 -6.361615657806396484e-01 1.000000000000000000e+01
3.226658821105957031e+00 -2.635788321495056152e-01 -6.292880773544311523e-01 1.300000000000000000e+01
3.876493215560913086e+00 -3.180246353149414062e-01 -6.160389184951782227e-01 1.000000000000000000e+01
4.963777542114257812e+00 -4.089690148830413818e-01 -6.115403771400451660e-01 9.000000000000000000e+00
6.560530185699462891e+00 -5.416793823242187500e-01 -5.759251713752746582e-01 8.000000000000000000e+00
1.002180671691895064e+01 -8.309867382049560547e-01 -5.270230770111083984e-01 2.000000000000000000e+00
1.924246215820312855e+01 -1.602306962013245073e+00 -3.370408713817595880e-01 3.000000000000000000e+00
3.808215713500977273e+01 -3.171076059341431108e+00 1.023939895629882990e+01 8.000000000000000000e+00
2.394654035568236861e+00 -2.027683854103088101e-01 -6.439417600631713867e-01 1.900000000000000000e+01
2.741728067398070845e+00 -2.331209778785706122e-01 -6.352617740631103516e-01 1.100000000000000000e+01
3.215938091278076172e+00 -2.740069925785065252e-01 -6.273799538612365723e-01 1.300000000000000000e+01
3.889136791229248047e+00 -3.327328860759735107e-01 -6.182290315628051758e-01 9.000000000000000000e+00
4.956386089324951172e+00 -4.257836043834685724e-01 -6.108091473579406738e-01 1.000000000000000000e+01
6.572494983673095703e+00 -5.657727122306823730e-01 -5.771453380584716797e-01 8.000000000000000000e+00
1.004272270202637074e+01 -8.680281639099121094e-01 -5.282791256904602051e-01 2.000000000000000000e+00
3.632688522338867188e+01 -3.146249055862427202e+00 8.418118476867675781e+00 1.100000000000000000e+01
1.927261161804198863e+01 -1.672578096389770952e+00 -3.376691639423369806e-01 3.000000000000000000e+00
2.380497694015502930e+00 -2.095225751399993896e-01 -6.403183341026306152e-01 1.800000000000000000e+01
2.748704671859741211e+00 -2.428977489471436102e-01 -6.370613574981689453e-01 1.200000000000000000e+01
3.951098251342772727e+01 -3.498459577560424805e+00 2.078784227371215820e+00 2.200000000000000000e+01
3.207189559936522993e+00 -2.839772999286652166e-01 -6.258534789085388184e-01 1.200000000000000000e+01
3.888012170791625977e+00 -3.456279039382935125e-01 -6.182290315628051758e-01 1.000000000000000000e+01
4.958901405334472656e+00 -4.425701797008513849e-01 -6.112966537475585938e-01 1.000000000000000000e+01
6.548753261566162109e+00 -5.856127738952636719e-01 -5.752279162406921387e-01 4.000000000000000000e+00
1.007559585571289062e+01 -9.045408368110656738e-01 -5.301632285118103027e-01 2.000000000000000000e+00
3.640164947509766336e+01 -3.274377822875977007e+00 8.437913894653320312e+00 1.100000000000000000e+01
1.955375289916991832e+01 -1.762327075004578081e+00 -3.426954448223114014e-01 3.000000000000000000e+00
2.379751682281494141e+00 -2.178307920694350919e-01 -6.403183341026306152e-01 1.700000000000000000e+01
5.968837738037108664e+01 -5.474086284637451172e+00 1.046236872673034890e+00 6.300000000000000000e+01
2.757542848587036133e+00 -2.533825933933258057e-01 -6.393108963966369629e-01 1.300000000000000000e+01
3.949853134155272727e+01 -3.636357307434082031e+00 2.078784227371215820e+00 2.200000000000000000e+01
3.215953588485718218e+00 -2.960706651210784912e-01 -6.277616024017333984e-01 1.300000000000000000e+01
3.894649982452393022e+00 -3.599246144294738770e-01 -6.194804906845092773e-01 1.000000000000000000e+01
4.969185829162597656e+00 -4.609774649143218994e-01 -6.127590537071228027e-01 1.000000000000000000e+01
6.538733959197998047e+00 -6.077310442924499512e-01 -5.745306611061096191e-01 4.000000000000000000e+00
1.007237720489501953e+01 -9.397057294845581055e-01 -5.301632285118103027e-01 2.000000000000000000e+00
3.628134155273438211e+01 -3.391267299652100053e+00 8.412719726562500000e+00 1.100000000000000000e+01
1.957535552978515980e+01 -1.833181977272033913e+00 -3.431841135025023859e-01 3.000000000000000000e+00
2.382862806320189986e+00 -2.260860800743103027e-01 -6.413536071777343750e-01 1.900000000000000000e+01
2.750867605209351030e+00 -2.619712948799132746e-01 -6.379612088203430176e-01 1.300000000000000000e+01
3.928743362426757812e+01 -3.748349666595458984e+00 2.068316936492919922e+00 2.200000000000000000e+01
3.214954137802124023e+00 -3.067335188388823908e-01 -6.277616024017333984e-01 1.200000000000000000e+01
3.869838476181029829e+00 -3.705781400203704834e-01 -6.157260537147521973e-01 9.000000000000000000e+00
4.967629909515380859e+00 -4.774533212184906006e-01 -6.127590537071228027e-01 1.000000000000000000e+01
6.570397377014160156e+00 -6.326572895050048828e-01 -5.774939656257629395e-01 5.000000000000000000e+00
1.006125354766846058e+01 -9.723332524299621582e-01 -5.297445654869079590e-01 2.000000000000000000e+00
3.643671035766602273e+01 -3.527712106704711914e+00 8.451411247253417969e+00 1.100000000000000000e+01
1.964082145690917969e+01 -1.905035972595215066e+00 -3.444406986236572266e-01 3.000000000000000000e+00
3.733170700073242188e+01 -3.620940446853638139e+00 1.004994392395020064e+01 8.000000000000000000e+00
2.385904073715209961e+00 -2.347808182239531916e-01 -6.423888802528381348e-01 1.900000000000000000e+01
2.742179155349731001e+00 -2.708059549331665039e-01 -6.361615657806396484e-01 1.400000000000000000e+01
3.934566116333007812e+01 -3.892544507980347124e+00 2.072085142135620117e+00 2.200000000000000000e+01
3.227539777755736861e+00 -3.193069398403167725e-01 -6.304329037666320801e-01 1.200000000000000000e+01
3.876384019851685014e+00 -3.848647773265839178e-01 -6.169775128364562988e-01 9.000000000000000000e+00
4.965933322906494141e+00 -4.947907030582427979e-01 -6.127590537071228027e-01 1.000000000000000000e+01
6.548323631286621094e+00 -6.536095738410949707e-01 -5.757508277893066406e-01 5.000000000000000000e+00
1.012139225006104049e+01 -1.013817548751831055e+00 -5.330940485000610352e-01 2.000000000000000000e+00
3.653081893920897727e+01 -3.665579557418822798e+00 8.476155281066894531e+00 2.200000000000000000e+01
1.963405227661133168e+01 -1.973583698272705078e+00 -3.444406986236572266e-01 3.000000000000000000e+00
3.735728454589843750e+01 -3.755094528198242188e+00 1.006029605865479049e+01 8.000000000000000000e+00
2.385112524032593218e+00 -2.426914721727370938e-01 -6.423888802528381348e-01 1.800000000000000000e+01
2.749020814895629883e+00 -2.806896567344666082e-01 -6.379612088203430176e-01 1.300000000000000000e+01
3.222557067871094194e+00 -3.296085596084594727e-01 -6.296696662902832031e-01 1.300000000000000000e+01
3.882946729660034180e+00 -3.985239565372467041e-01 -6.182290315628051758e-01 1.100000000000000000e+01
3.660865783691406250e+01 -3.763764858245850053e+00 4.518671512603759766e+00 1.900000000000000000e+01
4.942543983459472656e+00 -5.090185999870300293e-01 -6.100779175758361816e-01 9.000000000000000000e+00
6.581793785095214844e+00 -6.790012121200561523e-01 -5.788884162902832031e-01 8.000000000000000000e+00
1.008618831634520951e+01 -1.044085383415221946e+00 -5.314192771911621094e-01 2.000000000000000000e+00
3.643123626708983664e+01 -3.777655363082886186e+00 8.455909729003906250e+00 1.100000000000000000e+01
1.966717910766601918e+01 -2.042813539505004883e+00 -3.451387882232666016e-01 3.000000000000000000e+00
3.727929306030272727e+01 -3.872169256210327148e+00 1.004269695281982067e+01 8.000000000000000000e+00
2.388093233108520952e+00 -2.514201402664185125e-01 -6.434241533279418945e-01 1.800000000000000000e+01
2.749962091445922852e+00 -2.904885411262512207e-01 -6.384111046791076660e-01 1.200000000000000000e+01
3.209672689437866211e+00 -3.396159112453461248e-01 -6.273799538612365723e-01 1.300000000000000000e+01
3.891353607177733931e+00 -4.131182432174683172e-01 -6.197933554649353027e-01 1.100000000000000000e+01
3.672557830810546875e+01 -3.905384063720703125e+00 4.534758090972900391e+00 1.900000000000000000e+01
4.954554557800292969e+00 -5.277400016784667969e-01 -6.117841005325317383e-01 1.000000000000000000e+01
6.569478034973145419e+00 -7.009149789810180664e-01 -5.780168771743774414e-01 6.000000000000000000e+00
1.016589069366455078e+01 -1.088214874267577903e+00 -5.358155369758605957e-01 2.000000000000000000e+00
3.663096618652343750e+01 -3.927654266357421875e+00 8.505399703979492188e+00 1.100000000000000000e+01
1.977922439575194957e+01 -2.124264717102050781e+00 -3.472330868244171143e-01 3.000000000000000000e+00
3.729174041748046875e+01 -4.011671543121337891e+00 1.004994392395020064e+01 8.000000000000000000e+00
2.375678062438964844e+00 -2.585007548332213800e-01 -6.403183341026306152e-01 1.800000000000000000e+01
5.978481292724608664e+01 -6.515825271606445312e+00 1.049727320671081987e+00 6.300000000000000000e+01
2.754743099212646040e+00 -3.007203638553618830e-01 -6.397607922554016113e-01 1.400000000000000000e+01
3.220177412033081055e+00 -3.520980477333068848e-01 -6.296696662902832031e-01 1.300000000000000000e+01
3.885960817337036133e+00 -4.262682795524597168e-01 -6.191676259040832520e-01 1.000000000000000000e+01
3.687747192382813211e+01 -4.051767349243164062e+00 4.555232524871826172e+00 1.900000000000000000e+01
4.958601951599121094e+00 -5.456828474998474121e-01 -6.125153303146362305e-01 9.000000000000000000e+00
6.559069633483886719e+00 -7.229692935943603516e-01 -5.773196220397949219e-01 5.000000000000000000e+00
1.015806007385254084e+01 -1.123254776000977007e+00 -5.356062054634094238e-01 2.000000000000000000e+00
3.449419403076171875e+01 -3.820382595062255859e+00 8.012306213378906250e+00 1.000000000000000000e+01
1.981143951416015980e+01 -2.197703599929810014e+00 -3.479311764240264893e-01 3.000000000000000000e+00
3.459397125244141336e+01 -3.837545156478881836e+00 9.326285362243652344e+00 6.000000000000000000e+00
2.380520582199097124e+00 -2.674388587474822998e-01 -6.418712139129638672e-01 1.900000000000000000e+01
2.749803543090819868e+00 -3.098978996276854914e-01 -6.388610005378723145e-01 1.400000000000000000e+01
5.963891601562500000e+01 -6.731739044189453125e+00 3.145390987396239790e+00 6.300000000000000000e+01
3.224781513214110884e+00 -3.639970123767852783e-01 -6.308145523071289062e-01 1.300000000000000000e+01
3.878560543060303178e+00 -4.391634762287139893e-01 -6.182290315628051758e-01 1.000000000000000000e+01
3.690255355834960938e+01 -4.184943199157714844e+00 4.560107231140136719e+00 1.900000000000000000e+01
4.972445964813232422e+00 -5.647804737091064453e-01 -6.144652366638183594e-01 9.000000000000000000e+00
6.584220886230468750e+00 -7.490131258964538574e-01 -5.797600150108337402e-01 6.000000000000000000e+00
1.017392063140868963e+01 -1.160970687866210938e+00 -5.366529226303100586e-01 2.000000000000000000e+00
3.445354461669921875e+01 -3.937668561935424805e+00 8.006008148193359375e+00 1.000000000000000000e+01
1.987516975402832031e+01 -2.275031805038452148e+00 -3.491877615451812744e-01 3.000000000000000000e+00
3.451510620117188211e+01 -3.950807571411132812e+00 9.308685302734375000e+00 6.000000000000000000e+00
2.383362293243408203e+00 -2.766075432300568182e-01 -6.429064869880676270e-01 2.100000000000000000e+01
5.983597183227539062e+01 -6.955009937286376953e+00 1.051472544670104980e+00 6.300000000000000000e+01
2.750585079193114790e+00 -3.201996684074401855e-01 -6.393108963966369629e-01 1.600000000000000000e+01
5.961505508422852273e+01 -6.939877033233642578e+00 3.145390987396239790e+00 6.300000000000000000e+01
3.223425626754761186e+00 -3.758139908313751221e-01 -6.308145523071289062e-01 1.200000000000000000e+01
3.886734962463378906e+00 -4.545233845710753839e-01 -6.197933554649353027e-01 1.000000000000000000e+01
4.968370914459229404e+00 -5.827703475952148438e-01 -6.142215132713317871e-01 1.000000000000000000e+01
6.579452514648438388e+00 -7.729080319404602051e-01 -5.795856714248657227e-01 6.000000000000000000e+00
1.018943309783936080e+01 -1.200589299201965110e+00 -5.376996397972106934e-01 2.000000000000000000e+00
3.470208358764647727e+01 -4.094979763031005859e+00 8.067194938659667969e+00 1.000000000000000000e+01
2.390054941177368164e+00 -2.858429849147797186e-01 -6.449770331382751465e-01 2.100000000000000000e+01
5.985501098632813211e+01 -7.169065952301025391e+00 1.052240490913390891e+00 6.200000000000000000e+01
2.747515678405762163e+00 -3.295669555664063055e-01 -6.388610005378723145e-01 1.300000000000000000e+01
3.214297294616699219e+00 -3.861269354820250910e-01 -6.292880773544311523e-01 1.300000000000000000e+01
3.883163452148437944e+00 -4.678515493869780939e-01 -6.194804906845092773e-01 1.100000000000000000e+01
4.954482078552246094e+00 -5.986808538436889648e-01 -6.127590537071228027e-01 1.000000000000000000e+01
6.598472118377686435e+00 -7.985028624534606934e-01 -5.815030932426452637e-01 6.000000000000000000e+00
3.348761367797852273e+01 -4.058377265930175781e+00 6.556960105895996094e+00 5.800000000000000000e+01
1.018914508819580078e+01 -1.236631035804748979e+00 -5.379089713096618652e-01 2.000000000000000000e+00
3.466436386108397727e+01 -4.213265895843505859e+00 8.061796188354492188e+00 1.000000000000000000e+01
1.998145294189453125e+01 -2.432176828384398970e+00 -3.513518571853638250e-01 3.000000000000000000e+00
3.499915313720703125e+01 -4.266355991363525391e+00 9.447412490844726562e+00 7.000000000000000000e+00
2.392928600311278853e+00 -2.942386567592620850e-01 -6.460123658180236816e-01 2.200000000000000000e+01
5.988648223876953125e+01 -7.374355792999267578e+00 1.053217768669127974e+00 6.200000000000000000e+01
2.750275850296020952e+00 -3.391532599925994873e-01 -6.397607922554016113e-01 1.300000000000000000e+01
5.956643295288085938e+01 -7.345499515533447266e+00 3.145390987396239790e+00 6.300000000000000000e+01
3.216896057128905806e+00 -3.972650468349456787e-01 -6.300513148307800293e-01 1.300000000000000000e+01
3.891392707824707031e+00 -4.819399714469910223e-01 -6.210448145866394043e-01 1.000000000000000000e+01
4.962319374084472656e+00 -6.163305640220642090e-01 -6.139777302742004395e-01 9.000000000000000000e+00
6.587879180908203125e+00 -8.193960785865783691e-01 -5.808058977127075195e-01 6.000000000000000000e+00
3.378568267822266336e+01 -4.208229541778563565e+00 6.618019104003906250e+00 5.800000000000000000e+01
1.022859001159667969e+01 -1.275851249694823997e+00 -5.402117371559143066e-01 2.000000000000000000e+00
2.010026931762694957e+01 -2.514309406280518022e+00 -3.535857498645781916e-01 3.000000000000000000e+00
3.488397979736328125e+01 -4.363579273223876953e+00 9.419978141784667969e+00 1.400000000000000000e+01
2.378470897674560991e+00 -3.008925318717957098e-01 -6.423888802528381348e-01 2.000000000000000000e+01
5.986037445068358664e+01 -7.583353519439697266e+00 1.053217768669127974e+00 6.200000000000000000e+01
2.749075174331665039e+00 -3.487514555454254150e-01 -6.397607922554016113e-01 1.400000000000000000e+01
3.223280191421508789e+00 -4.094813466072083075e-01 -6.315777897834777832e-01 1.300000000000000000e+01
3.889686822891234907e+00 -4.955205321311951239e-01 -6.210448145866394043e-01 1.000000000000000000e+01
4.962106704711914062e+00 -6.339001059532165527e-01 -6.142215132713317871e-01 1.000000000000000000e+01
6.584978580474854404e+00 -8.423870801925659180e-01 -5.808058977127075195e-01 5.000000000000000000e+00
1.025577068328857067e+01 -1.315613985061645952e+00 -5.418865084648132324e-01 2.000000000000000000e+00
3.506397628784179688e+01 -4.504240036010742188e+00 8.161674499511718750e+00 1.000000000000000000e+01
2.016277122497558949e+01 -2.593641757965087891e+00 -3.548423349857329767e-01 3.000000000000000000e+00
3.496050643920897727e+01 -4.497150897979736328e+00 9.444824218750000000e+00 1.400000000000000000e+01
2.383207321166992188e+00 -3.095245957374572754e-01 -6.439417600631713867e-01 1.900000000000000000e+01
5.983489990234375000e+01 -7.781816005706787109e+00 1.053217768669127974e+00 6.200000000000000000e+01
2.757565736770629883e+00 -3.591240942478179932e-01 -6.420103311538696289e-01 1.500000000000000000e+01
5.971175003051757812e+01 -7.786996841430664062e+00 3.155858278274536133e+00 6.200000000000000000e+01
3.231638431549071822e+00 -4.214372932910919189e-01 -6.334858536720275879e-01 1.300000000000000000e+01
3.880187273025513139e+00 -5.073919296264648438e-01 -6.197933554649353027e-01 1.000000000000000000e+01
3.625393295288085938e+01 -4.747174263000488281e+00 4.489422798156738281e+00 1.900000000000000000e+01
4.973754882812500000e+00 -6.521580815315246582e-01 -6.159276366233825684e-01 1.200000000000000000e+01
6.590050697326660156e+00 -8.652565479278564453e-01 -5.815030932426452637e-01 8.000000000000000000e+00
1.022362899780273082e+01 -1.345966339111327903e+00 -5.404210686683654785e-01 2.000000000000000000e+00
3.513385391235352273e+01 -4.631698131561279297e+00 8.181469917297363281e+00 1.000000000000000000e+01
2.020956993103026988e+01 -2.667817354202270952e+00 -3.558196723461151123e-01 3.000000000000000000e+00
3.526826095581054688e+01 -4.661942481994628906e+00 9.532305717468261719e+00 7.000000000000000000e+00
2.391686916351317915e+00 -3.191191554069519043e-01 -6.465299725532531738e-01 1.900000000000000000e+01
5.960916137695313211e+01 -7.964149475097656250e+00 1.049727320671081987e+00 6.300000000000000000e+01
2.742774724960327148e+00 -3.669387698173522949e-01 -6.388610005378723145e-01 1.300000000000000000e+01
5.968560028076171875e+01 -7.984965324401854581e+00 3.155858278274536133e+00 6.200000000000000000e+01
3.226255893707274947e+00 -4.321938753128051758e-01 -6.327226161956787109e-01 1.200000000000000000e+01
3.890139341354370117e+00 -5.225110054016113281e-01 -6.216705441474914551e-01 1.200000000000000000e+01
3.607975006103516336e+01 -4.852527141571044922e+00 4.469923973083496094e+00 1.900000000000000000e+01
4.971448421478270596e+00 -6.695157289505004883e-01 -6.159276366233825684e-01 1.200000000000000000e+01
3.511645889282227273e+01 -4.735449790954589844e+00 5.612242698669433594e+00 1.300000000000000000e+01
6.588964939117431641e+00 -8.885210752487182617e-01 -5.816774368286132812e-01 6.000000000000000000e+00
1.024657821655273082e+01 -1.385391712188720925e+00 -5.418865084648132324e-01 2.000000000000000000e+00
3.502014541625977273e+01 -4.753582477569580078e+00 9.469671249389648438e+00 1.400000000000000000e+01
2.390558242797852007e+00 -3.274657726287841797e-01 -6.465299725532531738e-01 1.900000000000000000e+01
5.968005752563477273e+01 -8.185762405395507812e+00 1.051472544670104980e+00 6.300000000000000000e+01
2.741477012634276900e+00 -3.765105903148651123e-01 -6.388610005378723145e-01 1.400000000000000000e+01
3.222782611846923828e+00 -4.431855380535125732e-01 -6.323410272598266602e-01 1.300000000000000000e+01
3.878507375717163086e+00 -5.347380042076110840e-01 -6.201062202453613281e-01 9.000000000000000000e+00
3.605079269409179688e+01 -4.976810932159423828e+00 4.468461513519287109e+00 1.900000000000000000e+01
4.963181972503662109e+00 -6.860498189926147461e-01 -6.151964664459228516e-01 1.000000000000000000e+01
6.583849430084229404e+00 -9.112423062324523926e-01 -5.815030932426452637e-01 5.000000000000000000e+00
1.024168014526367010e+01 -1.421150565147399902e+00 -5.418865084648132324e-01 2.000000000000000000e+00
3.336734771728516336e+01 -4.636037826538085938e+00 7.777457714080811435e+00 9.000000000000000000e+00
3.499759674072266336e+01 -4.874997138977050781e+00 9.468118667602539062e+00 1.400000000000000000e+01
2.387487649917602983e+00 -3.355395197868347168e-01 -6.460123658180236816e-01 2.100000000000000000e+01
2.755583524703979048e+00 -3.882529437541962225e-01 -6.424602270126342773e-01 1.300000000000000000e+01
3.203719854354857954e+00 -4.519641995429993231e-01 -6.289064288139343262e-01 1.200000000000000000e+01
3.892264366149901900e+00 -5.504862666130065918e-01 -6.226091980934143066e-01 1.100000000000000000e+01
3.908363342285156250e+01 -5.534589290618895596e+00 4.846743583679199219e+00 2.000000000000000000e+01
4.962722301483154297e+00 -7.036490440368652344e-01 -6.154401898384094238e-01 9.000000000000000000e+00
6.602327346801757812e+00 -9.372991323471069336e-01 -5.834205150604248047e-01 5.000000000000000000e+00
1.026829433441161932e+01 -1.461394667625427024e+00 -5.435612201690673828e-01 2.000000000000000000e+00
3.562361907958983664e+01 -5.076334953308104581e+00 8.307442665100097656e+00 1.000000000000000000e+01
2.052102279663085938e+01 -2.927882909774779829e+00 -3.618232905864716131e-01 3.000000000000000000e+00
3.453477096557617188e+01 -4.933475494384765625e+00 9.347508430480957031e+00 1.400000000000000000e+01
2.376741409301757812e+00 -3.424936532974243164e-01 -6.434241533279418945e-01 1.900000000000000000e+01
5.979166793823242188e+01 -8.626763343811035156e+00 1.054474353790282981e+00 6.200000000000000000e+01
2.761926412582397017e+00 -3.989838361740111750e-01 -6.442598104476928711e-01 1.300000000000000000e+01
3.217667102813721147e+00 -4.653927683830261230e-01 -6.319593787193298340e-01 1.300000000000000000e+01
3.890319108963013139e+00 -5.640694499015808105e-01 -6.226091980934143066e-01 1.100000000000000000e+01
4.030563735961914062e+01 -5.851222038269042969e+00 5.000786781311035156e+00 2.400000000000000000e+01
4.977915763854979581e+00 -7.235376834869384766e-01 -6.176338195800781250e-01 1.000000000000000000e+01
6.585214138031005859e+00 -9.583313465118408203e-01 -5.822003483772277832e-01 5.000000000000000000e+00
1.029079914093017933e+01 -1.501265168190001997e+00 -5.450266599655151367e-01 2.000000000000000000e+00
3.371982192993164062e+01 -4.925200939178466797e+00 7.867438316345214844e+00 9.000000000000000000e+00
2.051067924499512074e+01 -2.999496698379517046e+00 -3.618232905864716131e-01 3.000000000000000000e+00
3.467878723144531250e+01 -5.071451663970947266e+00 9.390990257263183594e+00 1.400000000000000000e+01
2.375531435012816939e+00 -3.507879376411437988e-01 -6.434241533279418945e-01 2.000000000000000000e+01
2.752805948257445845e+00 -4.074809253215789795e-01 -6.424602270126342773e-01 1.400000000000000000e+01
3.212138891220093218e+00 -4.760460555553435724e-01 -6.311961412429809570e-01 1.300000000000000000e+01
3.878556966781616211e+00 -5.761944055557250977e-01 -6.210448145866394043e-01 1.000000000000000000e+01
4.983213424682617188e+00 -7.420790195465087891e-01 -6.186087727546691895e-01 1.000000000000000000e+01
3.529792022705078125e+01 -5.256416320800781250e+00 5.652289867401123047e+00 1.300000000000000000e+01
6.593652248382568359e+00 -9.830750226974487305e-01 -5.832462310791015625e-01 8.000000000000000000e+00
3.410861206054688211e+01 -5.091480255126953125e+00 6.703501701354979581e+00 5.900000000000000000e+01
1.032500267028808949e+01 -1.543081998825073020e+00 -5.471200942993164062e-01 2.000000000000000000e+00
4.000849914550781250e+01 -5.986449718475341797e+00 9.339517593383789062e+00 1.200000000000000000e+01
2.050008392333984020e+01 -3.071074008941649947e+00 -3.618232905864716131e-01 3.000000000000000000e+00
3.613676834106445312e+01 -5.420021533966063565e+00 9.791124343872070312e+00 7.000000000000000000e+00
2.380022764205933061e+00 -3.599446117877960205e-01 -6.449770331382751465e-01 1.900000000000000000e+01
3.773210906982421875e+01 -5.713181495666503906e+00 6.661234498023986816e-01 3.100000000000000000e+01
2.745586633682250977e+00 -4.162112772464752197e-01 -6.411104798316955566e-01 1.500000000000000000e+01
3.225985765457152876e+00 -4.896123707294464111e-01 -6.342490911483764648e-01 1.200000000000000000e+01
3.884333610534667969e+00 -5.909179449081420898e-01 -6.222962737083435059e-01 1.000000000000000000e+01
4.984517574310302734e+00 -7.600675821304321289e-01 -6.190962791442871094e-01 1.000000000000000000e+01
6.598058700561523438e+00 -1.007287979125977007e+00 -5.839434862136840820e-01 5.000000000000000000e+00
3.423812484741210938e+01 -5.233053684234619141e+00 6.732504367828369141e+00 5.900000000000000000e+01
1.025242805480957031e+01 -1.568841934204102007e+00 -5.435612201690673828e-01 2.000000000000000000e+00
4.208394241333007812e+01 -6.454782962799072266e+00 1.140822601318359020e+01 1.100000000000000000e+01
2.392115592956542969e+00 -3.703190684318541925e-01 -6.486005187034606934e-01 1.900000000000000000e+01
3.759732437133789062e+01 -5.827092647552490234e+00 6.640989780426025391e-01 3.100000000000000000e+01
2.744117021560668945e+00 -4.257926344871520996e-01 -6.411104798316955566e-01 1.300000000000000000e+01
3.212617158889770952e+00 -4.990619719028472900e-01 -6.319593787193298340e-01 1.300000000000000000e+01
3.888102769851685014e+00 -6.053848862648010254e-01 -6.232349276542663574e-01 1.100000000000000000e+01
4.972027301788330078e+00 -7.759317755699157715e-01 -6.178775429725646973e-01 9.000000000000000000e+00
3.525940322875977273e+01 -5.508865833282470703e+00 5.652289867401123047e+00 1.300000000000000000e+01
6.608282089233398438e+00 -1.032466173171997070e+00 -5.851636528968811035e-01 6.000000000000000000e+00
1.033371067047118963e+01 -1.618215799331665039e+00 -5.481668114662170410e-01 2.000000000000000000e+00
3.693542861938477273e+01 -5.790538787841796875e+00 8.631371498107910156e+00 1.100000000000000000e+01
4.239207077026367188e+01 -6.661163806915283203e+00 1.149829483032226918e+01 1.100000000000000000e+01
2.394624471664429155e+00 -3.792712688446044922e-01 -6.496357917785644531e-01 2.000000000000000000e+01
3.769130325317382812e+01 -5.976459980010986328e+00 6.661234498023986816e-01 3.100000000000000000e+01
2.756086349487305132e+00 -4.375074505805969238e-01 -6.442598104476928711e-01 1.400000000000000000e+01
3.799045944213867188e+01 -6.037489891052246094e+00 2.015980958938599077e+00 2.200000000000000000e+01
3.214733362197875977e+00 -5.108893513679504395e-01 -6.327226161956787109e-01 1.200000000000000000e+01
3.887916803359984907e+00 -6.192639470100402832e-01 -6.235477924346923828e-01 1.000000000000000000e+01
4.977129936218261719e+00 -7.945343852043151855e-01 -6.188524961471557617e-01 1.000000000000000000e+01
3.568959426879882812e+01 -5.697382450103759766e+00 5.724249839782714844e+00 1.300000000000000000e+01
6.620377063751220703e+00 -1.058042526245116965e+00 -5.865581631660461426e-01 8.000000000000000000e+00
1.033983135223389027e+01 -1.656172633171081987e+00 -5.487948656082153320e-01 2.000000000000000000e+00
3.508703994750977273e+01 -5.626314640045166016e+00 8.203965187072753906e+00 1.000000000000000000e+01
2.076296234130859020e+01 -3.333121776580810991e+00 -3.670590221881865900e-01 3.000000000000000000e+00
3.676190185546875000e+01 -5.901464939117431641e+00 9.976438522338867188e+00 8.000000000000000000e+00
2.376122951507567915e+00 -3.848479390144348145e-01 -6.449770331382751465e-01 1.900000000000000000e+01
2.758389711380004883e+00 -4.477497935295104980e-01 -6.451596021652221680e-01 1.400000000000000000e+01
3.214868307113647017e+00 -5.224226117134094238e-01 -6.331042647361755371e-01 1.200000000000000000e+01
3.887681007385253906e+00 -6.331490874290466309e-01 -6.238606572151184082e-01 1.100000000000000000e+01
4.966489315032958984e+00 -8.106238842010498047e-01 -6.178775429725646973e-01 9.000000000000000000e+00
3.648337554931641336e+01 -5.961306095123291016e+00 5.855029106140136719e+00 1.300000000000000000e+01
6.595014095306395596e+00 -1.077611327171325906e+00 -5.846407413482666016e-01 8.000000000000000000e+00
1.034187126159667969e+01 -1.693546414375304954e+00 -5.492135286331176758e-01 2.000000000000000000e+00
2.079855918884276988e+01 -3.413349866867064986e+00 -3.678967356681823730e-01 3.000000000000000000e+00
3.512348937988281250e+01 -5.770576953887938565e+00 9.537482261657714844e+00 7.000000000000000000e+00
2.378645658493041992e+00 -3.933557271957396906e-01 -6.460123658180236816e-01 1.600000000000000000e+01
5.992315673828125000e+01 -9.920214653015136719e+00 1.060198783874511941e+00 6.100000000000000000e+01
2.747277021408081055e+00 -4.553014039993286133e-01 -6.429101228713989258e-01 1.200000000000000000e+01
3.218928575515747070e+00 -5.340446233749389648e-01 -6.342490911483764648e-01 1.200000000000000000e+01
3.794723892211914062e+01 -6.302539825439453125e+00 3.365431785583496094e+00 5.000000000000000000e+01
3.877765655517578125e+00 -6.447416543960571289e-01 -6.226091980934143066e-01 1.100000000000000000e+01
3.746142578125000000e+01 -6.235291004180908203e+00 4.662964820861816406e+00 4.000000000000000000e+01
4.987270832061767578e+00 -8.310040831565856934e-01 -6.208024621009826660e-01 9.000000000000000000e+00
3.559153366088867188e+01 -5.930439472198486328e+00 5.714863777160645419e+00 1.300000000000000000e+01
6.613022327423095703e+00 -1.103081107139586958e+00 -5.865581631660461426e-01 8.000000000000000000e+00
3.686986541748046875e+01 -6.156669616699218750e+00 7.266006469726563388e+00 6.200000000000000000e+01
1.035589790344237926e+01 -1.731124877929687944e+00 -5.502602458000183105e-01 2.000000000000000000e+00
3.409076690673828125e+01 -5.704838275909423828e+00 7.979913711547851562e+00 1.000000000000000000e+01
2.088968086242676137e+01 -3.499481916427611861e+00 -3.697117865085601807e-01 3.000000000000000000e+00
3.480033874511718750e+01 -5.829823493957520419e+00 9.454659461975097656e+00 2.100000000000000000e+01
2.394401788711547852e+00 -4.045529067516326904e-01 -6.506710648536682129e-01 1.500000000000000000e+01
5.969099426269531250e+01 -1.009597587585449041e+01 1.056708335876465066e+00 6.200000000000000000e+01
2.745671033859252930e+00 -4.648884236812592108e-01 -6.429101228713989258e-01 1.300000000000000000e+01
3.220916032791138139e+00 -5.459337234497070312e-01 -6.350123286247253418e-01 1.100000000000000000e+01
3.879386425018310991e+00 -6.589352488517761230e-01 -6.232349276542663574e-01 1.200000000000000000e+01
3.739638137817382812e+01 -6.358697414398193359e+00 4.657602787017822266e+00 4.000000000000000000e+01
4.972598075866699219e+00 -8.464092612266540527e-01 -6.193400025367736816e-01 9.000000000000000000e+00
6.626808166503906250e+00 -1.129170179367064986e+00 -5.881269574165344238e-01 6.000000000000000000e+00
1.038916683197020951e+01 -1.773986697196960005e+00 -5.523536801338195801e-01 2.000000000000000000e+00
3.407064819335938211e+01 -5.823802471160888672e+00 7.979913711547851562e+00 1.000000000000000000e+01
2.087733840942383168e+01 -3.572379350662231001e+00 -3.697117865085601807e-01 3.000000000000000000e+00
3.491202545166016336e+01 -5.980165004730224609e+00 9.490894317626953125e+00 7.000000000000000000e+00
2.383456468582152876e+00 -4.112660288810729980e-01 -6.480829119682312012e-01 1.600000000000000000e+01
5.975391769409179688e+01 -1.032129383087158025e+01 1.058453559875488059e+00 6.100000000000000000e+01
2.736350536346435991e+00 -4.731416702270507812e-01 -6.411104798316955566e-01 1.300000000000000000e+01
3.215121746063231978e+00 -5.565037727355957031e-01 -6.342490911483764648e-01 1.100000000000000000e+01
3.877062559127808061e+00 -6.724727749824523926e-01 -6.232349276542663574e-01 1.100000000000000000e+01
3.856701278686522727e+01 -6.696345329284667969e+00 4.806282997131347656e+00 2.000000000000000000e+01
4.963746070861816406e+00 -8.627418875694274902e-01 -6.186087727546691895e-01 1.000000000000000000e+01
3.895121765136718750e+01 -6.770058155059813565e+00 6.261758804321289062e+00 1.400000000000000000e+01
6.622826099395751953e+00 -1.152295231819153054e+00 -5.881269574165344238e-01 5.000000000000000000e+00
1.044193840026854936e+01 -1.820532083511352983e+00 -5.554938316345214844e-01 2.000000000000000000e+00
3.414609527587891336e+01 -5.959447860717773438e+00 8.002408981323242188e+00 1.000000000000000000e+01
2.091201782226562855e+01 -3.653492689132689986e+00 -3.705494999885559082e-01 3.000000000000000000e+00
3.478733444213867188e+01 -6.077618598937988281e+00 9.462424278259277344e+00 2.100000000000000000e+01
2.380103826522827148e+00 -4.192482233047484796e-01 -6.475652456283569336e-01 1.600000000000000000e+01
2.738520383834838867e+00 -4.833678901195526123e-01 -6.420103311538696289e-01 1.200000000000000000e+01
3.217026233673096147e+00 -5.684064626693725586e-01 -6.350123286247253418e-01 1.200000000000000000e+01
3.892197847366333008e+00 -6.891015768051147461e-01 -6.260507106781005859e-01 1.000000000000000000e+01
3.849258422851563211e+01 -6.821921825408936435e+00 4.799945831298828125e+00 2.000000000000000000e+01
4.970477104187011719e+00 -8.817971348762512207e-01 -6.198275089263916016e-01 1.000000000000000000e+01
3.591147994995117188e+01 -6.377410411834716797e+00 5.776812076568604404e+00 1.300000000000000000e+01
6.620725154876708984e+00 -1.175754547119141069e+00 -5.883012413978576660e-01 6.000000000000000000e+00
1.041978931427001953e+01 -1.854170918464661089e+00 -5.546564459800720215e-01 2.000000000000000000e+00
3.438600921630858664e+01 -6.125081062316895419e+00 8.063595771789550781e+00 1.000000000000000000e+01
2.087945175170898082e+01 -3.722956657409667969e+00 -3.702004551887512207e-01 7.000000000000000000e+00
3.483139038085938211e+01 -6.216960430145263672e+00 9.480541229248046875e+00 7.000000000000000000e+00
2.374823093414307085e+00 -4.268702268600463867e-01 -6.465299725532531738e-01 1.700000000000000000e+01
5.977880859375000000e+01 -1.075590515136718928e+01 1.060198783874511941e+00 6.100000000000000000e+01
2.750241756439208984e+00 -4.953421354293823242e-01 -6.451596021652221680e-01 1.300000000000000000e+01
3.207293987274169922e+00 -5.782391428947448730e-01 -6.334858536720275879e-01 1.100000000000000000e+01
3.883936882019042969e+00 -7.016301751136779785e-01 -6.251121163368225098e-01 1.100000000000000000e+01
3.832398223876953125e+01 -6.930104732513427734e+00 4.781909465789794922e+00 2.000000000000000000e+01
4.975182056427001953e+00 -9.005562663078308105e-01 -6.208024621009826660e-01 1.000000000000000000e+01
6.618541240692138672e+00 -1.199213266372681108e+00 -5.884755849838256836e-01 6.000000000000000000e+00
1.043683528900145951e+01 -1.894812703132628950e+00 -5.559125542640686035e-01 2.000000000000000000e+00
3.420719528198242188e+01 -6.216501235961914062e+00 8.026703834533691406e+00 1.000000000000000000e+01
2.070500183105469105e+01 -3.766469478607178178e+00 -3.673382401466370184e-01 1.000000000000000000e+01
3.528574752807617188e+01 -6.418869018554688388e+00 9.609951019287109375e+00 1.400000000000000000e+01
2.380919218063354048e+00 -4.365509152412415106e-01 -6.486005187034606934e-01 1.900000000000000000e+01
5.974089813232421875e+01 -1.096450710296631037e+01 1.060198783874511941e+00 6.100000000000000000e+01
2.750412464141846147e+00 -5.052914023399353027e-01 -6.456094980239868164e-01 1.300000000000000000e+01
3.224564790725708008e+00 -5.929819941520690918e-01 -6.373020410537719727e-01 1.100000000000000000e+01
3.875636100769042969e+00 -7.141095399856567383e-01 -6.241735219955444336e-01 1.200000000000000000e+01
4.991529464721679688e+00 -9.215213060379028320e-01 -6.232398152351379395e-01 9.000000000000000000e+00
6.628029346466063565e+00 -1.224843382835387962e+00 -5.896957516670227051e-01 6.000000000000000000e+00
1.046157932281493963e+01 -1.937050580978393999e+00 -5.575872659683227539e-01 2.000000000000000000e+00
3.336136245727539062e+01 -6.183162689208984375e+00 7.833245754241943359e+00 9.000000000000000000e+00
1.982269096374512074e+01 -3.677497148513793945e+00 -3.519103229045867920e-01 3.000000000000000000e+00
3.521943664550781250e+01 -6.533895492553710938e+00 9.598045349121093750e+00 1.400000000000000000e+01
2.383178710937500000e+00 -4.455693066120148260e-01 -6.496357917785644531e-01 1.900000000000000000e+01
2.727562189102172852e+00 -5.109421610832214355e-01 -6.406605839729309082e-01 1.300000000000000000e+01
3.218616008758544922e+00 -6.035105586051940918e-01 -6.365388035774230957e-01 1.200000000000000000e+01
3.878943920135498047e+00 -7.287278771400451660e-01 -6.251121163368225098e-01 1.200000000000000000e+01
4.992184162139892578e+00 -9.396737813949584961e-01 -6.237273216247558594e-01 1.000000000000000000e+01
6.653082847595214844e+00 -1.253505468368530051e+00 -5.923104286193847656e-01 5.000000000000000000e+00
3.673284530639647727e+01 -6.927463531494140625e+00 7.266006469726563388e+00 6.200000000000000000e+01
1.045475387573242010e+01 -1.973556518554687944e+00 -5.575872659683227539e-01 2.000000000000000000e+00
3.323425674438477273e+01 -6.279678344726563388e+00 7.808500766754150391e+00 1.900000000000000000e+01
1.978026008605957031e+01 -3.741094589233397993e+00 -3.513867557048798163e-01 1.000000000000000000e+01
3.540711593627929688e+01 -6.696644306182861328e+00 9.655503273010253906e+00 7.000000000000000000e+00
2.377813577651977983e+00 -4.531621038913726807e-01 -6.486005187034606934e-01 2.000000000000000000e+01
2.737247228622436968e+00 -5.226529836654663086e-01 -6.433600187301635742e-01 1.400000000000000000e+01
3.208776473999022993e+00 -6.132677197456359863e-01 -6.350123286247253418e-01 1.100000000000000000e+01
3.891897678375244141e+00 -7.452355027198791504e-01 -6.276150941848754883e-01 1.100000000000000000e+01
4.977176189422607422e+00 -9.548500180244445801e-01 -6.222648620605468750e-01 1.000000000000000000e+01
6.656493186950683594e+00 -1.278224349021912065e+00 -5.930076837539672852e-01 5.000000000000000000e+00
1.047133731842041016e+01 -2.014566421508789062e+00 -5.588433146476745605e-01 2.000000000000000000e+00
3.321596145629882812e+01 -6.396386146545410156e+00 7.809401035308837891e+00 1.900000000000000000e+01
1.981616973876953125e+01 -3.819579839706420898e+00 -3.522593677043914795e-01 3.000000000000000000e+00
3.562133789062500000e+01 -6.872484683990479404e+00 9.720726013183593750e+00 7.000000000000000000e+00
2.378113746643065962e+00 -4.618277549743651789e-01 -6.491181850433349609e-01 1.900000000000000000e+01
2.739231824874877930e+00 -5.329489111900329590e-01 -6.442598104476928711e-01 1.400000000000000000e+01
3.196980953216553178e+00 -6.225883364677429199e-01 -6.331042647361755371e-01 1.000000000000000000e+01
3.889272689819335938e+00 -7.588161826133728027e-01 -6.276150941848754883e-01 1.100000000000000000e+01
4.967968463897705078e+00 -9.710752964019775391e-01 -6.215336322784423828e-01 1.200000000000000000e+01
6.657856464385986328e+00 -1.302599668502808061e+00 -5.935305953025817871e-01 6.000000000000000000e+00
1.046424102783202947e+01 -2.051105976104735884e+00 -5.588433146476745605e-01 2.000000000000000000e+00
3.332155609130858664e+01 -6.537429332733154297e+00 7.839544296264648438e+00 9.000000000000000000e+00
2.069356346130371094e+01 -4.063666820526123047e+00 -3.681061565876007080e-01 6.000000000000000000e+00
2.372696876525878906e+00 -4.693762958049774170e-01 -6.480829119682312012e-01 1.900000000000000000e+01
2.733531713485718218e+00 -5.417496562004089355e-01 -6.433600187301635742e-01 1.400000000000000000e+01
3.208268404006958008e+00 -6.364181041717529297e-01 -6.357755661010742188e-01 1.200000000000000000e+01
3.894350051879882812e+00 -7.739278078079223633e-01 -6.288665533065795898e-01 1.100000000000000000e+01
4.985963821411132812e+00 -9.926745891571044922e-01 -6.242147684097290039e-01 1.000000000000000000e+01
6.655223369598388672e+00 -1.326221346855164018e+00 -5.937049388885498047e-01 6.000000000000000000e+00
1.047268676757813033e+01 -2.090748548507689986e+00 -5.596807003021240234e-01 2.000000000000000000e+00
3.352784729003906250e+01 -6.699525356292724609e+00 7.893532276153563565e+00 9.000000000000000000e+00
2.002040290832519887e+01 -4.004105091094970703e+00 -3.563781380653380793e-01 3.000000000000000000e+00
2.371127367019652876e+00 -4.772418737411499023e-01 -6.480829119682312012e-01 1.900000000000000000e+01
2.743181943893433061e+00 -5.531224608421325684e-01 -6.460594534873962402e-01 1.400000000000000000e+01
3.209989070892333984e+00 -6.478303670883178711e-01 -6.365388035774230957e-01 1.300000000000000000e+01
3.876272678375244141e+00 -7.837060093879699707e-01 -6.263635754585266113e-01 1.100000000000000000e+01
3.763090133666992188e+01 -7.615064144134520596e+00 4.714149951934813565e+00 2.000000000000000000e+01
5.005991935729979581e+00 -1.013931989669800027e+00 -6.271396279335021973e-01 9.000000000000000000e+00
6.664457321166992188e+00 -1.351054549217223899e+00 -5.949251055717468262e-01 5.000000000000000000e+00
1.048526859283447088e+01 -2.129440784454346147e+00 -5.607274174690246582e-01 2.000000000000000000e+00
3.370405578613281250e+01 -6.851041793823242188e+00 7.940322399139404297e+00 9.000000000000000000e+00
1.967781066894530895e+01 -4.003495693206787109e+00 -3.505141437053679865e-01 6.000000000000000000e+00
3.535685348510742188e+01 -7.193432807922363281e+00 9.667926788330078125e+00 7.000000000000000000e+00
2.377017021179199219e+00 -4.870668947696685791e-01 -6.501534581184387207e-01 2.100000000000000000e+01
2.725962877273560014e+00 -5.595598220825195312e-01 -6.424602270126342773e-01 1.400000000000000000e+01
3.215400457382202148e+00 -6.606118083000183105e-01 -6.380652785301208496e-01 1.300000000000000000e+01
3.885122299194335938e+00 -7.996212840080261230e-01 -6.282408237457275391e-01 1.000000000000000000e+01
4.998533725738525391e+00 -1.030598282814026101e+00 -6.266521811485290527e-01 9.000000000000000000e+00
3.804223251342772727e+01 -7.850473880767822266e+00 6.152254581451416016e+00 1.400000000000000000e+01
6.665554523468017578e+00 -1.375517725944519043e+00 -5.954480171203613281e-01 6.000000000000000000e+00
1.053253746032715021e+01 -2.177349567413330078e+00 -5.636582374572753906e-01 2.000000000000000000e+00
1.811090469360351918e+01 -3.750588178634643999e+00 -3.228346109390258789e-01 9.000000000000000000e+00
3.563291168212891336e+01 -7.385707855224609375e+00 9.750748634338378906e+00 7.000000000000000000e+00
2.380975961685181108e+00 -4.965444505214691162e-01 -6.517063379287719727e-01 2.000000000000000000e+01
2.729715824127196822e+00 -5.702673196792602539e-01 -6.438099145889282227e-01 1.300000000000000000e+01
3.211153268814086914e+00 -6.714298129081726074e-01 -6.376836895942687988e-01 1.300000000000000000e+01
3.886174201965332031e+00 -8.139879107475280762e-01 -6.288665533065795898e-01 1.100000000000000000e+01
3.707167816162108664e+01 -7.771691322326660156e+00 4.650777816772460938e+00 1.900000000000000000e+01
4.983249187469482422e+00 -1.045594334602355957e+00 -6.251897215843200684e-01 1.000000000000000000e+01
6.684110641479492188e+00 -1.403690099716186968e+00 -5.975397825241088867e-01 8.000000000000000000e+00
1.052487277984618963e+01 -2.214101791381835938e+00 -5.636582374572753906e-01 2.000000000000000000e+00
3.353717422485352273e+01 -7.061278343200683594e+00 7.912428379058837891e+00 9.000000000000000000e+00
1.811531257629394887e+01 -3.817495107650756836e+00 -3.231487572193145752e-01 3.000000000000000000e+00
3.700329208374022727e+01 -7.797816753387451172e+00 1.013276576995849965e+01 8.000000000000000000e+00
2.383007764816284180e+00 -5.056545734405517578e-01 -6.527416110038757324e-01 1.900000000000000000e+01
2.735333204269409180e+00 -5.814130306243896484e-01 -6.456094980239868164e-01 1.300000000000000000e+01
3.204949378967285156e+00 -6.818177103996276855e-01 -6.369204521179199219e-01 1.200000000000000000e+01
3.889105319976807085e+00 -8.287833929061889648e-01 -6.298051476478576660e-01 1.000000000000000000e+01
3.737048339843750000e+01 -7.970613956451416016e+00 4.691726207733154297e+00 2.000000000000000000e+01
4.991217136383056641e+00 -1.065469145774841087e+00 -6.266521811485290527e-01 9.000000000000000000e+00
3.624789810180664062e+01 -7.744410991668701172e+00 5.870672702789306641e+00 1.300000000000000000e+01
6.663582801818847656e+00 -1.423683285713196023e+00 -5.961452722549438477e-01 6.000000000000000000e+00
1.048583126068115057e+01 -2.244139194488524947e+00 -5.619835257530212402e-01 2.000000000000000000e+00
4.177083206176757812e+01 -8.947265625000000000e+00 9.862303733825683594e+00 1.300000000000000000e+01
1.800020217895508168e+01 -3.858909130096435991e+00 -3.213337063789368231e-01 6.000000000000000000e+00
3.749719238281250000e+01 -8.038701057434082031e+00 1.027563381195068004e+01 8.000000000000000000e+00
2.364321947097777876e+00 -5.098888278007507324e-01 -6.480829119682312012e-01 2.100000000000000000e+01
2.744818925857543945e+00 -5.929493904113769531e-01 -6.483089327812194824e-01 1.500000000000000000e+01
3.200752019882202148e+00 -6.920270323753356934e-01 -6.365388035774230957e-01 1.300000000000000000e+01
3.890196800231934038e+00 -8.425118327140808105e-01 -6.304308772087097168e-01 1.000000000000000000e+01
3.744860839843750000e+01 -8.117202758789062500e+00 4.704887866973876953e+00 2.000000000000000000e+01
4.989596366882324219e+00 -1.082435727119446023e+00 -6.268959045410156250e-01 1.000000000000000000e+01
6.682189464569091797e+00 -1.450845599174499956e+00 -5.982370376586914062e-01 5.000000000000000000e+00
1.055249404907226918e+01 -2.295028448104857954e+00 -5.659610033035278320e-01 2.000000000000000000e+00
3.667207717895507812e+01 -7.982397556304931641e+00 8.664664268493652344e+00 1.100000000000000000e+01
1.914399719238280895e+01 -4.170566558837890625e+00 -3.419973552227020264e-01 3.000000000000000000e+00
3.787282943725585938e+01 -8.257612228393554688e+00 1.038640785217284979e+01 8.000000000000000000e+00
2.362527608871459961e+00 -5.181387066841125488e-01 -6.480829119682312012e-01 2.100000000000000000e+01
2.737022399902344194e+00 -6.012725830078125000e-01 -6.469592452049255371e-01 1.400000000000000000e+01
3.200234174728393999e+00 -7.036171555519104004e-01 -6.369204521179199219e-01 1.200000000000000000e+01
3.879515647888184038e+00 -8.543865680694580078e-01 -6.291794180870056152e-01 1.000000000000000000e+01
3.671440887451171875e+01 -8.092341423034667969e+00 4.616167068481445312e+00 1.900000000000000000e+01
4.995480060577392578e+00 -1.101984143257140891e+00 -6.281145811080932617e-01 9.000000000000000000e+00
6.688757419586181641e+00 -1.476739048957824929e+00 -5.992828607559204102e-01 5.000000000000000000e+00
1.054441833496093928e+01 -2.331849575042725053e+00 -5.659610033035278320e-01 2.000000000000000000e+00
3.637000274658203125e+01 -8.049716949462890625e+00 8.599879264831542969e+00 1.100000000000000000e+01
2.373811006546020952e+00 -5.297396779060363770e-01 -6.517063379287719727e-01 1.900000000000000000e+01
2.717683792114257812e+00 -6.074743270874023438e-01 -6.429101228713989258e-01 1.200000000000000000e+01
3.218708753585814986e+00 -7.200565338134765625e-01 -6.411182284355163574e-01 1.100000000000000000e+01
3.885995864868164062e+00 -8.707596063613891602e-01 -6.307437419891357422e-01 1.100000000000000000e+01
3.690919494628906250e+01 -8.277241706848144531e+00 4.644440650939941406e+00 1.900000000000000000e+01
4.985596656799316406e+00 -1.118981957435607910e+00 -6.273833513259887695e-01 1.000000000000000000e+01
6.685244083404541016e+00 -1.501681327819823997e+00 -5.994572043418884277e-01 7.000000000000000000e+00
1.057477188110351918e+01 -2.379249334335327148e+00 -5.680544972419738770e-01 2.000000000000000000e+00
3.634785842895507812e+01 -8.184678077697753906e+00 8.601678848266601562e+00 1.100000000000000000e+01
1.908245086669921875e+01 -4.300415992736816406e+00 -3.414388895034790039e-01 6.000000000000000000e+00
3.775623703002929688e+01 -8.515659332275390625e+00 1.037087917327881037e+01 8.000000000000000000e+00
2.371947526931763139e+00 -5.380225777626037598e-01 -6.517063379287719727e-01 1.900000000000000000e+01
2.728848934173583984e+00 -6.199792623519897461e-01 -6.460594534873962402e-01 1.300000000000000000e+01
3.214261293411254883e+00 -7.308522462844848633e-01 -6.407365798950195312e-01 1.200000000000000000e+01
3.886784791946411133e+00 -8.851962685585021973e-01 -6.313694715499877930e-01 1.100000000000000000e+01
4.981660366058349609e+00 -1.136378049850464089e+00 -6.273833513259887695e-01 1.000000000000000000e+01
6.685788631439208984e+00 -1.526338458061218040e+00 -5.999801158905029297e-01 5.000000000000000000e+00
3.567572021484375000e+01 -8.151172637939453125e+00 7.113359451293945312e+00 6.100000000000000000e+01
1.064428234100341975e+01 -2.433956146240233931e+00 -5.722413659095764160e-01 3.000000000000000000e+00
1.826034355163573863e+01 -4.182177066802979404e+00 -3.269882798194885254e-01 3.000000000000000000e+00
