-8.753328323364257812e+00 -8.490177392959594727e-01 -7.694109082221984863e-01 2.000000000000000000e+00
-3.479972076416016336e+01 -3.350832223892211914e+00 -6.102408170700073242e-01 2.100000000000000000e+01
-2.569414615631103960e+00 -2.437861263751983920e-01 -6.915645003318786621e-01 1.900000000000000000e+01
-2.991621255874633789e+00 -2.827914655208588202e-01 -6.937490701675415039e-01 1.400000000000000000e+01
-3.565142154693603960e+00 -3.363773822784423828e-01 -6.960712075233459473e-01 1.200000000000000000e+01
-4.478798675537108664e+01 -4.217937946319580078e+00 3.935779094696044922e+00 5.400000000000000000e+01
-4.462458133697509766e+00 -4.194691777229309082e-01 -7.098996043205261230e-01 8.000000000000000000e+00
-5.923404693603515625e+00 -5.547116994857788086e-01 -7.304848432540893555e-01 1.100000000000000000e+01
-8.752271652221679688e+00 -8.180868625640869141e-01 -7.690622806549072266e-01 2.000000000000000000e+00
-3.481319808959960938e+01 -3.229522705078125000e+00 -6.102757453918457031e-01 2.100000000000000000e+01
-2.568325996398925781e+00 -2.346399426460266113e-01 -6.910468339920043945e-01 2.100000000000000000e+01
-2.990649461746215820e+00 -2.721704244613646906e-01 -6.932991743087768555e-01 1.500000000000000000e+01
-3.579981088638306108e+00 -3.251738250255585272e-01 -6.987425684928894043e-01 1.200000000000000000e+01
-4.480243682861328125e+01 -4.061573028564453125e+00 3.935779094696044922e+00 5.400000000000000000e+01
-4.469797134399414062e+00 -4.044237434864044189e-01 -7.108381986618041992e-01 8.000000000000000000e+00
-5.921350955963134766e+00 -5.336753726005554199e-01 -7.299973964691162109e-01 9.000000000000000000e+00
-8.723323822021484375e+00 -7.846748232841491699e-01 -7.662733197212219238e-01 2.000000000000000000e+00
-3.483222579956054688e+01 -3.108693361282349077e+00 -6.104153394699096680e-01 2.100000000000000000e+01
-2.580636501312255859e+00 -2.271380573511123935e-01 -6.941526532173156738e-01 1.900000000000000000e+01
-2.995418071746826172e+00 -2.625919282436370850e-01 -6.941989660263061523e-01 1.500000000000000000e+01
-3.575172424316405806e+00 -3.127870559692382812e-01 -6.975976824760437012e-01 1.200000000000000000e+01
-4.478390121459960938e+01 -3.910207509994506836e+00 3.932990074157714844e+00 5.400000000000000000e+01
-4.467177867889404297e+00 -3.892561793327332098e-01 -7.102124691009521484e-01 8.000000000000000000e+00
-5.907266616821289062e+00 -5.126634836196899414e-01 -7.280474305152893066e-01 9.000000000000000000e+00
-8.753666877746582031e+00 -7.581497430801391602e-01 -7.687136530876159668e-01 2.000000000000000000e+00
-3.481046676635742188e+01 -2.990429878234862837e+00 -6.098569035530090332e-01 2.100000000000000000e+01
-2.571788549423218218e+00 -2.173152565956116000e-01 -6.915645003318786621e-01 1.800000000000000000e+01
-2.990490674972534180e+00 -2.516441643238068182e-01 -6.928492188453674316e-01 1.400000000000000000e+01
-3.558635234832764116e+00 -2.988269329071044922e-01 -6.941631436347961426e-01 1.200000000000000000e+01
-4.479727554321289062e+01 -3.753858804702758789e+00 3.932990074157714844e+00 5.400000000000000000e+01
-4.472446441650390625e+00 -3.739896714687346857e-01 -7.108381986618041992e-01 8.000000000000000000e+00
-5.893194198608398438e+00 -4.907223582267761230e-01 -7.260975241661071777e-01 9.000000000000000000e+00
-8.744346618652343750e+00 -7.265992164611816406e-01 -7.676677703857421875e-01 2.000000000000000000e+00
-3.480474853515625000e+01 -2.867586851119995117e+00 -6.095776557922363281e-01 2.100000000000000000e+01
-2.568644046783446822e+00 -2.084731608629226962e-01 -6.905292272567749023e-01 2.000000000000000000e+01
-3.001020908355712891e+00 -2.425107657909393033e-01 -6.950987577438354492e-01 1.500000000000000000e+01
-3.559606552124022993e+00 -2.870244383811951239e-01 -6.941631436347961426e-01 1.200000000000000000e+01
-4.476181411743164062e+01 -3.601450204849243164e+00 3.928806543350220171e+00 5.400000000000000000e+01
-4.465785980224609375e+00 -3.585241436958312988e-01 -7.095867395401000977e-01 8.000000000000000000e+00
-5.912598133087158203e+00 -4.726006090641021729e-01 -7.282912135124206543e-01 1.100000000000000000e+01
-8.687126159667968750e+00 -6.928458809852600098e-01 -7.624384164810180664e-01 2.000000000000000000e+00
-1.756652450561523082e+01 -1.394855856895446999e+00 -9.235202670097351074e-01 5.000000000000000000e+00
-3.482204055786132812e+01 -2.752784729003905806e+00 -6.097172498703002930e-01 1.400000000000000000e+01
-2.567430019378662109e+00 -1.993560940027236938e-01 -6.900115609169006348e-01 1.900000000000000000e+01
-2.996020317077637163e+00 -2.315832227468490878e-01 -6.937490701675415039e-01 1.400000000000000000e+01
-3.572331428527832031e+00 -2.755030989646912176e-01 -6.964528560638427734e-01 1.200000000000000000e+01
-4.477014160156250000e+01 -3.444874525070189986e+00 3.928457975387572798e+00 5.400000000000000000e+01
-4.451253414154052734e+00 -3.417237997055054266e-01 -7.070837616920471191e-01 8.000000000000000000e+00
-5.898377418518066406e+00 -4.507488608360291082e-01 -7.263413071632385254e-01 1.100000000000000000e+01
-8.689491271972656250e+00 -6.625179052352905273e-01 -7.624384164810180664e-01 2.000000000000000000e+00
-3.480950164794921875e+01 -2.629559516906737837e+00 -6.093333363533020020e-01 2.000000000000000000e+01
-2.570070028305054155e+00 -1.900871396064758023e-01 -6.905292272567749023e-01 1.800000000000000000e+01
-4.503269958496093750e+01 -3.322799205780028853e+00 7.881855964660644531e-01 4.900000000000000000e+01
-2.989074945449829102e+00 -2.200284600257874090e-01 -6.919494271278381348e-01 1.400000000000000000e+01
-4.492861557006835938e+01 -3.307235240936278853e+00 2.360979557037353960e+00 3.500000000000000000e+01
-3.575275182723999023e+00 -2.625517845153809149e-01 -6.968344449996948242e-01 1.200000000000000000e+01
-4.483810424804688211e+01 -3.284836769104003906e+00 3.933338642120360884e+00 5.400000000000000000e+01
-4.460356712341308594e+00 -3.259828090667725164e-01 -7.083352804183959961e-01 8.000000000000000000e+00
-5.888110637664794922e+00 -4.282631874084473211e-01 -7.248788475990295410e-01 1.100000000000000000e+01
-8.660066604614257812e+00 -6.283579468727111816e-01 -7.596494555473327637e-01 2.000000000000000000e+00
-3.476904296875000000e+01 -2.498375654220581055e+00 -6.084607243537902832e-01 1.300000000000000000e+01
-2.576499223709106001e+00 -1.815220713615416925e-01 -6.920821070671081543e-01 1.900000000000000000e+01
-2.982048988342285156e+00 -2.090481966733931940e-01 -6.901498436927795410e-01 1.400000000000000000e+01
-3.566377401351929155e+00 -2.493854016065598089e-01 -6.949263811111450195e-01 1.200000000000000000e+01
-4.477774429321289062e+01 -3.123311758041381836e+00 3.927063465118408203e+00 5.400000000000000000e+01
-4.469349861145020419e+00 -3.109596967697144110e-01 -7.095867395401000977e-01 8.000000000000000000e+00
-5.889569759368895596e+00 -4.077072143554688055e-01 -7.248788475990295410e-01 1.100000000000000000e+01
-8.662207603454589844e+00 -5.981248617172241211e-01 -7.596494555473327637e-01 2.000000000000000000e+00
-1.738112258911133168e+01 -1.194069504737854004e+00 -9.130530953407287598e-01 5.000000000000000000e+00
-3.475760269165039062e+01 -2.375630140304564986e+00 -6.081116795539855957e-01 1.300000000000000000e+01
-2.567449331283568892e+00 -1.723302155733109076e-01 -6.894939541816711426e-01 1.900000000000000000e+01
-2.990503549575806108e+00 -1.996775269508362094e-01 -6.919494271278381348e-01 1.400000000000000000e+01
-3.557390213012694868e+00 -2.369052320718764981e-01 -6.930182576179504395e-01 1.200000000000000000e+01
-4.478785705566406250e+01 -2.974806070327758789e+00 3.927063465118408203e+00 5.400000000000000000e+01
-4.466413974761962891e+00 -2.958759367465972900e-01 -7.089610099792480469e-01 8.000000000000000000e+00
-5.879004478454589844e+00 -3.873913288116455078e-01 -7.234164476394653320e-01 1.100000000000000000e+01
-8.660166740417480469e+00 -5.691353082656860352e-01 -7.593008279800415039e-01 3.000000000000000000e+00
-1.738498687744140980e+01 -1.136425018310547097e+00 -9.130530953407287598e-01 5.000000000000000000e+00
-3.480719375610352273e+01 -2.263081312179564986e+00 -6.088446378707885742e-01 2.000000000000000000e+01
-2.556467533111571822e+00 -1.626311987638474066e-01 -6.863881349563598633e-01 1.900000000000000000e+01
-2.995071887969971147e+00 -1.894835978746413907e-01 -6.928492188453674316e-01 1.400000000000000000e+01
-3.556236267089844194e+00 -2.243625670671463013e-01 -6.926366686820983887e-01 1.200000000000000000e+01
-4.478603744506835938e+01 -2.817698478698730025e+00 3.926017522811890093e+00 5.400000000000000000e+01
-4.459533691406250000e+00 -2.797886729240416925e-01 -7.077094912528991699e-01 8.000000000000000000e+00
-5.878339767456054688e+00 -3.667438030242919922e-01 -7.231726646423339844e-01 1.100000000000000000e+01
-8.646192550659179688e+00 -5.379124879837036133e-01 -7.579063177108764648e-01 2.000000000000000000e+00
-3.475699996948242188e+01 -2.138007402420043945e+00 -6.078324317932128906e-01 1.300000000000000000e+01
-2.562804698944091797e+00 -1.540542244911194125e-01 -6.879410147666931152e-01 2.200000000000000000e+01
-2.987934112548828125e+00 -1.785626858472824097e-01 -6.910496354103088379e-01 1.300000000000000000e+01
-3.553078174591064009e+00 -2.117140591144562045e-01 -6.918734312057495117e-01 1.200000000000000000e+01
-4.477571105957031250e+01 -2.660167455673218218e+00 3.924274444580078125e+00 5.400000000000000000e+01
-4.452595710754395419e+00 -2.637530565261840820e-01 -7.064580321311950684e-01 8.000000000000000000e+00
-5.883547306060791016e+00 -3.464557230472565252e-01 -7.236601710319519043e-01 1.100000000000000000e+01
-8.648017883300781250e+00 -5.077283978462219238e-01 -7.579063177108764648e-01 2.000000000000000000e+00
-3.472432327270507812e+01 -2.014353513717650923e+00 -6.071343421936035156e-01 1.300000000000000000e+01
-2.574899435043334961e+00 -1.457625478506087979e-01 -6.910468339920043945e-01 2.100000000000000000e+01
-2.986593484878540039e+00 -1.680222898721694946e-01 -6.905997395515441895e-01 1.800000000000000000e+01
-4.497949218750000000e+01 -2.522619009017943892e+00 2.360979557037353960e+00 3.500000000000000000e+01
-3.557715892791748047e+00 -1.995300799608230868e-01 -6.926366686820983887e-01 1.200000000000000000e+01
-4.476483154296875000e+01 -2.502742528915404829e+00 3.922531366348267046e+00 5.400000000000000000e+01
-4.445600032806395596e+00 -2.477692961692810059e-01 -7.052065730094909668e-01 1.000000000000000000e+01
-5.876792430877686435e+00 -3.254770934581757147e-01 -7.226852178573608398e-01 1.100000000000000000e+01
-8.617907524108886719e+00 -4.757808148860930841e-01 -7.551173567771911621e-01 2.000000000000000000e+00
-1.719650840759276988e+01 -9.433706998825073242e-01 -9.025859236717224121e-01 5.000000000000000000e+00
-3.474711990356445312e+01 -1.894001483917236106e+00 -6.074135303497314453e-01 2.000000000000000000e+01
-2.579274654388428178e+00 -1.365283131599425992e-01 -6.920821070671081543e-01 2.100000000000000000e+01
-2.979404926300048828e+00 -1.566654443740845004e-01 -6.888001561164855957e-01 2.100000000000000000e+01
-4.498843765258789062e+01 -2.357743978500366211e+00 2.360979557037353960e+00 3.500000000000000000e+01
-3.548620462417602983e+00 -1.859753131866455078e-01 -6.907285451889038086e-01 1.200000000000000000e+01
-4.480155944824218750e+01 -2.340109348297119141e+00 3.924971818923950195e+00 5.400000000000000000e+01
-4.450423717498779297e+00 -2.316790819168091098e-01 -7.058323025703430176e-01 8.000000000000000000e+00
-5.862086296081542969e+00 -3.031153380870819092e-01 -7.207353115081787109e-01 1.100000000000000000e+01
-8.627552032470703125e+00 -4.446015655994414728e-01 -7.558146119117736816e-01 2.000000000000000000e+00
-3.472986221313477273e+01 -1.765416026115417036e+00 -6.069946885108947754e-01 1.300000000000000000e+01
-2.570088148117064986e+00 -1.270472258329390924e-01 -6.894939541816711426e-01 2.000000000000000000e+01
-2.987719297409058061e+00 -1.466465592384338101e-01 -6.905997395515441895e-01 2.100000000000000000e+01
-4.496447372436522727e+01 -2.199129581451416016e+00 2.359304904937744141e+00 3.400000000000000000e+01
-3.551208972930908203e+00 -1.736830919981003085e-01 -6.911101937294006348e-01 1.400000000000000000e+01
-4.478159332275391336e+01 -2.182350873947143999e+00 3.922531366348267046e+00 5.400000000000000000e+01
-4.459097385406494141e+00 -2.165260314941405972e-01 -7.070837616920471191e-01 1.000000000000000000e+01
-5.859143257141113281e+00 -2.824598252773284912e-01 -7.202478051185607910e-01 1.100000000000000000e+01
-8.617111206054687500e+00 -4.139095246791840155e-01 -7.547687292098999023e-01 2.000000000000000000e+00
-1.720281791687012074e+01 -8.202919960021972656e-01 -9.025859236717224121e-01 5.000000000000000000e+00
-3.475978088378906250e+01 -1.645309925079345925e+00 -6.074135303497314453e-01 1.300000000000000000e+01
-2.562776088714600053e+00 -1.181678846478461942e-01 -6.874234080314636230e-01 2.000000000000000000e+01
-2.990135908126831055e+00 -1.368272006511687955e-01 -6.910496354103088379e-01 1.900000000000000000e+01
-4.489171218872070312e+01 -2.046371936798096147e+00 2.355118036270142046e+00 3.400000000000000000e+01
-3.547842979431151900e+00 -1.617271006107330045e-01 -6.903469562530517578e-01 1.900000000000000000e+01
-4.478858566284179688e+01 -2.033837795257567915e+00 3.922531366348267046e+00 5.400000000000000000e+01
-4.451897621154785156e+00 -2.013808786869049072e-01 -7.058323025703430176e-01 1.000000000000000000e+01
-5.864013671875000000e+00 -2.632066607475280762e-01 -7.207353115081787109e-01 1.100000000000000000e+01
-8.598532676696777344e+00 -3.844419717788695734e-01 -7.530255913734436035e-01 2.000000000000000000e+00
-1.720544433593750000e+01 -7.632408738136291504e-01 -9.025859236717224121e-01 5.000000000000000000e+00
-3.474107360839843750e+01 -1.528978228569030984e+00 -6.069946885108947754e-01 1.300000000000000000e+01
-2.561242818832397017e+00 -1.091391593217850009e-01 -6.869057416915893555e-01 1.900000000000000000e+01
-4.475489425659179688e+01 -1.899261116981505904e+00 7.819027304649353027e-01 4.800000000000000000e+01
-2.992542266845703125e+00 -1.264711320400238037e-01 -6.914995312690734863e-01 2.500000000000000000e+01
-3.558193445205688032e+00 -1.497546136379241943e-01 -6.922550201416015625e-01 1.700000000000000000e+01
-4.479541015625000000e+01 -1.877483963966370073e+00 3.922531366348267046e+00 5.400000000000000000e+01
-4.434810161590576172e+00 -1.850982457399368009e-01 -7.030164599418640137e-01 1.000000000000000000e+01
-5.852996349334716797e+00 -2.422433048486709872e-01 -7.192728519439697266e-01 1.100000000000000000e+01
-8.583896636962890625e+00 -3.537687957286835272e-01 -7.516311407089233398e-01 2.000000000000000000e+00
-3.471422958374022727e+01 -1.406404733657836914e+00 -6.064361929893493652e-01 6.000000000000000000e+00
-2.565469026565552202e+00 -1.003491058945655962e-01 -6.879410147666931152e-01 2.100000000000000000e+01
-4.471329498291016336e+01 -1.741158366203308105e+00 7.810649871826171875e-01 4.800000000000000000e+01
-2.979334592819213867e+00 -1.154960244894027988e-01 -6.883502006530761719e-01 2.300000000000000000e+01
-3.568503379821776900e+00 -1.377118229866028110e-01 -6.941631436347961426e-01 1.900000000000000000e+01
-4.480169296264647727e+01 -1.721107363700866921e+00 3.922531366348267046e+00 5.400000000000000000e+01
-4.429507732391357422e+00 -1.693902909755707065e-01 -7.020778656005859375e-01 1.500000000000000000e+01
-5.849839210510253906e+00 -2.216607183218002042e-01 -7.187854051589965820e-01 1.100000000000000000e+01
-8.575123786926269531e+00 -3.234277963638306219e-01 -7.507595419883728027e-01 3.000000000000000000e+00
-3.470294189453125000e+01 -1.284629106521606001e+00 -6.061570048332214355e-01 1.300000000000000000e+01
-2.571595430374145952e+00 -9.159964323043823242e-02 -6.894939541816711426e-01 2.000000000000000000e+01
-4.470711135864257812e+01 -1.584644317626952903e+00 7.808555960655212402e-01 4.800000000000000000e+01
-2.977771997451781782e+00 -1.050268113613128940e-01 -6.879003047943115234e-01 2.200000000000000000e+01
-3.551304101943970171e+00 -1.246348470449448048e-01 -6.907285451889038086e-01 1.800000000000000000e+01
-4.483928680419921875e+01 -1.565822362899780051e+00 3.925320386886597124e+00 5.400000000000000000e+01
-4.439942836761474609e+00 -1.542703658342360895e-01 -7.036422491073608398e-01 1.700000000000000000e+01
-5.842641353607177734e+00 -2.009666711091994962e-01 -7.178104519844055176e-01 1.100000000000000000e+01
-8.574209213256835938e+00 -2.934249043464661200e-01 -7.505852580070495605e-01 2.000000000000000000e+00
-3.466324615478516336e+01 -1.162011504173279031e+00 -6.053890585899353027e-01 1.300000000000000000e+01
-2.564161777496337891e+00 -8.282195776700973511e-02 -6.874234080314636230e-01 1.900000000000000000e+01
-4.472011566162108664e+01 -1.436638236045836958e+00 7.809951901435852051e-01 4.800000000000000000e+01
-2.976156234741210938e+00 -9.508935362100601196e-02 -6.874504089355468750e-01 2.300000000000000000e+01
-3.547773361206055132e+00 -1.127329096198081970e-01 -6.899653077125549316e-01 2.000000000000000000e+01
-4.484423065185546875e+01 -1.417121291160583052e+00 3.925320386886597124e+00 5.400000000000000000e+01
-4.436480998992919922e+00 -1.394220441579819003e-01 -7.030164599418640137e-01 1.700000000000000000e+01
-5.835339546203613281e+00 -1.813440173864364902e-01 -7.168354988098144531e-01 1.500000000000000000e+01
-8.555220603942871094e+00 -2.643747925758361816e-01 -7.488421201705932617e-01 2.000000000000000000e+00
-1.701469993591308949e+01 -5.198460817337036133e-01 -8.921186923980712891e-01 5.000000000000000000e+00
-3.465091705322266336e+01 -1.046574711799622026e+00 -6.051098108291625977e-01 1.300000000000000000e+01
-2.547055721282958984e+00 -7.337022572755813599e-02 -6.827646493911743164e-01 2.200000000000000000e+01
-4.472885513305664062e+01 -1.280641674995421919e+00 7.810649871826171875e-01 4.800000000000000000e+01
-2.990105628967285156e+00 -8.508807420730590820e-02 -6.905997395515441895e-01 2.400000000000000000e+01
-3.550107717514038086e+00 -1.004036888480186046e-01 -6.903469562530517578e-01 2.000000000000000000e+01
-4.481703948974608664e+01 -1.259681463241576926e+00 3.922531366348267046e+00 5.400000000000000000e+01
-4.427067756652832031e+00 -1.236592009663581987e-01 -7.014521360397338867e-01 1.500000000000000000e+01
-5.835937023162841797e+00 -1.609737724065780917e-01 -7.168354988098144531e-01 1.500000000000000000e+01
-8.528208732604980469e+00 -2.337456643581390103e-01 -7.464017868041992188e-01 2.000000000000000000e+00
-3.467834854125977273e+01 -9.262547492980957031e-01 -6.055287122726440430e-01 1.300000000000000000e+01
-2.551158905029296875e+00 -6.457666307687759399e-02 -6.837999224662780762e-01 2.200000000000000000e+01
-4.472105789184570312e+01 -1.124199509620666948e+00 7.808555960655212402e-01 4.800000000000000000e+01
-2.980643749237060991e+00 -7.440698146820068359e-02 -6.883502006530761719e-01 2.300000000000000000e+01
-3.554361820220946822e+00 -8.810818940401077271e-02 -6.911101937294006348e-01 1.900000000000000000e+01
-4.482116317749022727e+01 -1.103233098983765093e+00 3.922531366348267046e+00 5.400000000000000000e+01
-4.421547889709472656e+00 -1.080603078007698059e-01 -7.005135416984558105e-01 1.600000000000000000e+01
-5.810664653778076172e+00 -1.399800777435303012e-01 -7.136668562889099121e-01 1.500000000000000000e+01
-8.528972625732421875e+00 -2.039752304553985873e-01 -7.464017868041992188e-01 4.000000000000000000e+00
-3.462139511108397727e+01 -8.038066625595092773e-01 -6.044815778732299805e-01 1.300000000000000000e+01
-2.562957048416138139e+00 -5.592392385005950928e-02 -6.869057416915893555e-01 2.100000000000000000e+01
-4.473670578002929688e+01 -9.683466553688049316e-01 7.810649871826171875e-01 4.800000000000000000e+01
-2.975040435791016069e+00 -6.387664377689361572e-02 -6.870005130767822266e-01 2.200000000000000000e+01
-3.560536146163939986e+00 -7.582601904869079590e-02 -6.922550201416015625e-01 2.100000000000000000e+01
-4.482474136352539062e+01 -9.467713236808776855e-01 3.922531366348267046e+00 5.400000000000000000e+01
-4.413998603820800781e+00 -9.246008843183517456e-02 -6.992620825767517090e-01 1.600000000000000000e+01
-5.809133052825927734e+00 -1.196553409099578996e-01 -7.134231328964233398e-01 1.500000000000000000e+01
-8.533617019653320312e+00 -1.742836833000183105e-01 -7.467504143714904785e-01 3.000000000000000000e+00
-1.671968269348144887e+01 -3.356305956840515137e-01 -8.764179348945617676e-01 5.000000000000000000e+00
-3.465597915649414062e+01 -6.835814714431762695e-01 -6.050400137901306152e-01 2.000000000000000000e+01
-2.559281826019287109e+00 -4.645971208810806274e-02 -6.858704686164855957e-01 2.200000000000000000e+01
-4.469196701049804688e+01 -8.035092353820800781e-01 7.802273035049438477e-01 4.800000000000000000e+01
-2.965512514114379883e+00 -5.279869586229324341e-02 -6.847510337829589844e-01 2.000000000000000000e+01
-3.552938222885131836e+00 -6.263706088066101074e-02 -6.907285451889038086e-01 2.000000000000000000e+01
-4.486775207519531250e+01 -7.831695079803466797e-01 3.926017522811890093e+00 5.400000000000000000e+01
-4.428133487701416016e+00 -7.652027159929275513e-02 -7.014521360397338867e-01 1.300000000000000000e+01
-5.803577899932861328e+00 -9.826219081878662109e-02 -7.126919031143188477e-01 1.300000000000000000e+01
-8.530214309692382812e+00 -1.429384797811507901e-01 -7.464017868041992188e-01 4.000000000000000000e+00
-1.666089057922362926e+01 -2.733646631240844727e-01 -8.732777833938598633e-01 5.000000000000000000e+00
-3.467424774169921875e+01 -5.568132400512695312e-01 -6.053192615509033203e-01 6.000000000000000000e+00
-2.553633451461791992e+00 -3.744090348482131958e-02 -6.843175292015075684e-01 1.900000000000000000e+01
-4.473448944091796875e+01 -6.480795741081237793e-01 7.809253931045532227e-01 4.800000000000000000e+01
-2.967627286911011186e+00 -4.247469082474709251e-02 -6.852009296417236328e-01 1.300000000000000000e+01
-3.537430763244628906e+00 -5.001258105039597252e-02 -6.876755952835083008e-01 1.200000000000000000e+01
-4.483036804199218750e+01 -6.259906888008117676e-01 3.922531366348267046e+00 5.400000000000000000e+01
-4.426398277282714844e+00 -6.103549525141716003e-02 -7.011392712593078613e-01 1.000000000000000000e+01
-5.801900863647460938e+00 -7.797664403915405273e-02 -7.124481797218322754e-01 1.100000000000000000e+01
-8.498785018920898438e+00 -1.127387732267380038e-01 -7.436128258705139160e-01 2.000000000000000000e+00
-1.667771911621094105e+01 -2.154120057821274081e-01 -8.741151690483093262e-01 5.000000000000000000e+00
-3.461199569702147727e+01 -4.349700510501862127e-01 -6.042023301124572754e-01 1.300000000000000000e+01
-2.549880027770996094e+00 -2.892871387302875866e-02 -6.832822561264038086e-01 2.300000000000000000e+01
-4.472039794921875000e+01 -4.995523989200592041e-01 7.806461453437805176e-01 4.800000000000000000e+01
-2.973597764968872070e+00 -3.269773349165915749e-02 -6.865506172180175781e-01 1.400000000000000000e+01
-4.504745101928710938e+01 -4.953425824642180841e-01 2.360979557037353960e+00 3.500000000000000000e+01
-3.541503429412841797e+00 -3.832425177097321251e-02 -6.884388327598571777e-01 1.200000000000000000e+01
-4.483219909667968750e+01 -4.773243963718413752e-01 3.922531366348267046e+00 5.400000000000000000e+01
-4.428551673889160156e+00 -4.637737944722176292e-02 -7.014521360397338867e-01 1.100000000000000000e+01
-5.800142288208007812e+00 -5.871632322669029236e-02 -7.122044563293457031e-01 1.100000000000000000e+01
-8.471220970153808594e+00 -8.427767455577850342e-02 -7.411724328994750977e-01 2.000000000000000000e+00
-1.662242126464844105e+01 -1.595686972141265869e-01 -8.711843490600585938e-01 5.000000000000000000e+00
-3.459724807739257812e+01 -3.200421631336212158e-01 -6.039230823516845703e-01 1.300000000000000000e+01
-2.551897287368773970e+00 -2.004296705126762043e-02 -6.837999224662780762e-01 2.700000000000000000e+01
-4.473386764526367188e+01 -3.435381948947905939e-01 7.808555960655212402e-01 4.800000000000000000e+01
-2.969796419143677202e+00 -2.228849008679389954e-02 -6.856508255004882812e-01 1.300000000000000000e+01
-4.504890823364257812e+01 -3.380945920944213867e-01 2.360979557037353960e+00 3.500000000000000000e+01
-3.537689208984375000e+00 -2.593308128416537892e-02 -6.876755952835083008e-01 1.200000000000000000e+01
-4.480968093872070312e+01 -3.206568360328673761e-01 3.920439720153809038e+00 5.400000000000000000e+01
-4.410908699035645419e+00 -3.079445101320743908e-02 -6.986362934112548828e-01 1.000000000000000000e+01
-5.802297115325927734e+00 -3.848285600543022156e-02 -7.124481797218322754e-01 1.100000000000000000e+01
-8.479432106018066406e+00 -5.475854501128196716e-02 -7.418696880340576172e-01 3.000000000000000000e+00
-3.459815597534179688e+01 -1.992732733488082886e-01 -6.039230823516845703e-01 1.300000000000000000e+01
-2.546156167984008789e+00 -1.110977306962013071e-02 -6.822469830513000488e-01 3.100000000000000000e+01
-4.473079299926757812e+01 -1.873690038919449130e-01 7.807857394218444824e-01 4.800000000000000000e+01
-2.958163738250731978e+00 -1.187489368021488016e-02 -6.829513907432556152e-01 1.300000000000000000e+01
-4.504984283447266336e+01 -1.729798316955566129e-01 2.360979557037353960e+00 3.500000000000000000e+01
-3.545611143112183061e+00 -1.361423637717961918e-02 -6.892020702362060547e-01 1.100000000000000000e+01
-4.483443832397460938e+01 -1.643275320529938022e-01 3.922531366348267046e+00 5.400000000000000000e+01
-4.399137020111083984e+00 -1.535594742745161057e-02 -6.967591047286987305e-01 1.000000000000000000e+01
-5.786515712738037109e+00 -1.817893423140048981e-02 -7.104982733726501465e-01 1.100000000000000000e+01
-8.475586891174316406e+00 -2.514764666557312012e-02 -7.415210604667663574e-01 3.000000000000000000e+00
-3.458864212036132812e+01 -7.847927510738372803e-02 -6.037485599517822266e-01 2.000000000000000000e+01
-2.551975011825561968e+00 -2.227018820121883912e-03 -6.837999224662780762e-01 3.700000000000000000e+01
-4.474717330932617188e+01 -3.123942576348781933e-02 7.810649871826171875e-01 4.800000000000000000e+01
-2.962084531784058061e+00 -1.550944056361913898e-03 -6.838511824607849121e-01 1.400000000000000000e+01
-4.505017089843750000e+01 -2.358821593225001942e-02 2.360979557037353960e+00 3.500000000000000000e+01
-3.537784099578856978e+00 -1.234919647686183019e-03 -6.876755952835083008e-01 1.100000000000000000e+01
-4.486263275146483664e+01 -7.830006070435047150e-03 3.924971818923950195e+00 5.400000000000000000e+01
-4.411015987396240234e+00 -8.102905108869809091e-16 -6.986362934112548828e-01 1.000000000000000000e+01
-5.778603553771972656e+00 2.017113147303462029e-03 -7.095233201980590820e-01 1.100000000000000000e+01
-8.455698966979980469e+00 4.427394364029169083e-03 -7.397779226303100586e-01 3.000000000000000000e+00
-3.460670089721679688e+01 4.228008538484572670e-02 -6.040626764297485352e-01 1.300000000000000000e+01
-2.538444280624390093e+00 6.645646877586841583e-03 -6.801764369010925293e-01 3.600000000000000000e+01
-4.475500869750977273e+01 1.249798834323883057e-01 7.812046408653259277e-01 4.800000000000000000e+01
-2.965969324111938032e+00 8.800234645605087280e-03 -6.847510337829589844e-01 1.400000000000000000e+01
-4.501003265380858664e+01 1.335478425025939941e-01 2.358886241912841797e+00 3.400000000000000000e+01
-3.525987386703491211e+00 1.107725314795970917e-02 -6.853858828544616699e-01 1.200000000000000000e+01
-4.483449172973632812e+01 1.486773490905761996e-01 3.922531366348267046e+00 5.400000000000000000e+01
-4.407038688659667969e+00 1.538352854549884970e-02 -6.980105638504028320e-01 1.000000000000000000e+01
-5.770620822906494141e+00 2.215770259499549866e-02 -7.085483670234680176e-01 1.100000000000000000e+01
-8.455632209777832031e+00 3.394326567649841309e-02 -7.397779226303100586e-01 2.000000000000000000e+00
-3.455835342407227273e+01 1.628535985946654996e-01 -6.032249927520751953e-01 1.300000000000000000e+01
-2.532610177993773970e+00 1.547102816402911966e-02 -6.786235570907592773e-01 3.800000000000000000e+01
-4.474629974365233664e+01 2.811529934406281073e-01 7.810649871826171875e-01 4.800000000000000000e+01
-2.963971853256226030e+00 1.914076134562492024e-02 -6.843010783195495605e-01 1.500000000000000000e+01
-4.500130462646483664e+01 2.906097769737244207e-01 2.358467578887939009e+00 3.400000000000000000e+01
-3.520037651062012163e+00 2.334611676633358002e-02 -6.842410564422607422e-01 1.100000000000000000e+01
-4.483369827270507812e+01 3.051780164241790771e-01 3.922531366348267046e+00 5.400000000000000000e+01
-4.403007507324218750e+00 3.073928877711296082e-02 -6.973848342895507812e-01 1.000000000000000000e+01
-5.774478435516357422e+00 4.232989624142646790e-02 -7.090358138084411621e-01 1.100000000000000000e+01
-8.427569389343261719e+00 6.324938684701919556e-02 -7.373375892639160156e-01 3.000000000000000000e+00
-3.453757858276367188e+01 2.833197414875031073e-01 -6.028759479522705078e-01 2.000000000000000000e+01
-2.546067476272583008e+00 2.399682998657226909e-02 -6.822469830513000488e-01 3.100000000000000000e+01
-4.471312713623046875e+01 4.292283952236176092e-01 7.805064916610717773e-01 4.800000000000000000e+01
-2.963892221450806108e+00 2.896954119205474854e-02 -6.843010783195495605e-01 1.500000000000000000e+01
-4.499210357666016336e+01 4.397597908973693848e-01 2.358048915863037109e+00 3.400000000000000000e+01
-3.531719923019409180e+00 3.513604030013083718e-02 -6.865307688713073730e-01 1.200000000000000000e+01
-4.483244323730468750e+01 4.538502693176270086e-01 3.922531366348267046e+00 5.400000000000000000e+01
-4.383128643035888672e+00 4.513660818338394165e-02 -6.942561268806457520e-01 9.000000000000000000e+00
-5.780261039733886719e+00 6.154192611575127342e-02 -7.097670435905456543e-01 9.000000000000000000e+00
-8.419344902038574219e+00 9.110963344573974609e-02 -7.366403341293334961e-01 2.000000000000000000e+00
-3.452244949340820312e+01 3.976876735687255859e-01 -6.026315689086914062e-01 2.000000000000000000e+01
-2.544036388397216797e+00 3.285916894674301147e-02 -6.817293763160705566e-01 2.700000000000000000e+01
-4.473135375976563211e+01 5.855655074119567871e-01 7.808555960655212402e-01 4.800000000000000000e+01
-2.948184490203856978e+00 3.910849243402481079e-02 -6.807019114494323730e-01 1.200000000000000000e+01
-4.498630142211914062e+01 5.967558622360229492e-01 2.357839584350585938e+00 3.400000000000000000e+01
-3.537464857101439986e+00 4.754297807812690735e-02 -6.876755952835083008e-01 1.200000000000000000e+01
-4.483058547973632812e+01 6.103419065475463867e-01 3.922531366348267046e+00 5.400000000000000000e+01
-4.382944107055664062e+00 6.043630838394165039e-02 -6.942561268806457520e-01 9.000000000000000000e+00
-5.774056434631347656e+00 8.163423836231231689e-02 -7.090358138084411621e-01 1.100000000000000000e+01
-8.426943778991699219e+00 1.206121295690535944e-01 -7.373375892639160156e-01 2.000000000000000000e+00
-3.450285720825195312e+01 5.179209709167480469e-01 -6.023174524307250977e-01 2.000000000000000000e+01
-2.549700975418090820e+00 4.183439165353775024e-02 -6.832822561264038086e-01 2.400000000000000000e+01
-4.474903106689453125e+01 7.420350313186645508e-01 7.812046408653259277e-01 4.800000000000000000e+01
-2.949978351593018022e+00 4.943198710680007935e-02 -6.811518073081970215e-01 1.400000000000000000e+01
-4.484402084350585938e+01 7.592681050300598145e-01 2.350512504577637163e+00 3.400000000000000000e+01
-3.525499582290648970e+00 5.969133228063582680e-02 -6.853858828544616699e-01 1.100000000000000000e+01
-4.482818222045897727e+01 7.668261528015136719e-01 3.922531366348267046e+00 5.400000000000000000e+01
-4.370855808258056641e+00 7.553048431873321533e-02 -6.923789381980895996e-01 1.000000000000000000e+01
-5.747934341430664062e+00 1.013340726494788985e-01 -7.058672308921813965e-01 9.000000000000000000e+00
-8.410534858703613281e+00 1.497431844472885132e-01 -7.359430789947509766e-01 2.000000000000000000e+00
-3.453083038330078125e+01 6.389101743698120117e-01 -6.028410196304321289e-01 2.000000000000000000e+01
-2.539882183074951172e+00 5.054207891225814819e-02 -6.806941032409667969e-01 2.500000000000000000e+01
-4.477016067504882812e+01 8.987153768539428711e-01 7.816234827041625977e-01 4.800000000000000000e+01
-2.949787855148314986e+00 5.972903221845626831e-02 -6.811518073081970215e-01 1.400000000000000000e+01
-4.498886489868164062e+01 9.188162088394165039e-01 2.358258247375487837e+00 3.400000000000000000e+01
-3.517418384552001953e+00 7.183690369129180908e-02 -6.838594675064086914e-01 1.200000000000000000e+01
-4.482522964477539062e+01 9.233010411262512207e-01 3.922531366348267046e+00 5.400000000000000000e+01
-4.378465652465820312e+00 9.095126390457153320e-02 -6.936303973197937012e-01 9.000000000000000000e+00
-5.757468700408936435e+00 1.216070875525474965e-01 -7.070859074592590332e-01 1.100000000000000000e+01
-8.394025802612304688e+00 1.787611544132232944e-01 -7.345486283302307129e-01 2.000000000000000000e+00
-1.621993637084960938e+01 3.510880172252655029e-01 -8.502499461174011230e-01 4.000000000000000000e+00
-3.450639724731445312e+01 7.589576244354248047e-01 -6.024570465087890625e-01 2.000000000000000000e+01
-2.531975269317626953e+00 5.878499150276184082e-02 -6.786235570907592773e-01 2.400000000000000000e+01
-4.474294281005858664e+01 1.046612501144408958e+00 7.812046408653259277e-01 4.800000000000000000e+01
-2.951521873474121094e+00 6.955646723508834839e-02 -6.816017031669616699e-01 1.500000000000000000e+01
-4.503748321533203125e+01 1.069232106208801047e+00 2.360979557037353960e+00 3.500000000000000000e+01
-3.517160654067993164e+00 8.350069075822830200e-02 -6.838594675064086914e-01 1.100000000000000000e+01
-4.482192230224608664e+01 1.071941733360290971e+00 3.922531366348267046e+00 5.400000000000000000e+01
-4.372215270996093750e+00 1.053275540471076965e-01 -6.926918029785156250e-01 1.000000000000000000e+01
-5.755049228668212891e+00 1.406503766775130948e-01 -7.068421840667724609e-01 1.100000000000000000e+01
-8.397370338439941406e+00 2.066938132047652921e-01 -7.348971962928771973e-01 2.000000000000000000e+00
-1.621868324279785156e+01 4.048733413219451904e-01 -8.502499461174011230e-01 4.000000000000000000e+00
-3.450368881225585938e+01 8.733808398246765137e-01 -6.024570465087890625e-01 1.300000000000000000e+01
-2.535616874694824219e+00 6.772603839635848999e-02 -6.796588301658630371e-01 1.900000000000000000e+01
-4.475101089477539062e+01 1.203110575675963911e+00 7.814140319824218750e-01 4.800000000000000000e+01
-2.949312925338745117e+00 7.980606704950332642e-02 -6.811518073081970215e-01 1.400000000000000000e+01
-4.503347778320313211e+01 1.226435780525207964e+00 2.360979557037353960e+00 3.500000000000000000e+01
-3.516847848892211914e+00 9.577736258506774902e-02 -6.838594675064086914e-01 1.100000000000000000e+01
-4.484579086303710938e+01 1.229157209396362083e+00 3.924971818923950195e+00 5.400000000000000000e+01
-4.367871761322020596e+00 1.204798594117165028e-01 -6.920660734176635742e-01 1.000000000000000000e+01
-5.756507396697998047e+00 1.607938110828399936e-01 -7.070859074592590332e-01 1.100000000000000000e+01
-8.376681327819824219e+00 2.354450523853302002e-01 -7.331541180610656738e-01 2.000000000000000000e+00
-1.621717071533203125e+01 4.614846408367156982e-01 -8.502499461174011230e-01 4.000000000000000000e+00
-3.453241348266602273e+01 9.947370886802673340e-01 -6.030155420303344727e-01 1.300000000000000000e+01
-2.556592226028441939e+00 7.766433060169219971e-02 -6.853528022766113281e-01 1.900000000000000000e+01
-4.475829315185546875e+01 1.367489576339721902e+00 7.816234827041625977e-01 4.800000000000000000e+01
-2.939261674880981001e+00 9.031604230403900146e-02 -6.789022684097290039e-01 1.300000000000000000e+01
-4.502867889404296875e+01 1.391483426094054954e+00 2.360979557037353960e+00 3.500000000000000000e+01
-3.516473293304442915e+00 1.086666136980057040e-01 -6.838594675064086914e-01 1.200000000000000000e+01
-4.481310272216796875e+01 1.392650485038757102e+00 3.922531366348267046e+00 5.400000000000000000e+01
-4.367401123046875000e+00 1.364880949258804044e-01 -6.920660734176635742e-01 1.000000000000000000e+01
-5.736038684844970703e+00 1.812644004821777066e-01 -7.046485543251037598e-01 1.100000000000000000e+01
-8.377754211425781250e+00 2.662088274955750067e-01 -7.333284020423889160e-01 3.000000000000000000e+00
-3.452853393554688211e+01 1.121298074722290039e+00 -6.030155420303344727e-01 1.300000000000000000e+01
-2.544721126556396040e+00 8.619564026594161987e-02 -6.822469830513000488e-01 1.700000000000000000e+01
-4.475324630737304688e+01 1.523716807365417036e+00 7.816234827041625977e-01 4.800000000000000000e+01
-2.936980724334716797e+00 1.005087792873382985e-01 -6.784523725509643555e-01 1.400000000000000000e+01
-4.502354812622070312e+01 1.548654437065124956e+00 2.360979557037353960e+00 3.500000000000000000e+01
-3.516072511672974077e+00 1.209407299757004062e-01 -6.838594675064086914e-01 1.100000000000000000e+01
-4.483584594726563211e+01 1.550032734870911089e+00 3.924971818923950195e+00 5.400000000000000000e+01
-4.374794483184813565e+00 1.520067304372786920e-01 -6.933175325393676758e-01 1.000000000000000000e+01
-5.735370635986328125e+00 2.012857943773269931e-01 -7.046485543251037598e-01 1.100000000000000000e+01
-8.382746696472167969e+00 2.956617176532744806e-01 -7.338513731956481934e-01 2.000000000000000000e+00
-3.445246887207031250e+01 1.239230632781981978e+00 -6.017589569091796875e-01 1.300000000000000000e+01
-2.538646221160889116e+00 9.397528320550918579e-02 -6.806941032409667969e-01 1.500000000000000000e+01
-4.475223541259766336e+01 1.664454221725464089e+00 7.816932797431945801e-01 4.800000000000000000e+01
-2.942492723464965820e+00 1.099533736705780029e-01 -6.798020601272583008e-01 1.300000000000000000e+01
-4.501846313476563211e+01 1.690092206001281960e+00 2.360979557037353960e+00 3.500000000000000000e+01
-3.499980211257935014e+00 1.313969641923903864e-01 -6.808065176010131836e-01 1.100000000000000000e+01
-4.483075714111328125e+01 1.690880775451659934e+00 3.924971818923950195e+00 5.400000000000000000e+01
-4.366399765014648438e+00 1.654505878686904907e-01 -6.920660734176635742e-01 1.000000000000000000e+01
-5.728759288787841797e+00 2.190754115581511896e-01 -7.039173245429992676e-01 1.300000000000000000e+01
-8.353903770446777344e+00 3.209246098995208740e-01 -7.314109802246093750e-01 2.000000000000000000e+00
-1.601198196411133168e+01 6.207159161567687988e-01 -8.397827744483947754e-01 4.000000000000000000e+00
-3.444640731811522727e+01 1.347381711006164995e+00 -6.017240881919860840e-01 2.000000000000000000e+01
-2.532511711120605025e+00 1.026016324758529941e-01 -6.791411638259887695e-01 1.600000000000000000e+01
-4.475414657592772727e+01 1.820983648300170898e+00 7.818328738212585449e-01 4.800000000000000000e+01
-2.947932243347167969e+00 1.204626187682151933e-01 -6.811518073081970215e-01 1.400000000000000000e+01
-4.501228713989257812e+01 1.847225666046143022e+00 2.360979557037353960e+00 3.500000000000000000e+01
-3.499500274658203125e+00 1.436133682727813998e-01 -6.808065176010131836e-01 1.200000000000000000e+01
-4.482856369018554688e+01 1.847523093223571999e+00 3.925320386886597124e+00 5.400000000000000000e+01
-4.361848354339599609e+00 1.805277913808822909e-01 -6.914403438568115234e-01 1.000000000000000000e+01
-5.722009658813476562e+00 2.388228327035903931e-01 -7.031860947608947754e-01 1.100000000000000000e+01
-8.308938980102539062e+00 3.482477068901062012e-01 -7.275761365890502930e-01 2.000000000000000000e+00
-3.439154815673828125e+01 1.465485572814940962e+00 -6.008514761924743652e-01 1.300000000000000000e+01
-2.545648097991942915e+00 1.120357066392898976e-01 -6.827646493911743164e-01 1.600000000000000000e+01
-4.471155548095703125e+01 1.975604772567749023e+00 7.812046408653259277e-01 4.800000000000000000e+01
-2.941653490066527876e+00 1.304930001497268954e-01 -6.798020601272583008e-01 1.300000000000000000e+01
-4.500556564331054688e+01 2.004336595535277876e+00 2.360979557037353960e+00 3.500000000000000000e+01
-3.510745525360106978e+00 1.563521176576614102e-01 -6.830962300300598145e-01 1.200000000000000000e+01
-4.484174346923828125e+01 2.004882574081420898e+00 3.927063465118408203e+00 5.400000000000000000e+01
-4.341457366943359375e+00 1.948666274547576904e-01 -6.883116364479064941e-01 1.000000000000000000e+01
-5.729073047637938565e+00 2.591537237167357843e-01 -7.041610479354858398e-01 1.100000000000000000e+01
-8.311653137207031250e+00 3.774299621582031250e-01 -7.279247641563415527e-01 2.000000000000000000e+00
-1.590750026702881037e+01 7.279196977615356445e-01 -8.345491290092468262e-01 4.000000000000000000e+00
-3.438622283935546875e+01 1.585525631904602051e+00 -6.008514761924743652e-01 2.000000000000000000e+01
-2.552960157394409180e+00 1.212876960635184964e-01 -6.848351955413818359e-01 2.500000000000000000e+01
-4.474034118652343750e+01 2.133379697799683061e+00 7.818328738212585449e-01 4.800000000000000000e+01
-2.925607919692993164e+00 1.400152295827865878e-01 -6.762028932571411133e-01 1.200000000000000000e+01
-4.499829483032227273e+01 2.161423206329346147e+00 2.360979557037353960e+00 3.500000000000000000e+01
-3.498412370681763139e+00 1.680407971143723089e-01 -6.808065176010131836e-01 1.200000000000000000e+01
-4.483845138549804688e+01 2.161589145660399947e+00 3.927412033081055132e+00 5.400000000000000000e+01
-4.340751171112061435e+00 2.100199460983276090e-01 -6.883116364479064941e-01 1.000000000000000000e+01
-5.710289001464843750e+00 2.782807350158690851e-01 -7.019674181938171387e-01 1.100000000000000000e+01
-8.314265251159667969e+00 4.066354036331176758e-01 -7.282733917236328125e-01 2.000000000000000000e+00
-1.593279075622558949e+01 7.848184704780578613e-01 -8.360145688056945801e-01 4.000000000000000000e+00
-3.437248992919921875e+01 1.705149888992310014e+00 -6.007118225097656250e-01 1.900000000000000000e+01
-2.558263540267943892e+00 1.313866972923279086e-01 -6.863881349563598633e-01 2.300000000000000000e+01
-4.474380493164063211e+01 2.305771589279174805e+00 7.820423245429992676e-01 4.800000000000000000e+01
-2.928941011428833008e+00 1.514489650726318082e-01 -6.771026849746704102e-01 1.200000000000000000e+01
-3.501662492752075195e+00 1.816759109497070035e-01 -6.815697550773620605e-01 1.200000000000000000e+01
-4.484175872802733664e+01 2.334361553192139116e+00 3.928457975387572798e+00 5.400000000000000000e+01
-4.335967063903808594e+00 2.264795750379562100e-01 -6.876859068870544434e-01 1.000000000000000000e+01
-5.705213546752929688e+00 2.999960780143737793e-01 -7.014799118041992188e-01 1.100000000000000000e+01
-8.320600509643554688e+00 4.389766752719879150e-01 -7.289706468582153320e-01 2.000000000000000000e+00
-1.580600357055664062e+01 8.394229412078857422e-01 -8.295249342918395996e-01 4.000000000000000000e+00
-3.436568832397460938e+01 1.837117910385132058e+00 -6.007118225097656250e-01 1.300000000000000000e+01
-2.557789325714110884e+00 1.403159052133559903e-01 -6.863881349563598633e-01 2.900000000000000000e+01
-4.474346923828125000e+01 2.462382078170775923e+00 7.821819782257080078e-01 4.800000000000000000e+01
-2.938123464584351030e+00 1.622090637683868131e-01 -6.793521642684936523e-01 1.100000000000000000e+01
-3.487285375595093218e+00 1.931379288434982022e-01 -6.788983941078186035e-01 1.200000000000000000e+01
-4.482936096191406250e+01 2.490653276443481001e+00 3.928109407424927202e+00 5.400000000000000000e+01
-4.343039512634277344e+00 2.420532405376434049e-01 -6.889373660087585449e-01 1.100000000000000000e+01
-5.700167655944824219e+00 3.196868598461151123e-01 -7.009924650192260742e-01 1.100000000000000000e+01
-8.275254249572753906e+00 4.655562341213225763e-01 -7.251358032226562500e-01 2.000000000000000000e+00
-1.580297756195068004e+01 8.945910930633544922e-01 -8.295249342918395996e-01 4.000000000000000000e+00
-3.435108184814453125e+01 1.956610441207885964e+00 -6.005722284317016602e-01 1.300000000000000000e+01
-2.543784141540526900e+00 1.484555453062056940e-01 -6.827646493911743164e-01 2.500000000000000000e+01
-4.474258422851563211e+01 2.619018316268920898e+00 7.823215723037719727e-01 4.800000000000000000e+01
-2.937539339065552202e+00 1.724640429019927979e-01 -6.793521642684936523e-01 1.300000000000000000e+01
-3.496389150619506836e+00 2.058866769075393954e-01 -6.808065176010131836e-01 1.100000000000000000e+01
-4.480846023559570312e+01 2.646416902542113814e+00 3.927063465118408203e+00 5.400000000000000000e+01
-4.334280490875244141e+00 2.567445635795593262e-01 -6.876859068870544434e-01 1.000000000000000000e+01
-5.702980518341063565e+00 3.398183584213256836e-01 -7.014799118041992188e-01 1.100000000000000000e+01
-8.255679130554199219e+00 4.933697283267974854e-01 -7.235669493675231934e-01 3.000000000000000000e+00
-1.579975795745849965e+01 9.497483372688293457e-01 -8.295249342918395996e-01 4.000000000000000000e+00
-3.435202407836914062e+01 2.076988935470581055e+00 -6.007118225097656250e-01 1.900000000000000000e+01
-2.533609628677368164e+00 1.567376852035521906e-01 -6.801764369010925293e-01 1.900000000000000000e+01
-4.473716354370117188e+01 2.775430679321289062e+00 7.823913693428039551e-01 4.800000000000000000e+01
-2.933029413223267046e+00 1.824749112129210871e-01 -6.784523725509643555e-01 1.200000000000000000e+01
-3.495649099349976030e+00 2.180901020765305121e-01 -6.808065176010131836e-01 1.200000000000000000e+01
-4.481087875366210938e+01 2.803558111190795898e+00 3.928109407424927202e+00 5.400000000000000000e+01
-4.325471878051757812e+00 2.713777124881743830e-01 -6.864344477653503418e-01 1.000000000000000000e+01
-5.697797298431395596e+00 3.594734072685242254e-01 -7.009924650192260742e-01 1.100000000000000000e+01
-8.303617477416992188e+00 5.253293514251708984e-01 -7.279247641563415527e-01 3.000000000000000000e+00
-3.430066299438477273e+01 2.194078922271728960e+00 -5.999439358711242676e-01 1.900000000000000000e+01
-2.533046960830688032e+00 1.655806750059128085e-01 -6.801764369010925293e-01 1.600000000000000000e+01
-4.471522903442382812e+01 2.930790901184082031e+00 7.821819782257080078e-01 4.800000000000000000e+01
-2.924596309661864790e+00 1.922008097171782892e-01 -6.766527891159057617e-01 1.300000000000000000e+01
-3.494866609573363814e+00 2.302908599376677912e-01 -6.808065176010131836e-01 1.100000000000000000e+01
-4.486046218872070312e+01 2.963900566101074219e+00 3.933338642120360884e+00 5.400000000000000000e+01
-4.310700893402099609e+00 2.855607569217681885e-01 -6.842443346977233887e-01 9.000000000000000000e+00
-5.684623241424561435e+00 3.785688281059265137e-01 -6.995300054550170898e-01 1.000000000000000000e+01
-8.234142303466796875e+00 5.497981309890747070e-01 -7.219981551170349121e-01 2.000000000000000000e+00
-3.431873321533203125e+01 2.315547227859497070e+00 -6.003977060317993164e-01 1.900000000000000000e+01
-2.540162801742554155e+00 1.749526113271712979e-01 -6.822469830513000488e-01 1.300000000000000000e+01
-4.473664474487304688e+01 3.089062452316284180e+00 7.827404141426086426e-01 4.800000000000000000e+01
-2.925851821899414062e+00 2.025429606437683105e-01 -6.771026849746704102e-01 1.200000000000000000e+01
-3.494041442871094194e+00 2.424888312816619873e-01 -6.808065176010131836e-01 1.200000000000000000e+01
-4.485779190063477273e+01 3.121027946472167969e+00 3.934036016464232954e+00 5.400000000000000000e+01
-4.319530487060546875e+00 3.012934327125548761e-01 -6.858087182044982910e-01 1.000000000000000000e+01
-5.667425632476806641e+00 3.972989916801453192e-01 -6.975800991058349609e-01 1.000000000000000000e+01
-8.230185508728027344e+00 5.783976316452026367e-01 -7.218238711357116699e-01 3.000000000000000000e+00
-3.432041168212891336e+01 2.436035871505736861e+00 -6.005722284317016602e-01 1.900000000000000000e+01
-2.527975559234619141e+00 1.829815655946732122e-01 -6.791411638259887695e-01 1.300000000000000000e+01
-4.473755645751953125e+01 3.246072053909302202e+00 7.829498648643493652e-01 4.800000000000000000e+01
-2.917352437973022017e+00 2.121893912553786954e-01 -6.753030419349670410e-01 1.300000000000000000e+01
-3.483383417129517046e+00 2.539700269699097235e-01 -6.788983941078186035e-01 1.200000000000000000e+01
-4.487444305419921875e+01 3.279624938964844194e+00 3.936476230621337891e+00 5.400000000000000000e+01
-4.306632041931152344e+00 3.155035972595214844e-01 -6.839314699172973633e-01 1.000000000000000000e+01
