6.461575508117675781e+00 -2.719500064849854071e-01 -5.658150911331176758e-01 9.000000000000000000e+00
9.831646919250488281e+00 -4.172250628471375067e-01 -5.157185196876525879e-01 2.000000000000000000e+00
1.879194068908691051e+01 -8.040441870689392090e-01 -3.283146619796752930e-01 3.000000000000000000e+00
2.373861312866210938e+00 -1.048903763294219971e-01 -6.366948485374450684e-01 1.700000000000000000e+01
2.735268592834473100e+00 -1.218160241842270036e-01 -6.321124434471130371e-01 1.300000000000000000e+01
3.895557022094727273e+01 -1.741710662841797097e+00 2.043614387512207031e+00 2.200000000000000000e+01
3.202794790267943892e+00 -1.431975513696671087e-01 -6.231821775436401367e-01 1.300000000000000000e+01
3.861893653869628906e+00 -1.740167438983916959e-01 -6.122844815254211426e-01 1.000000000000000000e+01
4.953655719757080078e+00 -2.249442040920258123e-01 -6.088592410087585449e-01 9.000000000000000000e+00
3.735114288330078125e+01 -1.702638030052185059e+00 5.921983242034912109e+00 1.300000000000000000e+01
6.476509571075438565e+00 -2.952292859554290771e-01 -5.672096014022827148e-01 7.000000000000000000e+00
9.862052917480468750e+00 -4.530077278614044189e-01 -5.173932909965515137e-01 2.000000000000000000e+00
1.891286849975585938e+01 -8.753676414489746094e-01 -3.304787576198577881e-01 3.000000000000000000e+00
2.390867471694945845e+00 -1.135868877172469954e-01 -6.413536071777343750e-01 1.900000000000000000e+01
2.742635726928710938e+00 -1.312584578990936002e-01 -6.339120864868164062e-01 1.200000000000000000e+01
3.882190322875977273e+01 -1.864749670028686968e+00 2.036915302276610884e+00 2.200000000000000000e+01
3.198380231857299805e+00 -1.536292284727097113e-01 -6.224189400672912598e-01 1.300000000000000000e+01
3.873133659362792969e+00 -1.873950660228728970e-01 -6.141617298126220703e-01 1.000000000000000000e+01
4.950900077819824219e+00 -2.412732541561126987e-01 -6.086155176162719727e-01 9.000000000000000000e+00
6.499375343322753906e+00 -3.178724646568297785e-01 -5.693013072013854980e-01 9.000000000000000000e+00
9.948268890380859375e+00 -4.900324940681458075e-01 -5.219988226890563965e-01 2.000000000000000000e+00
1.898176193237305043e+01 -9.416469931602478027e-01 -3.317353427410125732e-01 3.000000000000000000e+00
2.380809783935546875e+00 -1.214398294687270979e-01 -6.387653946876525879e-01 1.600000000000000000e+01
2.744107007980347124e+00 -1.409312039613724032e-01 -6.343619823455810547e-01 1.100000000000000000e+01
3.901461791992188211e+01 -2.010530948638916016e+00 2.047382593154906782e+00 2.200000000000000000e+01
3.195863962173461914e+00 -1.646916866302489957e-01 -6.220373511314392090e-01 1.300000000000000000e+01
3.882319450378417969e+00 -2.014254480600357056e-01 -6.157260537147521973e-01 1.000000000000000000e+01
4.961922168731688565e+00 -2.591749131679534912e-01 -6.100779175758361816e-01 1.200000000000000000e+01
6.490267276763916016e+00 -3.401404917240142822e-01 -5.686040520668029785e-01 9.000000000000000000e+00
9.858740806579589844e+00 -5.201255679130554199e-01 -5.173932909965515137e-01 2.000000000000000000e+00
1.902628517150878906e+01 -1.010445237159729004e+00 -3.325730562210083008e-01 3.000000000000000000e+00
2.364894390106201172e+00 -1.297340095043182095e-01 -6.346243023872375488e-01 1.600000000000000000e+01
2.755220413208007812e+00 -1.521112918853760043e-01 -6.370613574981689453e-01 1.300000000000000000e+01
3.883909606933593750e+01 -2.151043653488159180e+00 2.038590192794799805e+00 2.200000000000000000e+01
3.205009222030640093e+00 -1.775044947862625122e-01 -6.239454150199890137e-01 1.400000000000000000e+01
3.867711305618286133e+00 -2.155614942312240878e-01 -6.135360002517700195e-01 1.000000000000000000e+01
4.948998451232910156e+00 -2.775584459304810125e-01 -6.086155176162719727e-01 1.100000000000000000e+01
6.478967189788818359e+00 -3.644992113113402765e-01 -5.677325129508972168e-01 9.000000000000000000e+00
9.924468994140625000e+00 -5.618144869804382324e-01 -5.209521055221557617e-01 2.000000000000000000e+00
1.905021476745605113e+01 -1.085085272789001021e+00 -3.330617249011992853e-01 3.000000000000000000e+00
2.374069929122924805e+00 -1.385509967803955078e-01 -6.372125148773193359e-01 1.600000000000000000e+01
2.741054773330688032e+00 -1.609283685684204102e-01 -6.339120864868164062e-01 1.200000000000000000e+01
3.885926437377929688e+01 -2.288247823715209961e+00 2.040055513381958008e+00 2.200000000000000000e+01
3.208289861679077148e+00 -1.889218091964721957e-01 -6.247086524963378906e-01 1.300000000000000000e+01
4.098176956176757812e+01 -2.420410156250000000e+00 3.591688156127930132e+00 5.400000000000000000e+01
3.866935253143310991e+00 -2.290610074996947965e-01 -6.135360002517700195e-01 1.000000000000000000e+01
4.959888935089111328e+00 -2.955404222011566162e-01 -6.100779175758361816e-01 1.200000000000000000e+01
6.509476661682128906e+00 -3.890144824981688898e-01 -5.705214738845825195e-01 9.000000000000000000e+00
9.902510643005371094e+00 -5.952554941177368164e-01 -5.199053883552551270e-01 2.000000000000000000e+00
3.654074096679688211e+01 -2.202922105789185014e+00 8.451411247253417969e+00 1.100000000000000000e+01
1.909820938110351918e+01 -1.154714107513427956e+00 -3.339692354202271063e-01 3.000000000000000000e+00
2.385192155838013139e+00 -1.467203199863434115e-01 -6.403183341026306152e-01 1.600000000000000000e+01
2.734700679779053178e+00 -1.691778600215911865e-01 -6.325623393058776855e-01 1.200000000000000000e+01
3.211599349975585938e+00 -1.992431282997131070e-01 -6.254718899726867676e-01 1.300000000000000000e+01
3.874082803726195845e+00 -2.417002022266387939e-01 -6.147874593734741211e-01 1.000000000000000000e+01
4.956954479217529297e+00 -3.109965920448303223e-01 -6.098341941833496094e-01 1.000000000000000000e+01
6.526118755340576172e+00 -4.105885922908782959e-01 -5.720902681350708008e-01 9.000000000000000000e+00
9.920524597167968750e+00 -6.276232004165649414e-01 -5.209521055221557617e-01 2.000000000000000000e+00
1.914637374877930043e+01 -1.218007922172545943e+00 -3.348767757415770929e-01 3.000000000000000000e+00
2.384665489196776900e+00 -1.550453007221221924e-01 -6.403183341026306152e-01 1.600000000000000000e+01
2.737982749938964844e+00 -1.789769530296325961e-01 -6.334621906280517578e-01 1.100000000000000000e+01
3.212843418121337891e+00 -2.105808854103088101e-01 -6.258534789085388184e-01 1.500000000000000000e+01
3.881099939346313032e+00 -2.557413280010222834e-01 -6.160389184951782227e-01 1.100000000000000000e+01
4.943954467773438388e+00 -3.275104165077208918e-01 -6.083717346191406250e-01 9.000000000000000000e+00
6.516693592071533203e+00 -4.328383207321166992e-01 -5.713930726051330566e-01 9.000000000000000000e+00
9.918273925781250000e+00 -6.622484922409057617e-01 -5.209521055221557617e-01 2.000000000000000000e+00
3.591478729248046875e+01 -2.404346227645874023e+00 8.310141563415527344e+00 2.100000000000000000e+01
1.916195869445801137e+01 -1.286173105239867942e+00 -3.352258205413817804e-01 3.000000000000000000e+00
3.942345428466796875e+01 -2.646148443222045898e+00 1.058725166320800959e+01 9.000000000000000000e+00
2.384081125259398970e+00 -1.637845039367676059e-01 -6.403183341026306152e-01 1.900000000000000000e+01
2.748972892761230025e+00 -1.898164004087448120e-01 -6.361615657806396484e-01 1.100000000000000000e+01
3.204215764999390093e+00 -2.218127995729446134e-01 -6.243270039558410645e-01 1.300000000000000000e+01
3.884077787399291992e+00 -2.702387869358062744e-01 -6.166646480560302734e-01 1.000000000000000000e+01
4.954602241516113281e+00 -3.464595377445220947e-01 -6.098341941833496094e-01 1.000000000000000000e+01
6.530963420867919922e+00 -4.578349292278289795e-01 -5.727875232696533203e-01 8.000000000000000000e+00
9.947656631469726562e+00 -7.008422017097473145e-01 -5.226268768310546875e-01 2.000000000000000000e+00
1.916110420227051137e+01 -1.356678962707519975e+00 -3.352956175804138184e-01 3.000000000000000000e+00
3.902423095703125000e+01 -2.763063907623291016e+00 1.048268890380859020e+01 9.000000000000000000e+00
2.375787496566772017e+00 -1.715489774942398071e-01 -6.382477879524230957e-01 1.900000000000000000e+01
2.756068229675292969e+00 -1.999750584363937100e-01 -6.379612088203430176e-01 1.000000000000000000e+01
3.213212490081787109e+00 -2.337083369493483942e-01 -6.262351274490356445e-01 1.300000000000000000e+01
3.877200365066527876e+00 -2.833631336688994806e-01 -6.157260537147521973e-01 1.000000000000000000e+01
4.955342292785645419e+00 -3.638976216316223145e-01 -6.100779175758361816e-01 1.000000000000000000e+01
6.519390583038330078e+00 -4.798981249332427979e-01 -5.719159841537475586e-01 9.000000000000000000e+00
9.992953300476074219e+00 -7.390973567962646484e-01 -5.251389741897583008e-01 2.000000000000000000e+00
1.935966110229491832e+01 -1.438671350479125977e+00 -3.388559222221375067e-01 3.000000000000000000e+00
3.796582031250000000e+01 -2.828010797500609907e+00 1.020109367370604936e+01 8.000000000000000000e+00
2.380984783172606978e+00 -1.798629909753798883e-01 -6.398006677627563477e-01 1.900000000000000000e+01
2.751503467559814009e+00 -2.088184654712677002e-01 -6.370613574981689453e-01 1.100000000000000000e+01
3.208504438400268999e+00 -2.440646290779114047e-01 -6.254718899726867676e-01 1.300000000000000000e+01
3.878209114074707031e+00 -2.963693439960479736e-01 -6.160389184951782227e-01 1.000000000000000000e+01
4.979838848114013672e+00 -3.823034465312957764e-01 -6.132465600967407227e-01 1.000000000000000000e+01
6.545574665069580078e+00 -5.036545395851135254e-01 -5.743563175201416016e-01 6.000000000000000000e+00
9.990447998046875000e+00 -7.722311019897460938e-01 -5.251389741897583008e-01 2.000000000000000000e+00
1.932288360595703125e+01 -1.500385403633117898e+00 -3.382974565029143732e-01 3.000000000000000000e+00
3.801645660400391336e+01 -2.951905965805054155e+00 1.021714019775390980e+01 1.600000000000000000e+01
2.380342483520507812e+00 -1.881730705499649048e-01 -6.398006677627563477e-01 1.700000000000000000e+01
2.739102125167847124e+00 -2.174962162971497137e-01 -6.343619823455810547e-01 1.100000000000000000e+01
3.219375371932982954e+00 -2.561973631381989081e-01 -6.277616024017333984e-01 1.300000000000000000e+01
3.873212575912476030e+00 -3.095902502536774237e-01 -6.154131889343261719e-01 1.300000000000000000e+01
4.954729557037354404e+00 -3.977777063846588135e-01 -6.103217005729675293e-01 1.000000000000000000e+01
6.549734592437744141e+00 -5.269791483879089355e-01 -5.748792886734008789e-01 8.000000000000000000e+00
3.576435852050781250e+01 -2.883814573287963867e+00 6.974450588226318359e+00 6.000000000000000000e+01
1.002750682830811080e+01 -8.103170394897460938e-01 -5.272324085235595703e-01 2.000000000000000000e+00
4.075697708129882812e+01 -3.300708055496215820e+00 9.440296173095703125e+00 1.200000000000000000e+01
1.932948875427246094e+01 -1.568796277046204057e+00 -3.385068774223328192e-01 3.000000000000000000e+00
3.805213165283203125e+01 -3.088340759277344194e+00 1.022956371307373047e+01 1.700000000000000000e+01
2.387337923049927202e+00 -1.975334137678146085e-01 -6.418712139129638672e-01 1.600000000000000000e+01
4.081967544555664062e+01 -3.384680032730102983e+00 7.149552702903747559e-01 3.700000000000000000e+01
2.746054649353026900e+00 -2.281795442104339877e-01 -6.361615657806396484e-01 1.100000000000000000e+01
3.216458320617675781e+00 -2.678323388099669855e-01 -6.273799538612365723e-01 1.300000000000000000e+01
3.883862972259521040e+00 -3.247718513011931818e-01 -6.172903776168823242e-01 1.000000000000000000e+01
4.963129043579101562e+00 -4.167655706405640204e-01 -6.115403771400451660e-01 9.000000000000000000e+00
6.543788433074951172e+00 -5.506474375724792480e-01 -5.745306611061096191e-01 5.000000000000000000e+00
1.004437065124512074e+01 -8.487459421157836914e-01 -5.282791256904602051e-01 2.000000000000000000e+00
4.074460601806641336e+01 -3.450067520141602007e+00 9.440296173095703125e+00 1.200000000000000000e+01
1.929571342468262074e+01 -1.637264966964721902e+00 -3.380182087421417236e-01 3.000000000000000000e+00
3.814257812500000000e+01 -3.236444711685181108e+00 1.025699901580811080e+01 8.000000000000000000e+00
2.382784366607666016e+00 -2.055335342884063998e-01 -6.408359408378601074e-01 1.500000000000000000e+01
2.753007411956787109e+00 -2.384362816810607910e-01 -6.379612088203430176e-01 1.100000000000000000e+01
3.207680225372314009e+00 -2.783792614936829168e-01 -6.258534789085388184e-01 1.300000000000000000e+01
3.888609409332274947e+00 -3.388415277004241943e-01 -6.182290315628051758e-01 9.000000000000000000e+00
4.959666252136229581e+00 -4.339145720005034845e-01 -6.112966537475585938e-01 1.000000000000000000e+01
6.557704448699951172e+00 -5.748780965805053711e-01 -5.759251713752746582e-01 6.000000000000000000e+00
1.003338909149169922e+01 -8.831017017364501953e-01 -5.278604626655578613e-01 2.000000000000000000e+00
1.923809051513671875e+01 -1.700032949447632058e+00 -3.371106684207916260e-01 3.000000000000000000e+00
2.380165576934814009e+00 -2.132615894079208096e-01 -6.403183341026306152e-01 1.900000000000000000e+01
2.759965181350708008e+00 -2.482626140117644986e-01 -6.397607922554016113e-01 1.300000000000000000e+01
3.208694696426392046e+00 -2.891910076141356867e-01 -6.262351274490356445e-01 1.300000000000000000e+01
3.879595041275023970e+00 -3.510227203369141180e-01 -6.169775128364562988e-01 1.000000000000000000e+01
4.958199977874755859e+00 -4.503590464591979980e-01 -6.112966537475585938e-01 1.000000000000000000e+01
6.549809455871582031e+00 -5.960793495178222656e-01 -5.754022002220153809e-01 4.000000000000000000e+00
1.005029487609862926e+01 -9.181858897209167480e-01 -5.289071798324584961e-01 2.000000000000000000e+00
3.619851684570313211e+01 -3.313434600830078125e+00 8.392024040222167969e+00 2.200000000000000000e+01
1.955096054077148082e+01 -1.793039917945862038e+00 -3.426954448223114014e-01 3.000000000000000000e+00
2.375559568405150923e+00 -2.212103903293609897e-01 -6.392830610275268555e-01 1.900000000000000000e+01
2.747440099716186968e+00 -2.568070292472838800e-01 -6.370613574981689453e-01 1.400000000000000000e+01
3.213529825210570845e+00 -3.009388446807860773e-01 -6.273799538612365723e-01 1.300000000000000000e+01
3.882279634475708008e+00 -3.649326562881469727e-01 -6.176032423973083496e-01 1.000000000000000000e+01
4.964503288269042969e+00 -4.684095084667205811e-01 -6.122716069221496582e-01 1.000000000000000000e+01
6.551656246185302734e+00 -6.193138360977172852e-01 -5.757508277893066406e-01 5.000000000000000000e+00
1.008281898498534979e+01 -9.566581249237060547e-01 -5.307912826538085938e-01 2.000000000000000000e+00
3.621001052856445312e+01 -3.441983699798583984e+00 8.397422790527343750e+00 1.100000000000000000e+01
2.386310338973999023e+00 -2.306162714958190918e-01 -6.423888802528381348e-01 1.900000000000000000e+01
2.742647647857666016e+00 -2.660195529460906982e-01 -6.361615657806396484e-01 1.400000000000000000e+01
3.928083038330078125e+01 -3.816913604736328125e+00 2.068316936492919922e+00 2.200000000000000000e+01
3.216367959976195845e+00 -3.125340640544890802e-01 -6.281431913375854492e-01 1.200000000000000000e+01
3.880981922149658203e+00 -3.784821033477783203e-01 -6.176032423973083496e-01 1.000000000000000000e+01
3.895854568481445312e+01 -3.806189537048339844e+00 4.806282997131347656e+00 2.000000000000000000e+01
4.968764781951904297e+00 -4.863161146640778143e-01 -6.130027770996093750e-01 9.000000000000000000e+00
6.553420066833496094e+00 -6.425684690475463867e-01 -5.760994553565979004e-01 5.000000000000000000e+00
1.009134387969971058e+01 -9.930214285850524902e-01 -5.314192771911621094e-01 2.000000000000000000e+00
3.665546035766602273e+01 -3.613477468490601030e+00 8.503600120544433594e+00 1.100000000000000000e+01
1.970910835266112926e+01 -1.946387767791748047e+00 -3.456972539424896240e-01 3.000000000000000000e+00
2.391257524490356001e+00 -2.395222783088684082e-01 -6.439417600631713867e-01 1.800000000000000000e+01
2.745580196380614790e+00 -2.759813666343688965e-01 -6.370613574981689453e-01 1.300000000000000000e+01
3.946668243408203125e+01 -3.967127799987792969e+00 2.078784227371215820e+00 2.200000000000000000e+01
3.221117496490478960e+00 -3.243494629859923761e-01 -6.292880773544311523e-01 1.300000000000000000e+01
3.883568048477172852e+00 -3.924241364002227783e-01 -6.182290315628051758e-01 1.000000000000000000e+01
3.661452484130858664e+01 -3.706255435943603960e+00 4.518671512603759766e+00 1.900000000000000000e+01
4.963087081909179688e+00 -5.032568573951721191e-01 -6.125153303146362305e-01 9.000000000000000000e+00
6.572941303253173828e+00 -6.676550507545471191e-01 -5.780168771743774414e-01 6.000000000000000000e+00
1.011165904998778942e+01 -1.030671119689940962e+00 -5.326753854751586914e-01 2.000000000000000000e+00
3.662711334228516336e+01 -3.739823341369628906e+00 8.500000953674316406e+00 1.100000000000000000e+01
1.969025802612305043e+01 -2.013952732086182085e+00 -3.454878330230712891e-01 3.000000000000000000e+00
3.735000610351563211e+01 -3.826808452606201172e+00 1.006029605865479049e+01 8.000000000000000000e+00
2.392328262329102007e+00 -2.480671107769011896e-01 -6.444594264030456543e-01 1.600000000000000000e+01
2.752353191375731978e+00 -2.863702178001403809e-01 -6.388610005378723145e-01 1.300000000000000000e+01
3.214107751846313032e+00 -3.349807560443878174e-01 -6.281431913375854492e-01 1.300000000000000000e+01
3.895927190780640093e+00 -4.074161052703856867e-01 -6.204190850257873535e-01 1.100000000000000000e+01
3.681458663940429688e+01 -3.856376886367797852e+00 4.544995307922363281e+00 1.900000000000000000e+01
4.961300373077392578e+00 -5.205782055854797363e-01 -6.125153303146362305e-01 9.000000000000000000e+00
6.572552204132080078e+00 -6.908030509948730469e-01 -5.781912207603454590e-01 8.000000000000000000e+00
1.006827545166015980e+01 -1.061771869659424050e+00 -5.305819511413574219e-01 2.000000000000000000e+00
3.650143432617188211e+01 -3.855779647827147993e+00 8.473906517028808594e+00 1.100000000000000000e+01
1.969901657104491832e+01 -2.084355592727661133e+00 -3.457670807838439941e-01 3.000000000000000000e+00
3.732105255126953125e+01 -3.955532073974608931e+00 1.005615520477294922e+01 8.000000000000000000e+00
2.372239351272583008e+00 -2.543568015098571777e-01 -6.392830610275268555e-01 1.900000000000000000e+01
5.969755172729492188e+01 -6.411444187164306641e+00 1.048017024993896040e+00 6.300000000000000000e+01
2.759087085723876953e+00 -2.968097031116486151e-01 -6.406605839729309082e-01 1.400000000000000000e+01
3.220726490020751953e+00 -3.470393717288970947e-01 -6.296696662902832031e-01 1.300000000000000000e+01
3.886625528335570845e+00 -4.201637208461760919e-01 -6.191676259040832520e-01 1.000000000000000000e+01
3.674564361572266336e+01 -3.978876590728760210e+00 4.538170814514160156e+00 1.900000000000000000e+01
4.965373516082763672e+00 -5.385353565216064453e-01 -6.132465600967407227e-01 1.000000000000000000e+01
6.558216571807861328e+00 -7.124502658843994141e-01 -5.771453380584716797e-01 6.000000000000000000e+00
1.013995647430419922e+01 -1.105133175849914995e+00 -5.345594286918640137e-01 2.000000000000000000e+00
3.657299041748046875e+01 -3.992475032806396040e+00 8.493701934814453125e+00 1.100000000000000000e+01
1.975920677185058949e+01 -2.160495281219481978e+00 -3.469538390636444092e-01 3.000000000000000000e+00
4.217707443237304688e+01 -4.619140625000000000e+00 1.136888504028319957e+01 1.100000000000000000e+01
2.384824037551879883e+00 -2.637083232402802069e-01 -6.429064869880676270e-01 1.700000000000000000e+01
5.985086441040039062e+01 -6.628744125366210938e+00 1.051088571548461914e+00 6.300000000000000000e+01
2.758087635040283203e+00 -3.059575259685515802e-01 -6.406605839729309082e-01 1.400000000000000000e+01
5.965172958374022727e+01 -6.617228507995604581e+00 3.145390987396239790e+00 6.300000000000000000e+01
3.217606782913208008e+00 -3.575009703636168878e-01 -6.292880773544311523e-01 1.300000000000000000e+01
3.879321098327637163e+00 -4.323934614658356268e-01 -6.182290315628051758e-01 1.100000000000000000e+01
3.688217926025391336e+01 -4.117445945739746094e+00 4.556694984436035156e+00 1.900000000000000000e+01
4.961587429046630859e+00 -5.547775626182556152e-01 -6.130027770996093750e-01 9.000000000000000000e+00
6.595417976379395419e+00 -7.386291027069091797e-01 -5.806315541267395020e-01 6.000000000000000000e+00
1.015211486816406072e+01 -1.140536308288573997e+00 -5.353968143463134766e-01 2.000000000000000000e+00
3.444487380981445312e+01 -3.875786781311035156e+00 8.002408981323242188e+00 2.000000000000000000e+01
1.990692901611328125e+01 -2.243474960327147993e+00 -3.496764302253723145e-01 3.000000000000000000e+00
2.387727737426757812e+00 -2.724693715572357178e-01 -6.439417600631713867e-01 1.800000000000000000e+01
5.995054244995117188e+01 -6.851700305938720703e+00 1.053252696990967019e+00 6.200000000000000000e+01
2.749258518218994141e+00 -3.146967291831970215e-01 -6.388610005378723145e-01 1.300000000000000000e+01
5.962826919555664062e+01 -6.825411319732666016e+00 3.145390987396239790e+00 6.300000000000000000e+01
3.224141120910644975e+00 -3.696247637271881104e-01 -6.308145523071289062e-01 1.300000000000000000e+01
3.879750728607178178e+00 -4.461578428745269775e-01 -6.185418963432312012e-01 1.100000000000000000e+01
3.687547302246093750e+01 -4.247072219848632812e+00 4.557669639587402344e+00 1.900000000000000000e+01
4.959620475769042969e+00 -5.720933675765991211e-01 -6.130027770996093750e-01 9.000000000000000000e+00
6.574986457824707031e+00 -7.595890164375305176e-01 -5.790627598762512207e-01 5.000000000000000000e+00
1.017187881469726918e+01 -1.178725719451904075e+00 -5.366529226303100586e-01 2.000000000000000000e+00
3.451630783081054688e+01 -4.005883216857910156e+00 8.022204399108886719e+00 1.000000000000000000e+01
1.999431991577148082e+01 -2.324031591415404829e+00 -3.513518571853638250e-01 3.000000000000000000e+00
3.993792724609375000e+01 -4.649233341217041016e+00 1.077360153198242010e+01 9.000000000000000000e+00
2.390599250793457031e+00 -2.812538743019104004e-01 -6.449770331382751465e-01 1.900000000000000000e+01
5.987065124511718750e+01 -7.054373264312744141e+00 1.052275419235229048e+00 6.200000000000000000e+01
2.742337465286254883e+00 -3.236064016819000244e-01 -6.375113129615783691e-01 1.500000000000000000e+01
3.218931913375854048e+00 -3.804160356521605890e-01 -6.300513148307800293e-01 1.300000000000000000e+01
3.887977838516234907e+00 -4.608606100082396906e-01 -6.201062202453613281e-01 1.200000000000000000e+01
4.959564685821533203e+00 -5.896365046501159668e-01 -6.132465600967407227e-01 1.000000000000000000e+01
6.592079162597656250e+00 -7.848909497261047363e-01 -5.808058977127075195e-01 5.000000000000000000e+00
1.020736598968506037e+01 -1.218961596488953081e+00 -5.387463569641113281e-01 2.000000000000000000e+00
3.470721817016602273e+01 -4.150873184204101562e+00 8.069893836975097656e+00 1.000000000000000000e+01
1.998608589172362926e+01 -2.393810749053955078e+00 -3.513518571853638250e-01 3.000000000000000000e+00
3.704891204833983664e+01 -4.437491416931152344e+00 9.998179435729980469e+00 8.000000000000000000e+00
2.391520738601685014e+00 -2.898293435573577881e-01 -6.454946994781494141e-01 2.100000000000000000e+01
5.990124511718750000e+01 -7.270063877105712891e+00 1.053252696990967019e+00 6.200000000000000000e+01
2.748929023742675781e+00 -3.341174721717833918e-01 -6.393108963966369629e-01 1.500000000000000000e+01
3.219533443450928178e+00 -3.918870985507965088e-01 -6.304329037666320801e-01 1.300000000000000000e+01
3.886345386505126953e+00 -4.744293689727783203e-01 -6.201062202453613281e-01 1.100000000000000000e+01
3.786954116821289062e+01 -4.629669189453125000e+00 4.684413909912109375e+00 2.000000000000000000e+01
4.959446430206298828e+00 -6.071862578392028809e-01 -6.134902834892272949e-01 9.000000000000000000e+00
6.577433586120604581e+00 -8.064420223236083984e-01 -5.797600150108337402e-01 6.000000000000000000e+00
3.359811401367188211e+01 -4.125329971313476562e+00 6.579857349395751953e+00 5.800000000000000000e+01
1.023080158233642933e+01 -1.257997035980225053e+00 -5.402117371559143066e-01 2.000000000000000000e+00
3.466930770874022727e+01 -4.269140720367431641e+00 8.064495086669921875e+00 1.000000000000000000e+01
1.997760772705078125e+01 -2.463560581207274947e+00 -3.513518571853638250e-01 3.000000000000000000e+00
3.779931640625000000e+01 -4.667961120605468750e+00 1.020523452758789062e+01 8.000000000000000000e+00
2.373293161392211914e+00 -2.956092953681945801e-01 -6.408359408378601074e-01 2.000000000000000000e+01
5.987482452392578125e+01 -7.468416213989257812e+00 1.053217768669127974e+00 6.200000000000000000e+01
2.763275623321533203e+00 -3.451637625694274902e-01 -6.429101228713989258e-01 1.500000000000000000e+01
3.220164060592650923e+00 -4.028050005435944159e-01 -6.308145523071289062e-01 1.300000000000000000e+01
3.890630960464477983e+00 -4.880519509315490723e-01 -6.210448145866394043e-01 1.100000000000000000e+01
4.963314533233642578e+00 -6.243723630905151367e-01 -6.142215132713317871e-01 1.000000000000000000e+01
6.586583614349365234e+00 -8.297433257102966309e-01 -5.808058977127075195e-01 6.000000000000000000e+00
3.397381591796875000e+01 -4.285866737365722656e+00 6.656180858612061435e+00 5.900000000000000000e+01
1.023846244812012074e+01 -1.293418645858765093e+00 -5.408397912979125977e-01 2.000000000000000000e+00
3.486175155639647727e+01 -4.416427135467529297e+00 9.415837287902832031e+00 1.400000000000000000e+01
2.383744001388549805e+00 -3.053646385669708252e-01 -6.439417600631713867e-01 1.900000000000000000e+01
5.984838867187500000e+01 -7.677372932434082031e+00 1.053217768669127974e+00 6.200000000000000000e+01
2.756255388259888139e+00 -3.540624082088469904e-01 -6.415604352951049805e-01 1.400000000000000000e+01
5.972525024414063211e+01 -7.682768344879150391e+00 3.155858278274536133e+00 6.200000000000000000e+01
3.230421781539916992e+00 -4.155458807945250910e-01 -6.331042647361755371e-01 1.300000000000000000e+01
3.877148628234862837e+00 -5.001135468482971191e-01 -6.191676259040832520e-01 1.000000000000000000e+01
4.978823184967041016e+00 -6.439855098724365234e-01 -6.164151430130004883e-01 1.300000000000000000e+01
6.581671714782714844e+00 -8.524737954139709473e-01 -5.806315541267395020e-01 8.000000000000000000e+00
3.386129760742188211e+01 -4.391805648803710938e+00 6.637100219726563388e+00 5.800000000000000000e+01
1.026953697204590021e+01 -1.333779931068419966e+00 -5.427238941192626953e-01 2.000000000000000000e+00
3.501047897338867188e+01 -4.553280830383300781e+00 8.150876045227050781e+00 1.000000000000000000e+01
3.499857711791992188e+01 -4.564157485961914062e+00 9.457247734069824219e+00 1.400000000000000000e+01
2.390324831008911133e+00 -3.146922290325164795e-01 -6.460123658180236816e-01 2.000000000000000000e+01
5.972209930419921875e+01 -7.873167991638183594e+00 1.051472544670104980e+00 6.300000000000000000e+01
2.747274875640869141e+00 -3.626612424850463867e-01 -6.397607922554016113e-01 1.400000000000000000e+01
3.238683223724364790e+00 -4.281060099601746161e-01 -6.350123286247253418e-01 1.300000000000000000e+01
3.881254196166992188e+00 -5.144229531288146973e-01 -6.201062202453613281e-01 1.100000000000000000e+01
4.984416007995604581e+00 -6.624069809913635254e-01 -6.173900961875915527e-01 1.200000000000000000e+01
6.596430301666259766e+00 -8.778082728385925293e-01 -5.822003483772277832e-01 6.000000000000000000e+00
1.026481819152832031e+01 -1.369619131088257058e+00 -5.427238941192626953e-01 2.000000000000000000e+00
2.014938545227051137e+01 -2.695661067962646040e+00 -3.548423349857329767e-01 3.000000000000000000e+00
2.391126155853271040e+00 -3.232929408550261896e-01 -6.465299725532531738e-01 1.900000000000000000e+01
5.969425201416016336e+01 -8.081588745117187500e+00 1.051472544670104980e+00 6.300000000000000000e+01
2.745992183685303178e+00 -3.722487986087799072e-01 -6.397607922554016113e-01 1.300000000000000000e+01
3.227442026138306108e+00 -4.380881786346436102e-01 -6.331042647361755371e-01 1.300000000000000000e+01
3.875519990921020952e+00 -5.274351239204406738e-01 -6.194804906845092773e-01 9.000000000000000000e+00
3.598468399047852273e+01 -4.903697490692138672e+00 4.459199428558349609e+00 1.900000000000000000e+01
4.960437774658203125e+00 -6.768496632575988770e-01 -6.147089600563049316e-01 1.000000000000000000e+01
3.506508255004882812e+01 -4.790849685668945312e+00 5.605359554290770596e+00 1.300000000000000000e+01
6.595300197601318359e+00 -9.010984897613525391e-01 -5.823746919631958008e-01 6.000000000000000000e+00
1.027184772491455078e+01 -1.407068133354187012e+00 -5.433518886566162109e-01 2.000000000000000000e+00
2.033796310424805043e+01 -2.793187141418457031e+00 -3.583328127861022949e-01 3.000000000000000000e+00
3.497351837158203125e+01 -4.809432983398438388e+00 9.459318161010742188e+00 2.100000000000000000e+01
2.391896724700928178e+00 -3.319031000137329102e-01 -6.470476388931274414e-01 1.900000000000000000e+01
5.976471328735352273e+01 -8.303670883178710938e+00 1.053217768669127974e+00 6.200000000000000000e+01
2.750466585159302202e+00 -3.826373815536499023e-01 -6.411104798316955566e-01 1.200000000000000000e+01
5.964152526855468750e+01 -8.307777404785156250e+00 3.155858278274536133e+00 6.200000000000000000e+01
3.218115091323852983e+00 -4.482679665088654120e-01 -6.315777897834777832e-01 1.300000000000000000e+01
3.839428329467772727e+01 -5.354969978332520419e+00 3.391578674316405806e+00 5.100000000000000000e+01
3.891263008117675781e+00 -5.434189438819885254e-01 -6.222962737083435059e-01 1.000000000000000000e+01
3.916007614135742188e+01 -5.475713253021240234e+00 4.855031013488770419e+00 2.000000000000000000e+01
4.963942527770996094e+00 -6.949864029884338379e-01 -6.154401898384094238e-01 9.000000000000000000e+00
3.612105178833007812e+01 -5.057197570800781250e+00 5.776812076568604404e+00 1.300000000000000000e+01
6.601980209350585938e+00 -9.254978895187377930e-01 -5.832462310791015625e-01 6.000000000000000000e+00
1.029851818084716975e+01 -1.447362422943115012e+00 -5.450266599655151367e-01 2.000000000000000000e+00
3.332832717895507812e+01 -4.689922809600830078e+00 7.770259380340576172e+00 9.000000000000000000e+00
2.039937400817871094e+01 -2.874206781387329102e+00 -3.595893681049346924e-01 3.000000000000000000e+00
3.497459411621093750e+01 -4.927808761596679688e+00 9.463976860046386719e+00 7.000000000000000000e+00
2.379248142242432085e+00 -3.386171460151671808e-01 -6.439417600631713867e-01 1.900000000000000000e+01
5.973536300659179688e+01 -8.512238502502441406e+00 1.053217768669127974e+00 6.200000000000000000e+01
2.758760213851929155e+00 -3.936122357845305841e-01 -6.433600187301635742e-01 1.400000000000000000e+01
3.222361326217650923e+00 -4.603314697742462158e-01 -6.327226161956787109e-01 1.300000000000000000e+01
3.893253087997436968e+00 -5.575587153434753418e-01 -6.229220628738403320e-01 1.000000000000000000e+01
4.979170799255371094e+00 -7.148484587669372559e-01 -6.176338195800781250e-01 1.000000000000000000e+01
6.571099758148193359e+00 -9.445686936378479004e-01 -5.808058977127075195e-01 5.000000000000000000e+00
1.030131053924561080e+01 -1.484441637992859109e+00 -5.454453229904174805e-01 2.000000000000000000e+00
3.566099548339843750e+01 -5.145181179046630859e+00 8.318240165710449219e+00 1.000000000000000000e+01
3.449934005737304688e+01 -4.989871025085449219e+00 9.340261459350585938e+00 1.400000000000000000e+01
2.383786439895629883e+00 -3.477568328380585272e-01 -6.454946994781494141e-01 2.100000000000000000e+01
5.990315628051757812e+01 -8.749603271484375000e+00 1.056708335876465066e+00 6.200000000000000000e+01
2.745800018310546875e+00 -4.015478193759918213e-01 -6.406605839729309082e-01 1.400000000000000000e+01
3.228505134582519975e+00 -4.727145135402678888e-01 -6.342490911483764648e-01 1.400000000000000000e+01
3.875647783279418945e+00 -5.688503980636596680e-01 -6.204190850257873535e-01 1.100000000000000000e+01
4.974681377410888672e+00 -7.319357395172119141e-01 -6.173900961875915527e-01 1.000000000000000000e+01
6.587473392486572266e+00 -9.704039692878723145e-01 -5.825489759445190430e-01 6.000000000000000000e+00
3.426505661010742188e+01 -5.053712368011474609e+00 6.732504367828369141e+00 5.900000000000000000e+01
1.030396938323974965e+01 -1.521557927131653054e+00 -5.458640456199645996e-01 2.000000000000000000e+00
3.371117782592772727e+01 -4.984045505523681641e+00 7.867438316345214844e+00 9.000000000000000000e+00
2.057662582397460938e+01 -3.045831203460692915e+00 -3.630798757076262873e-01 3.000000000000000000e+00
3.467752838134766336e+01 -5.133100986480712891e+00 9.393060684204101562e+00 1.400000000000000000e+01
2.392111063003540039e+00 -3.575034141540526789e-01 -6.480829119682312012e-01 1.900000000000000000e+01
2.746308803558350053e+00 -4.114187061786652166e-01 -6.411104798316955566e-01 1.500000000000000000e+01
3.224893808364868164e+00 -4.836899936199188232e-01 -6.338675022125244141e-01 1.300000000000000000e+01
3.873638391494750977e+00 -5.823754668235778809e-01 -6.204190850257873535e-01 1.100000000000000000e+01
4.974059104919433594e+00 -7.495919466018676758e-01 -6.176338195800781250e-01 1.000000000000000000e+01
3.528869247436522727e+01 -5.318014621734619141e+00 5.652289867401123047e+00 1.300000000000000000e+01
6.623447895050048828e+00 -9.993375539779663086e-01 -5.860351920127868652e-01 6.000000000000000000e+00
3.413073348999022727e+01 -5.155694961547851562e+00 6.709607601165770596e+00 5.900000000000000000e+01
1.032229328155517933e+01 -1.561100125312804954e+00 -5.471200942993164062e-01 2.000000000000000000e+00
4.004423522949218750e+01 -6.063270092010498047e+00 9.350315093994140625e+00 1.200000000000000000e+01
4.199582290649414062e+01 -6.366266250610351562e+00 1.138130855560302912e+01 1.100000000000000000e+01
2.394795656204224077e+00 -3.655997812747954767e-01 -6.491181850433349609e-01 2.000000000000000000e+01
3.767269897460938211e+01 -5.758004188537597656e+00 6.652159094810485840e-01 3.100000000000000000e+01
2.739223718643188032e+00 -4.191601276397705078e-01 -6.397607922554016113e-01 1.200000000000000000e+01
3.221417665481566939e+00 -4.935216009616851807e-01 -6.334858536720275879e-01 1.300000000000000000e+01
3.895219564437866211e+00 -5.981398224830627441e-01 -6.241735219955444336e-01 1.000000000000000000e+01
3.655479431152343750e+01 -5.619790077209472656e+00 4.541095256805419922e+00 1.900000000000000000e+01
4.973641872406005859e+00 -7.655166983604431152e-01 -6.178775429725646973e-01 1.000000000000000000e+01
3.527086257934570312e+01 -5.435007095336914062e+00 5.652289867401123047e+00 1.300000000000000000e+01
6.612399101257324219e+00 -1.018926978111267090e+00 -5.853379964828491211e-01 6.000000000000000000e+00
1.031733798980713068e+01 -1.593520760536194070e+00 -5.471200942993164062e-01 2.000000000000000000e+00
2.061130523681640980e+01 -3.190798521041870117e+00 -3.640572130680084229e-01 3.000000000000000000e+00
4.209779739379882812e+01 -6.517083644866943359e+00 1.141443729400634943e+01 1.100000000000000000e+01
2.389687538146973100e+00 -3.733605146408081055e-01 -6.480829119682312012e-01 1.900000000000000000e+01
3.765237045288085938e+01 -5.889471530914306641e+00 6.652159094810485840e-01 3.100000000000000000e+01
2.751220941543579102e+00 -4.308297038078308105e-01 -6.429101228713989258e-01 1.500000000000000000e+01
3.198340177536011186e+00 -5.014186501502990723e-01 -6.292880773544311523e-01 1.200000000000000000e+01
3.895059347152709961e+00 -6.120396852493286133e-01 -6.244863867759704590e-01 1.100000000000000000e+01
4.974861145019531250e+00 -7.834908962249755859e-01 -6.183650493621826172e-01 9.000000000000000000e+00
6.606833934783936435e+00 -1.041692137718200906e+00 -5.851636528968811035e-01 6.000000000000000000e+00
1.034327697753906072e+01 -1.634513378143310991e+00 -5.487948656082153320e-01 2.000000000000000000e+00
3.692730712890625000e+01 -5.842104434967041016e+00 8.631371498107910156e+00 1.100000000000000000e+01
2.378831386566162109e+00 -3.801754415035247803e-01 -6.454946994781494141e-01 1.900000000000000000e+01
2.749700307846068892e+00 -4.404306113719940186e-01 -6.429101228713989258e-01 1.200000000000000000e+01
3.798199081420897727e+01 -6.090528964996337891e+00 2.015980958938599077e+00 2.200000000000000000e+01
3.217893838882445845e+00 -5.159991383552551270e-01 -6.334858536720275879e-01 1.100000000000000000e+01
3.887048244476317915e+00 -6.246919035911560059e-01 -6.235477924346923828e-01 1.100000000000000000e+01
4.976015567779541016e+00 -8.014829754829406738e-01 -6.188524961471557617e-01 9.000000000000000000e+00
6.597256660461425781e+00 -1.063796401023864968e+00 -5.846407413482666016e-01 6.000000000000000000e+00
1.036511230468750000e+01 -1.675069093704224077e+00 -5.502602458000183105e-01 2.000000000000000000e+00
3.489062500000000000e+01 -5.644799232482910156e+00 8.159874916076660156e+00 1.000000000000000000e+01
3.628068923950195312e+01 -5.876189708709716797e+00 9.848064422607421875e+00 7.000000000000000000e+00
2.375583410263061968e+00 -3.881652653217316229e-01 -6.449770331382751465e-01 1.800000000000000000e+01
5.994209289550781250e+01 -9.805151939392089844e+00 1.060198783874511941e+00 6.100000000000000000e+01
2.746222972869873047e+00 -4.497112631797791082e-01 -6.424602270126342773e-01 1.400000000000000000e+01
3.783435821533203125e+01 -6.202394485473632812e+00 2.009282112121582031e+00 2.100000000000000000e+01
3.212198257446289062e+00 -5.265933275222778320e-01 -6.327226161956787109e-01 1.200000000000000000e+01
3.873148441314696822e+00 -6.363349556922912598e-01 -6.216705441474914551e-01 1.000000000000000000e+01
4.988857269287109375e+00 -8.214277029037475586e-01 -6.208024621009826660e-01 9.000000000000000000e+00
3.630739593505858664e+01 -5.984611511230468750e+00 5.828122615814208984e+00 1.300000000000000000e+01
6.605298519134520596e+00 -1.088762879371643066e+00 -5.856865644454956055e-01 6.000000000000000000e+00
1.033949661254882990e+01 -1.707984685897826926e+00 -5.492135286331176758e-01 2.000000000000000000e+00
2.084506797790526988e+01 -3.450878620147705078e+00 -3.688042461872100830e-01 3.000000000000000000e+00
3.566912460327147727e+01 -5.904985427856445312e+00 9.687597274780273438e+00 7.000000000000000000e+00
2.385577201843262163e+00 -3.987807035446166992e-01 -6.480829119682312012e-01 1.700000000000000000e+01
2.736868381500244141e+00 -4.584857821464539129e-01 -6.406605839729309082e-01 1.400000000000000000e+01
3.788733291625977273e+01 -6.346962928771972656e+00 2.013259649276732954e+00 2.200000000000000000e+01
3.217991352081298828e+00 -5.396618843078613281e-01 -6.342490911483764648e-01 1.100000000000000000e+01
3.866894006729125977e+00 -6.498716473579406738e-01 -6.210448145866394043e-01 1.000000000000000000e+01
3.740742111206054688e+01 -6.293418407440186435e+00 4.657602787017822266e+00 4.000000000000000000e+01
4.962322711944580078e+00 -8.357510566711425781e-01 -6.178775429725646973e-01 9.000000000000000000e+00
3.538633346557617188e+01 -5.959742546081542969e+00 5.683577060699462891e+00 1.300000000000000000e+01
6.611086845397949219e+00 -1.114621400833130105e+00 -5.865581631660461426e-01 8.000000000000000000e+00
1.037255382537841975e+01 -1.752524137496948020e+00 -5.513069629669189453e-01 2.000000000000000000e+00
3.404233169555664062e+01 -5.757829189300537109e+00 7.970915794372558594e+00 1.000000000000000000e+01
2.093086051940917969e+01 -3.543947935104370117e+00 -3.705494999885559082e-01 3.000000000000000000e+00
3.481867980957031250e+01 -5.895390033721923828e+00 9.462424278259277344e+00 1.400000000000000000e+01
2.393692016601562944e+00 -4.087313115596771240e-01 -6.506710648536682129e-01 1.600000000000000000e+01
5.967328262329102273e+01 -1.020014095306395951e+01 1.056708335876465066e+00 6.200000000000000000e+01
2.739093065261840820e+00 -4.686937928199768066e-01 -6.415604352951049805e-01 1.400000000000000000e+01
3.219958305358887163e+00 -5.515544414520263672e-01 -6.350123286247253418e-01 1.100000000000000000e+01
3.872389793395996094e+00 -6.647024750709533691e-01 -6.222962737083435059e-01 1.000000000000000000e+01
3.742435455322266336e+01 -6.430679798126220703e+00 4.662477493286132812e+00 2.000000000000000000e+01
4.971113204956054688e+00 -8.550868034362792969e-01 -6.193400025367736816e-01 9.000000000000000000e+00
6.638571739196777344e+00 -1.143101096153259055e+00 -5.893471240997314453e-01 8.000000000000000000e+00
1.040180015563965021e+01 -1.794833302497863992e+00 -5.531910657882690430e-01 2.000000000000000000e+00
3.401434326171875000e+01 -5.875297069549561435e+00 7.969116210937500000e+00 1.000000000000000000e+01
2.096171379089355113e+01 -3.624484300613402876e+00 -3.713173866271973211e-01 3.000000000000000000e+00
3.482539367675781250e+01 -6.027909278869628906e+00 9.470189094543457031e+00 7.000000000000000000e+00
2.386686563491820845e+00 -4.152558445930480957e-01 -6.491181850433349609e-01 1.800000000000000000e+01
2.751045465469359907e+00 -4.796395301818848211e-01 -6.447097063064575195e-01 1.300000000000000000e+01
3.214341640472412109e+00 -5.609924197196960449e-01 -6.342490911483764648e-01 1.100000000000000000e+01
3.893632411956787109e+00 -6.809482574462890625e-01 -6.260507106781005859e-01 1.000000000000000000e+01
3.849505233764647727e+01 -6.739233970642089844e+00 4.798483371734619141e+00 2.000000000000000000e+01
4.962536811828613281e+00 -8.696717619895935059e-01 -6.186087727546691895e-01 1.000000000000000000e+01
3.903781890869141336e+01 -6.848300457000732422e+00 6.277402400970458984e+00 1.400000000000000000e+01
6.629060268402099609e+00 -1.162918329238892046e+00 -5.888242125511169434e-01 5.000000000000000000e+00
1.039611053466797053e+01 -1.827502608299254927e+00 -5.531910657882690430e-01 2.000000000000000000e+00
2.090689659118651988e+01 -3.682687759399414062e+00 -3.705494999885559082e-01 7.000000000000000000e+00
3.477881622314453125e+01 -6.126184940338134766e+00 9.462424278259277344e+00 1.400000000000000000e+01
2.373809814453125000e+00 -4.215576946735382080e-01 -6.460123658180236816e-01 1.800000000000000000e+01
2.753191709518433061e+00 -4.899223744869232178e-01 -6.456094980239868164e-01 1.300000000000000000e+01
3.212363719940185991e+00 -5.722091197967529297e-01 -6.342490911483764648e-01 1.100000000000000000e+01
3.889287233352661133e+00 -6.941883563995361328e-01 -6.257378458976745605e-01 1.100000000000000000e+01
4.969241142272949219e+00 -8.887363672256469727e-01 -6.198275089263916016e-01 9.000000000000000000e+00
3.733366394042968750e+01 -6.683756828308104581e+00 6.007083415985107422e+00 1.300000000000000000e+01
6.624960899353027344e+00 -1.186051011085510032e+00 -5.888242125511169434e-01 5.000000000000000000e+00
1.047223472595215021e+01 -1.878592252731323020e+00 -5.575872659683227539e-01 2.000000000000000000e+00
3.438125991821289062e+01 -6.173775672912597656e+00 8.064495086669921875e+00 1.000000000000000000e+01
2.077385711669921875e+01 -3.734063863754272017e+00 -3.684203028678894043e-01 1.000000000000000000e+01
3.525537872314453125e+01 -6.337091922760009766e+00 9.598045349121093750e+00 1.400000000000000000e+01
2.376125574111938032e+00 -4.305301308631896973e-01 -6.470476388931274414e-01 1.900000000000000000e+01
5.976373291015625000e+01 -1.083936214447020951e+01 1.060198783874511941e+00 6.100000000000000000e+01
2.739960432052611861e+00 -4.974412024021149237e-01 -6.429101228713989258e-01 1.300000000000000000e+01
3.214210033416748047e+00 -5.841209292411804199e-01 -6.350123286247253418e-01 1.100000000000000000e+01
3.879066705703734907e+00 -7.063447237014770508e-01 -6.244863867759704590e-01 1.200000000000000000e+01
3.838457489013671875e+01 -6.996423244476318359e+00 4.790683746337890625e+00 2.000000000000000000e+01
5.001259803771972656e+00 -9.124903082847595215e-01 -6.242147684097290039e-01 9.000000000000000000e+00
6.626660346984863281e+00 -1.210243105888366921e+00 -5.893471240997314453e-01 5.000000000000000000e+00
1.049704742431640980e+01 -1.920887947082519975e+00 -5.592620372772216797e-01 2.000000000000000000e+00
3.428665924072266336e+01 -6.280408859252929688e+00 8.047398567199707031e+00 1.000000000000000000e+01
2.079413414001464844e+01 -3.812686204910277876e+00 -3.690136671066284180e-01 7.000000000000000000e+00
3.527751922607421875e+01 -6.474636554718017578e+00 9.610468864440917969e+00 1.400000000000000000e+01
2.389805793762207031e+00 -4.416301846504210871e-01 -6.511887311935424805e-01 1.900000000000000000e+01
5.972553253173828125e+01 -1.104790973663330078e+01 1.060198783874511941e+00 6.100000000000000000e+01
2.734375000000000000e+00 -5.062928199768066406e-01 -6.420103311538696289e-01 1.300000000000000000e+01
3.217942714691162109e+00 -5.964103937149047852e-01 -6.361572146415710449e-01 1.200000000000000000e+01
3.884346008300780806e+00 -7.213235497474670410e-01 -6.257378458976745605e-01 1.400000000000000000e+01
4.990237712860107422e+00 -9.284899234771728516e-01 -6.232398152351379395e-01 9.000000000000000000e+00
6.655693531036376953e+00 -1.239568471908568892e+00 -5.923104286193847656e-01 5.000000000000000000e+00
1.045886516571044922e+01 -1.951655864715575950e+00 -5.575872659683227539e-01 2.000000000000000000e+00
1.979198265075683949e+01 -3.700393915176392046e+00 -3.514565527439116877e-01 1.300000000000000000e+01
2.392046689987183061e+00 -4.506848454475402832e-01 -6.522240042686462402e-01 2.000000000000000000e+01
2.744080543518065962e+00 -5.180034041404724121e-01 -6.447097063064575195e-01 1.100000000000000000e+01
3.219699382781981978e+00 -6.083685159683227539e-01 -6.369204521179199219e-01 1.200000000000000000e+01
3.877922773361206055e+00 -7.341431975364685059e-01 -6.251121163368225098e-01 1.100000000000000000e+01
4.965512752532958984e+00 -9.418342709541320801e-01 -6.205586791038513184e-01 1.000000000000000000e+01
6.666985511779785156e+00 -1.265766739845276101e+00 -5.937049388885498047e-01 5.000000000000000000e+00
1.047160911560058949e+01 -1.991884469985961914e+00 -5.586339831352233887e-01 2.000000000000000000e+00
3.354898071289063211e+01 -6.387674331665039062e+00 7.884534358978270596e+00 9.000000000000000000e+00
1.978287506103515980e+01 -3.770206928253173828e+00 -3.515263795852661133e-01 1.000000000000000000e+01
3.537757492065429688e+01 -6.748633861541748047e+00 9.650326728820800781e+00 7.000000000000000000e+00
2.379075765609741211e+00 -4.568460285663604736e-01 -6.491181850433349609e-01 2.000000000000000000e+01
2.738428354263306108e+00 -5.268425345420837402e-01 -6.438099145889282227e-01 1.300000000000000000e+01
3.207916975021361861e+00 -6.177474260330200195e-01 -6.350123286247253418e-01 1.200000000000000000e+01
3.875336408615111861e+00 -7.476751804351806641e-01 -6.251121163368225098e-01 1.100000000000000000e+01
4.971940040588378906e+00 -9.610450267791748047e-01 -6.217774152755737305e-01 1.000000000000000000e+01
3.606651687622070312e+01 -6.971432685852050781e+00 5.818110466003417969e+00 1.300000000000000000e+01
6.652745723724365234e+00 -1.287138819694519043e+00 -5.928333401679992676e-01 5.000000000000000000e+00
1.047635746002197088e+01 -2.030705451965332031e+00 -5.592620372772216797e-01 2.000000000000000000e+00
3.353030776977539062e+01 -6.505486011505126953e+00 7.885434150695800781e+00 9.000000000000000000e+00
2.077466011047362926e+01 -4.034422397613525391e+00 -3.693976402282714844e-01 1.000000000000000000e+01
2.369963884353638139e+00 -4.632504284381865900e-01 -6.470476388931274414e-01 1.700000000000000000e+01
2.751965522766112837e+00 -5.389166474342346191e-01 -6.474091410636901855e-01 1.300000000000000000e+01
3.205850839614868164e+00 -6.283819079399108887e-01 -6.350123286247253418e-01 1.100000000000000000e+01
3.888342618942261186e+00 -7.635672688484191895e-01 -6.276150941848754883e-01 1.100000000000000000e+01
4.986255645751953125e+00 -9.809760451316833496e-01 -6.239710450172424316e-01 1.000000000000000000e+01
3.772557830810546875e+01 -7.421979427337645596e+00 6.089680671691895419e+00 1.400000000000000000e+01
6.669944286346436435e+00 -1.313427448272705078e+00 -5.947507619857788086e-01 6.000000000000000000e+00
1.047740364074707031e+01 -2.066981315612792969e+00 -5.596807003021240234e-01 2.000000000000000000e+00
3.333648681640625000e+01 -6.582664489746093750e+00 7.844943046569824219e+00 9.000000000000000000e+00
2.041393852233887074e+01 -4.034664154052734375e+00 -3.632194697856903076e-01 6.000000000000000000e+00
3.666246414184570312e+01 -7.246065139770507812e+00 1.001370906829833984e+01 8.000000000000000000e+00
