4.777916967868804932e-01 -8.235712647438049316e-01 1.508028209209442139e-01 9.200000000000000000e+01
5.079016089439392090e-01 -8.754717707633972168e-01 -8.855023235082626343e-02 4.300000000000000000e+01
4.796412289142609198e-01 -8.270918130874633789e-01 1.858479678630829135e-01 6.900000000000000000e+01
4.988201260566710871e-01 -8.605098724365234375e-01 -5.212661251425743103e-02 7.000000000000000000e+01
4.816707670688629150e-01 -8.312600255012512207e-01 2.218017429113388062e-01 5.800000000000000000e+01
4.981255829334259033e-01 -8.600034713745117188e-01 -1.734769158065319061e-02 6.800000000000000000e+01
4.491376578807830811e-01 -7.757389545440673828e-01 2.401840686798095981e-01 1.000000000000000000e+02
5.660325288772583008e-01 -9.803971052169799805e-01 -3.033359348773955744e-01 4.700000000000000000e+01
4.907768070697783869e-01 -8.503931164741516113e-01 1.713826321065425873e-02 7.700000000000000000e+01
5.492124557495117188e-01 -9.520311355590820312e-01 -2.537447810173035223e-01 6.000000000000000000e+01
4.828982949256896973e-01 -8.374166488647460938e-01 5.066120624542236328e-02 9.900000000000000000e+01
5.237134695053100586e-01 -9.081961512565612793e-01 -2.037840038537979126e-01 5.300000000000000000e+01
4.716251790523529053e-01 -8.181974291801452637e-01 8.262364566326141357e-02 1.000000000000000000e+02
5.256419777870178223e-01 -9.122762084007263184e-01 -1.667591333389281949e-01 5.100000000000000000e+01
4.715947806835175116e-01 -8.188050985336303711e-01 1.160196140408516069e-01 1.000000000000000000e+02
5.140410065650939941e-01 -8.928625583648681641e-01 -1.265003830194472989e-01 5.300000000000000000e+01
4.661876559257506769e-01 -8.097437620162963867e-01 1.479870080947875977e-01 1.000000000000000000e+02
5.048425197601318359e-01 -8.772393465042114258e-01 -8.855023235082626343e-02 4.500000000000000000e+01
4.865407645702362061e-01 -8.457787036895751953e-01 1.896641403436661044e-01 5.400000000000000000e+01
5.037782192230224609e-01 -8.760972023010253906e-01 -5.296398699283599854e-02 7.200000000000000000e+01
4.797373414039611816e-01 -8.346258401870727539e-01 2.222516387701035101e-01 6.200000000000000000e+01
4.901394844055175781e-01 -8.530676364898681641e-01 -1.717316731810570110e-02 8.600000000000000000e+01
4.407882392406464178e-01 -7.671738266944885254e-01 2.370782494544982910e-01 1.000000000000000000e+02
5.587665438652038574e-01 -9.756613969802856445e-01 -3.012653589248657227e-01 4.700000000000000000e+01
4.868119060993195135e-01 -8.503655791282653809e-01 1.710335910320281982e-02 8.200000000000000000e+01
5.429822206497192383e-01 -9.488682746887207031e-01 -2.523950934410095215e-01 6.100000000000000000e+01
4.829472601413726807e-01 -8.442982435226440430e-01 5.097522214055061340e-02 9.700000000000000000e+01
5.234644412994384766e-01 -9.151312112808227539e-01 -2.049288600683212003e-01 4.800000000000000000e+01
4.657993912696837824e-01 -8.146498799324035645e-01 8.210071176290512085e-02 1.000000000000000000e+02
5.204939246177673340e-01 -9.106754660606384277e-01 -1.661334037780761996e-01 5.100000000000000000e+01
4.736573994159697931e-01 -8.290644288063049316e-01 1.172383055090903958e-01 1.000000000000000000e+02
5.138744711875915527e-01 -8.998228311538696289e-01 -1.272315979003905972e-01 5.500000000000000000e+01
4.651753008365631104e-01 -8.148780465126037598e-01 1.486127376556395929e-01 1.000000000000000000e+02
4.978263378143311102e-01 -8.720750212669372559e-01 -8.785299211740493774e-02 4.500000000000000000e+01
4.767744243144989014e-01 -8.355356454849243164e-01 1.869928091764450073e-01 6.500000000000000000e+01
5.017066001892089844e-01 -8.795852661132812500e-01 -5.306866019964218140e-02 7.500000000000000000e+01
4.826123714447020929e-01 -8.464527726173400879e-01 2.249510586261748990e-01 5.200000000000000000e+01
4.901292026042938232e-01 -8.599853515625000000e-01 -1.727788150310516010e-02 7.300000000000000000e+01
4.370171725749968927e-01 -7.671056389808654785e-01 2.365606129169464111e-01 1.000000000000000000e+02
5.572658777236938477e-01 -9.809653759002685547e-01 -3.023006319999694824e-01 4.900000000000000000e+01
4.789034426212310791e-01 -8.433652520179748535e-01 1.692883484065533031e-02 9.200000000000000000e+01
5.425526499748229980e-01 -9.558421373367309570e-01 -2.537447810173035223e-01 6.300000000000000000e+01
4.839396476745604914e-01 -8.529273867607116699e-01 5.139390751719474792e-02 8.200000000000000000e+01
5.231733918190002441e-01 -9.220755100250244141e-01 -2.060737162828444879e-01 4.500000000000000000e+01
4.639358222484589178e-01 -8.180038928985595703e-01 8.227501809597015381e-02 1.000000000000000000e+02
5.114665627479553223e-01 -9.021762013435363770e-01 -1.642561852931976041e-01 5.200000000000000000e+01
4.668456912040709894e-01 -8.238045573234558105e-01 1.162633523344994008e-01 1.000000000000000000e+02
5.117087960243225098e-01 -9.033383131027221680e-01 -1.274753361940383911e-01 5.300000000000000000e+01
4.663649797439575195e-01 -8.232911825180053711e-01 1.498642116785048883e-01 1.000000000000000000e+02
4.937974810600280762e-01 -8.720736503601074219e-01 -8.767867833375930786e-02 4.700000000000000000e+01
4.680526554584503174e-01 -8.269434571266174316e-01 1.847031116485595981e-01 8.100000000000000000e+01
4.937157034873961847e-01 -8.726395368576049805e-01 -5.254530161619185707e-02 7.200000000000000000e+01
4.863699376583098810e-01 -8.600060939788818359e-01 2.281003743410109919e-01 5.300000000000000000e+01
4.910606741905211847e-01 -8.686541318893432617e-01 -1.741750165820122112e-02 6.100000000000000000e+01
4.439779818058013916e-01 -7.853679060935974121e-01 2.417369931936264038e-01 9.700000000000000000e+01
5.557349920272827148e-01 -9.862707257270812988e-01 -3.033359348773955744e-01 4.700000000000000000e+01
4.749752879142761230e-01 -8.432894349098205566e-01 1.689392887055873871e-02 1.000000000000000000e+02
5.363447070121765137e-01 -9.526358842849731445e-01 -2.523950934410095215e-01 6.500000000000000000e+01
4.838980734348297119e-01 -8.598330616950988770e-01 5.170792341232299805e-02 7.000000000000000000e+01
5.247659087181091309e-01 -9.324507117271423340e-01 -2.079818099737167081e-01 5.000000000000000000e+01
4.669387936592102051e-01 -8.300372362136840820e-01 8.332089334726333618e-02 1.000000000000000000e+02
5.112189054489135742e-01 -9.091215133666992188e-01 -1.651947945356369019e-01 5.300000000000000000e+01
4.600765407085419256e-01 -8.185072541236877441e-01 1.152883991599082947e-01 1.000000000000000000e+02
5.056353211402893066e-01 -8.999271392822265625e-01 -1.267441213130950928e-01 5.500000000000000000e+01
4.681809246540070135e-01 -8.336066603660583496e-01 1.514285653829574863e-01 8.700000000000000000e+01
4.946529567241669256e-01 -8.807407021522521973e-01 -8.837592601776123047e-02 4.700000000000000000e+01
4.690075516700745184e-01 -8.354199528694152832e-01 1.862295866012572965e-01 7.100000000000000000e+01
4.867569208145142157e-01 -8.673906326293945312e-01 -5.212661251425743103e-02 7.200000000000000000e+01
4.824115931987761896e-01 -8.599990010261535645e-01 2.276504635810852051e-01 5.500000000000000000e+01
4.890035092830657959e-01 -8.721072077751159668e-01 -1.745240576565266002e-02 5.900000000000000000e+01
4.363738000392913818e-01 -7.785639166831970215e-01 2.391487956047058105e-01 1.000000000000000000e+02
5.541738271713256836e-01 -9.915773272514343262e-01 -3.043712079524993896e-01 4.700000000000000000e+01
4.778803586959838867e-01 -8.554167747497558594e-01 1.710335910320281982e-02 8.200000000000000000e+01
5.330160856246948242e-01 -9.545022249221801758e-01 -2.523950934410095215e-01 6.700000000000000000e+01
4.692121148109436035e-01 -8.405894637107849121e-01 5.045186355710030296e-02 1.000000000000000000e+02
5.119389295578002930e-01 -9.171341061592102051e-01 -2.041656225919724066e-01 5.000000000000000000e+01
4.650093615055084229e-01 -8.334019780158996582e-01 8.349519968032836914e-02 1.000000000000000000e+02
5.051557421684265137e-01 -9.057248830795288086e-01 -1.642561852931976041e-01 5.200000000000000000e+01
4.630163908004760742e-01 -8.305113315582275391e-01 1.167508289217949052e-01 1.000000000000000000e+02
4.986256062984467108e-01 -8.947505950927734375e-01 -1.257691681385040006e-01 5.400000000000000000e+01
4.644524157047271729e-01 -8.334290385246276855e-01 1.511157006025314053e-01 9.700000000000000000e+01
4.925451576709746759e-01 -8.842025399208068848e-01 -8.855023235082626343e-02 4.300000000000000000e+01
4.708640277385712225e-01 -8.456283211708068848e-01 1.881376653909682950e-01 6.400000000000000000e+01
4.846975505352020264e-01 -8.708295822143554688e-01 -5.223128572106360695e-02 7.400000000000000000e+01
4.727745950222014826e-01 -8.497572541236877441e-01 2.245011478662491122e-01 5.400000000000000000e+01
4.791529476642609198e-01 -8.615754842758178711e-01 -1.720807328820228924e-02 8.600000000000000000e+01
4.441179335117340088e-01 -7.985782623291015625e-01 2.448428124189377109e-01 8.700000000000000000e+01
5.497726202011108398e-01 -9.918160438537597656e-01 -3.038535714149475098e-01 5.000000000000000000e+01
4.807064831256865900e-01 -8.675745129585266113e-01 1.731278747320175171e-02 6.700000000000000000e+01
5.372344255447387695e-01 -9.699949026107788086e-01 -2.559942901134490967e-01 7.200000000000000000e+01
4.701445698738098145e-01 -8.492115736007690430e-01 5.087054893374443054e-02 9.200000000000000000e+01
5.049307942390441895e-01 -9.120451211929321289e-01 -2.026391476392745972e-01 5.000000000000000000e+01
4.582385718822479248e-01 -8.280470371246337891e-01 8.279795199632644653e-02 1.000000000000000000e+02
5.039034485816955566e-01 -9.109397530555725098e-01 -1.648819297552109042e-01 5.200000000000000000e+01
4.620356857776641846e-01 -8.355969190597534180e-01 1.172383055090903958e-01 1.000000000000000000e+02
4.964595735073090155e-01 -8.982230424880981445e-01 -1.260129064321517944e-01 5.700000000000000000e+01
4.577180743217468262e-01 -8.281297683715820312e-01 1.498642116785048883e-01 1.000000000000000000e+02
4.856017231941223145e-01 -8.789407610893249512e-01 -8.785299211740493774e-02 4.500000000000000000e+01
4.745531082153319757e-01 -8.592969775199890137e-01 1.908089965581893921e-01 5.600000000000000000e+01
4.874462485313416082e-01 -8.830074071884155273e-01 -5.285931751132010720e-02 7.400000000000000000e+01
4.688640236854553223e-01 -8.496961593627929688e-01 2.240512520074844083e-01 5.200000000000000000e+01
4.761425554752349854e-01 -8.632428050041198730e-01 -1.720807328820228924e-02 8.600000000000000000e+01
4.375955164432526190e-01 -7.933573126792907715e-01 2.427722662687301913e-01 9.700000000000000000e+01
5.407231450080871582e-01 -9.835717082023620605e-01 -3.007477223873137873e-01 5.000000000000000000e+01
4.718968272209166925e-01 -8.587321043014526367e-01 1.710335910320281982e-02 8.100000000000000000e+01
5.329070091247558594e-01 -9.701562523841857910e-01 -2.555443942546843927e-01 7.000000000000000000e+01
4.700612127780913752e-01 -8.560996651649475098e-01 5.118456482887268066e-02 8.700000000000000000e+01
5.083583593368530273e-01 -9.258484244346618652e-01 -2.053104788064956943e-01 5.300000000000000000e+01
4.563039541244506836e-01 -8.313881754875183105e-01 8.297226577997207642e-02 1.000000000000000000e+02
4.997704923152924139e-01 -9.109612703323364258e-01 -1.645690500736237127e-01 5.300000000000000000e+01
4.610251188278198242e-01 -8.406857252120971680e-01 1.177257820963859974e-01 1.000000000000000000e+02
4.923669695854187012e-01 -8.982098102569580078e-01 -1.257691681385040006e-01 5.400000000000000000e+01
4.584766626358032227e-01 -8.367312550544738770e-01 1.511157006025314053e-01 1.000000000000000000e+02
4.834881126880645752e-01 -8.823777437210083008e-01 -8.802729845046997070e-02 4.700000000000000000e+01
4.677782952785491943e-01 -8.540606498718261719e-01 1.892825216054916104e-01 5.500000000000000000e+01
4.881975352764130194e-01 -8.917110562324523926e-01 -5.327800288796424866e-02 7.400000000000000000e+01
4.743149578571320135e-01 -8.667130470275878906e-01 2.281003743410109919e-01 5.300000000000000000e+01
4.740860760211945135e-01 -8.666539788246154785e-01 -1.724297739565372120e-02 7.600000000000000000e+01
4.357506334781646729e-01 -7.965747714042663574e-01 2.432899028062819879e-01 9.000000000000000000e+01
5.382112860679626465e-01 -9.871492981910705566e-01 -3.012653589248657227e-01 5.100000000000000000e+01
4.650686979293823242e-01 -8.533506393432617188e-01 1.696373894810676922e-02 9.500000000000000000e+01
5.313817858695983887e-01 -9.754331111907958984e-01 -2.564442157745360773e-01 7.700000000000000000e+01
4.699354469776154120e-01 -8.629974126815795898e-01 5.149858072400093079e-02 7.700000000000000000e+01
5.041846036911010742e-01 -9.258931279182434082e-01 -2.049288600683212003e-01 5.500000000000000000e+01
4.533990919589995783e-01 -8.329759240150451660e-01 8.297226577997207642e-02 1.000000000000000000e+02
4.890349209308624268e-01 -8.988189101219177246e-01 -1.620661020278930942e-01 5.500000000000000000e+01
4.542940855026245117e-01 -8.353143930435180664e-01 1.167508289217949052e-01 1.000000000000000000e+02
4.939692020416259766e-01 -9.086432456970214844e-01 -1.269878596067428866e-01 5.700000000000000000e+01
4.593258500099182129e-01 -8.452692031860351562e-01 1.523671746253967008e-01 9.300000000000000000e+01
4.785024821758270264e-01 -8.805587887763977051e-01 -8.767867833375930786e-02 4.700000000000000000e+01
4.629200696945189875e-01 -8.522379398345947266e-01 1.885192841291427890e-01 5.800000000000000000e+01
4.765048325061798096e-01 -8.776127099990844727e-01 -5.233595520257949829e-02 7.200000000000000000e+01
4.722162187099456787e-01 -8.700761795043945312e-01 2.285502701997756958e-01 5.500000000000000000e+01
4.729650914669036865e-01 -8.718189597129821777e-01 -1.731278747320175171e-02 7.300000000000000000e+01
4.383535683155059814e-01 -8.083559274673461914e-01 2.463957369327544888e-01 7.000000000000000000e+01
5.402752161026000977e-01 -9.992181062698364258e-01 -3.043712079524993896e-01 5.100000000000000000e+01
4.639886915683745783e-01 -8.584872484207153320e-01 1.703354902565478932e-02 9.100000000000000000e+01
5.233423113822937012e-01 -9.687094092369079590e-01 -2.541946768760681152e-01 8.100000000000000000e+01
4.669201672077178955e-01 -8.646325469017028809e-01 5.149858072400093079e-02 7.800000000000000000e+01
5.028153061866760254e-01 -9.311023354530334473e-01 -2.056920975446701050e-01 5.500000000000000000e+01
4.542743265628815252e-01 -8.415665626525878906e-01 8.366951346397399902e-02 1.000000000000000000e+02
4.877705276012421209e-01 -9.039973616600036621e-01 -1.626918464899063110e-01 5.400000000000000000e+01
4.513755142688751221e-01 -8.368951082229614258e-01 1.167508289217949052e-01 1.000000000000000000e+02
4.870263636112213135e-01 -9.033726453781127930e-01 -1.260129064321517944e-01 5.700000000000000000e+01
4.582467079162598211e-01 -8.503453135490417480e-01 1.529929041862488071e-01 8.400000000000000000e+01
4.773162007331848145e-01 -8.857315778732299805e-01 -8.802729845046997070e-02 4.700000000000000000e+01
4.599423706531525213e-01 -8.538486361503601074e-01 1.885192841291427890e-01 6.000000000000000000e+01
4.724916219711304266e-01 -8.775121569633483887e-01 -5.223128572106360695e-02 7.400000000000000000e+01
4.710233807563781738e-01 -8.751512169837951660e-01 2.294500768184661865e-01 5.200000000000000000e+01
4.699189960956572931e-01 -8.734645843505859375e-01 -1.731278747320175171e-02 7.600000000000000000e+01
4.320094585418701172e-01 -8.030000329017639160e-01 2.443251758813858032e-01 7.600000000000000000e+01
5.386098027229309082e-01 -1.004503011703490989e+00 -3.054064810276030939e-01 4.900000000000000000e+01
4.647677838802338202e-01 -8.671516776084899902e-01 1.717316731810570110e-02 8.200000000000000000e+01
5.227185487747192383e-01 -9.756835699081420898e-01 -2.555443942546843927e-01 7.700000000000000000e+01
4.572989940643311102e-01 -8.539323210716247559e-01 5.076587572693824768e-02 9.400000000000000000e+01
4.986352324485778809e-01 -9.311211109161376953e-01 -2.053104788064956943e-01 5.700000000000000000e+01
4.494533836841583252e-01 -8.396340012550354004e-01 8.332089334726333618e-02 1.000000000000000000e+02
4.836800694465637207e-01 -9.039527773857116699e-01 -1.623789817094803134e-01 5.600000000000000000e+01
4.475152194499968927e-01 -8.367151618003845215e-01 1.165070906281470975e-01 1.000000000000000000e+02
4.791904389858245850e-01 -8.963140845298767090e-01 -1.247942075133323947e-01 5.500000000000000000e+01
4.552756547927855890e-01 -8.519396781921386719e-01 1.529929041862488071e-01 8.200000000000000000e+01
4.742215275764464777e-01 -8.873923420906066895e-01 -8.802729845046997070e-02 4.700000000000000000e+01
4.606591463088989258e-01 -8.623756170272827148e-01 1.900457590818404874e-01 5.200000000000000000e+01
4.703663885593413752e-01 -8.809179663658142090e-01 -5.233595520257949829e-02 7.000000000000000000e+01
4.624601602554320734e-01 -8.664748668670654297e-01 2.267506569623946866e-01 5.000000000000000000e+01
4.687497019767761230e-01 -8.786281943321228027e-01 -1.738259755074977875e-02 6.800000000000000000e+01
4.392064809799193781e-01 -8.232521414756774902e-01 2.500191926956176758e-01 6.100000000000000000e+01
5.314723849296569824e-01 -9.995540976524353027e-01 -3.033359348773955744e-01 3.500000000000000000e+01
4.636150300502777100e-01 -8.723002672195434570e-01 1.724297739565372120e-02 7.500000000000000000e+01
5.238809585571289062e-01 -9.861069917678833008e-01 -2.577939033508300781e-01 8.100000000000000000e+01
4.572758674621582031e-01 -8.607355356216430664e-01 5.107989162206649780e-02 8.400000000000000000e+01
4.880157113075255793e-01 -9.189845323562622070e-01 -2.022575289011001864e-01 5.600000000000000000e+01
4.483880698680878241e-01 -8.447174429893493652e-01 8.366951346397399902e-02 1.000000000000000000e+02
4.860768914222716730e-01 -9.161054491996765137e-01 -1.642561852931976041e-01 5.600000000000000000e+01
4.492423534393311102e-01 -8.470407128334045410e-01 1.177257820963859974e-01 1.000000000000000000e+02
4.779183864593505859e-01 -9.014890789985656738e-01 -1.252816915512084961e-01 5.900000000000000000e+01
4.468965232372283936e-01 -8.429730534553527832e-01 1.511157006025314053e-01 9.900000000000000000e+01
4.711210429668427069e-01 -8.890422582626342773e-01 -8.802729845046997070e-02 4.700000000000000000e+01
4.622409343719481867e-01 -8.726528882980346680e-01 1.919538527727127075e-01 4.300000000000000000e+01
4.672885239124298096e-01 -8.825544714927673340e-01 -5.233595520257949829e-02 7.200000000000000000e+01
4.612559378147125244e-01 -8.715286850929260254e-01 2.276504635810852051e-01 5.000000000000000000e+01
4.610043764114379883e-01 -8.714211583137512207e-01 -1.720807328820228924e-02 8.600000000000000000e+01
4.399436116218566895e-01 -8.316107392311096191e-01 2.520897388458251953e-01 5.200000000000000000e+01
5.198711156845092773e-01 -9.860233068466186523e-01 -2.986771762371063232e-01 1.400000000000000000e+01
4.540410339832305908e-01 -8.615298867225646973e-01 1.699864305555820118e-02 9.100000000000000000e+01
5.231603980064392090e-01 -9.931020736694335938e-01 -2.591436207294464111e-01 7.500000000000000000e+01
4.569097459316254217e-01 -8.677074313163757324e-01 5.139390751719474792e-02 7.400000000000000000e+01
4.866343140602111816e-01 -9.241567254066467285e-01 -2.030207663774490079e-01 5.700000000000000000e+01
4.380127787590026855e-01 -8.321728110313415527e-01 8.227501809597015381e-02 1.000000000000000000e+02
4.828761219978333075e-01 -9.177965521812438965e-01 -1.642561852931976041e-01 5.600000000000000000e+01
4.490548372268676758e-01 -8.538745045661926270e-01 1.184570044279099066e-01 9.600000000000000000e+01
4.756923615932465155e-01 -9.049088954925537109e-01 -1.255254298448562900e-01 5.700000000000000000e+01
4.520735144615172785e-01 -8.603433370590209961e-01 1.539315134286879938e-01 6.400000000000000000e+01
4.606007635593413752e-01 -8.765715360641479492e-01 -8.663281053304672241e-02 5.800000000000000000e+01
4.573661684989929199e-01 -8.707848787307739258e-01 1.911906152963638028e-01 4.300000000000000000e+01
4.707038700580596924e-01 -8.965587615966796875e-01 -5.306866019964218140e-02 7.400000000000000000e+01
4.627386927604674738e-01 -8.817612528800964355e-01 2.298999726772308072e-01 4.800000000000000000e+01
4.588886499404907227e-01 -8.747959136962890625e-01 -1.724297739565372120e-02 7.600000000000000000e+01
4.395839869976044256e-01 -8.383503556251525879e-01 2.536426782608032227e-01 4.500000000000000000e+01
5.155310630798339844e-01 -9.861199855804443359e-01 -2.981595396995543878e-01 2.000000000000000000e+00
4.501048326492310125e-01 -8.613372445106506348e-01 1.696373894810676922e-02 8.900000000000000000e+01
5.196906328201293945e-01 -9.949222207069396973e-01 -2.591436207294464111e-01 8.600000000000000000e+01
4.614274501800537109e-01 -8.833802342414855957e-01 5.223128572106360695e-02 5.400000000000000000e+01
4.870400726795197088e-01 -9.328110218048095703e-01 -2.045472413301467896e-01 5.600000000000000000e+01
4.406362771987915039e-01 -8.442945480346679688e-01 8.332089334726333618e-02 1.000000000000000000e+02
4.732739031314849854e-01 -9.072168469429016113e-01 -1.620661020278930942e-01 5.400000000000000000e+01
4.460715353488922119e-01 -8.554368019104003906e-01 1.184570044279099066e-01 8.400000000000000000e+01
4.752833545207976740e-01 -9.118448495864868164e-01 -1.262566447257995883e-01 5.900000000000000000e+01
4.508930742740631104e-01 -8.654198646545410156e-01 1.545572578907012939e-01 5.600000000000000000e+01
4.630617499351500910e-01 -8.887757062911987305e-01 -8.767867833375930786e-02 5.000000000000000000e+01
4.506964385509490967e-01 -8.654110431671142578e-01 1.896641403436661044e-01 4.800000000000000000e+01
4.648047387599945068e-01 -8.928815722465515137e-01 -5.275464430451393127e-02 7.200000000000000000e+01
4.632560610771179199e-01 -8.902859687805175781e-01 2.316995859146117887e-01 4.800000000000000000e+01
4.586004614830017090e-01 -8.817146420478820801e-01 -1.734769158065319061e-02 6.500000000000000000e+01
4.394757747650145929e-01 -8.449451327323913574e-01 2.551955878734589178e-01 4.300000000000000000e+01
1.220648765563965066e+00 -2.354870319366455078e+00 -7.107170820236206055e-01 1.100000000000000000e+01
4.489353597164154053e-01 -8.664541840553283691e-01 1.703354902565478932e-02 8.100000000000000000e+01
5.144221186637878418e-01 -9.932693243026733398e-01 -2.582437992095947266e-01 8.300000000000000000e+01
4.546670019626616877e-01 -8.778914213180541992e-01 5.181259661912918091e-02 6.600000000000000000e+01
4.801706969738007147e-01 -9.275314807891845703e-01 -2.030207663774490079e-01 5.300000000000000000e+01
4.422647655010222834e-01 -8.546751141548156738e-01 8.419244736433029175e-02 8.400000000000000000e+01
4.682891666889191229e-01 -9.053542017936706543e-01 -1.614403724670409879e-01 5.300000000000000000e+01
4.385243058204650879e-01 -8.481718897819519043e-01 1.172383055090903958e-01 9.000000000000000000e+01
4.693633913993834894e-01 -9.082077741622924805e-01 -1.255254298448562900e-01 6.100000000000000000e+01
4.487760663032531738e-01 -8.687435388565063477e-01 1.548701226711272916e-01 5.200000000000000000e+01
4.599564969539641779e-01 -8.903867006301879883e-01 -8.767867833375930786e-02 5.000000000000000000e+01
4.467720985412598211e-01 -8.652345538139343262e-01 1.892825216054916104e-01 4.200000000000000000e+01
4.561889171600341797e-01 -8.838497996330261230e-01 -5.212661251425743103e-02 6.900000000000000000e+01
4.601455628871917725e-01 -8.918976187705993652e-01 2.316995859146117887e-01 4.800000000000000000e+01
4.610191583633422852e-01 -8.939737677574157715e-01 -1.755711995065211903e-02 5.800000000000000000e+01
4.427218139171599787e-01 -8.584929108619689941e-01 2.588190436363220215e-01 4.200000000000000000e+01
1.223433136940001997e+00 -2.379521846771239790e+00 -7.169287800788879395e-01 1.500000000000000000e+01
4.506299197673798163e-01 -8.768309950828552246e-01 1.720807328820228924e-02 7.000000000000000000e+01
5.111255049705505371e-01 -9.949697852134704590e-01 -2.582437992095947266e-01 8.300000000000000000e+01
4.433889091014862061e-01 -8.634827733039855957e-01 5.087054893374443054e-02 8.400000000000000000e+01
4.851633608341217041e-01 -9.448368549346923828e-01 -2.064553350210190097e-01 5.800000000000000000e+01
4.430672824382781982e-01 -8.632271289825439453e-01 8.488969504833221436e-02 7.800000000000000000e+01
4.724980294704437256e-01 -9.209626317024230957e-01 -1.639433205127716064e-01 5.400000000000000000e+01
4.338975846767426092e-01 -8.460887074470520020e-01 1.167508289217949052e-01 9.500000000000000000e+01
4.636324644088745117e-01 -9.044597148895263672e-01 -1.247942075133323947e-01 5.900000000000000000e+01
4.460446238517761230e-01 -8.701490759849548340e-01 1.548701226711272916e-01 5.300000000000000000e+01
4.615440964698792059e-01 -9.007729291915893555e-01 -8.855023235082626343e-02 4.500000000000000000e+01
4.519550800323485773e-01 -8.824379444122314453e-01 1.927170902490616122e-01 4.000000000000000000e+01
4.550757408142089844e-01 -8.889133930206298828e-01 -5.233595520257949829e-02 6.700000000000000000e+01
4.500834941864014227e-01 -8.795402646064758301e-01 2.281003743410109919e-01 4.600000000000000000e+01
4.553201794624329168e-01 -8.901566863059997559e-01 -1.745240576565266002e-02 5.900000000000000000e+01
4.467579722404479980e-01 -8.737936019897460938e-01 2.629601359367371161e-01 4.400000000000000000e+01
1.211610317230225053e+00 -2.376893520355225053e+00 -7.148581743240356445e-01 1.400000000000000000e+01
4.511978328227996826e-01 -8.855255842208862305e-01 1.734769158065319061e-02 6.300000000000000000e+01
5.120713114738464355e-01 -1.005430340766906960e+00 -2.604933083057404120e-01 8.100000000000000000e+01
4.495873153209685724e-01 -8.827456235885620117e-01 5.191726982593535683e-02 5.800000000000000000e+01
4.756274819374083918e-01 -9.342775940895080566e-01 -2.037840038537979126e-01 5.600000000000000000e+01
4.346297979354857843e-01 -8.541142344474792480e-01 8.384382724761962891e-02 9.100000000000000000e+01
4.692803919315338135e-01 -9.226063489913940430e-01 -1.639433205127716064e-01 5.300000000000000000e+01
4.390385746955872137e-01 -8.635237812995910645e-01 1.189444810152053972e-01 7.300000000000000000e+01
4.613718688488007147e-01 -9.078422188758850098e-01 -1.250379532575607022e-01 6.100000000000000000e+01
4.348005056381226141e-01 -8.559275865554809570e-01 1.520542949438095093e-01 5.900000000000000000e+01
4.574946463108062744e-01 -9.006022214889526367e-01 -8.837592601776123047e-02 4.200000000000000000e+01
4.506497383117675781e-01 -8.875111937522888184e-01 1.934803277254104892e-01 3.600000000000000000e+01
4.582976698875427246e-01 -9.029634594917297363e-01 -5.306866019964218140e-02 6.400000000000000000e+01
4.514189660549163818e-01 -8.897954225540161133e-01 2.303498834371567050e-01 4.500000000000000000e+01
4.494968950748444159e-01 -8.863902091979980469e-01 -1.734769158065319061e-02 6.500000000000000000e+01
4.445785582065582275e-01 -8.770709037780761719e-01 2.634778022766112726e-01 4.300000000000000000e+01
1.195922136306762917e+00 -2.367523431777954102e+00 -7.107170820236206055e-01 1.400000000000000000e+01
4.461465775966643732e-01 -8.836032748222351074e-01 1.727788150310516010e-02 6.300000000000000000e+01
5.118949413299560547e-01 -1.014259338378906028e+00 -2.622929215431212824e-01 7.200000000000000000e+01
4.463488757610321045e-01 -8.843874931335449219e-01 5.191726982593535683e-02 6.300000000000000000e+01
4.704314470291138250e-01 -9.325088858604431152e-01 -2.030207663774490079e-01 5.100000000000000000e+01
4.305993020534514826e-01 -8.539224863052368164e-01 8.366951346397399902e-02 8.400000000000000000e+01
4.667848348617554266e-01 -9.260841608047485352e-01 -1.642561852931976041e-01 5.000000000000000000e+01
4.394433498382567804e-01 -8.722183704376220703e-01 1.199194341897964061e-01 5.200000000000000000e+01
4.580413401126862127e-01 -9.095271229743957520e-01 -1.250379532575607022e-01 5.700000000000000000e+01
4.344756007194519043e-01 -8.627329468727111816e-01 1.529929041862488071e-01 4.000000000000000000e+01
4.523990452289580744e-01 -8.987137079238891602e-01 -8.802729845046997070e-02 3.900000000000000000e+01
4.482762515544890802e-01 -8.909107446670532227e-01 1.938619464635848999e-01 2.600000000000000000e+01
4.567798674106597900e-01 -9.082056879997253418e-01 -5.327800288796424866e-02 5.900000000000000000e+01
4.534064829349517822e-01 -9.018905758857727051e-01 2.330492883920670111e-01 4.200000000000000000e+01
4.498366117477416992e-01 -8.951788544654846191e-01 -1.748731173574924122e-02 5.600000000000000000e+01
4.387596249580382746e-01 -8.735154867172241211e-01 2.619248628616333008e-01 2.500000000000000000e+01
1.191110730171204057e+00 -2.378593206405640093e+00 -7.127876281738281250e-01 1.500000000000000000e+01
4.403742849826812744e-01 -8.797906637191772461e-01 1.717316731810570110e-02 8.200000000000000000e+01
5.022476911544799805e-01 -1.003840565681457964e+00 -2.591436207294464111e-01 6.300000000000000000e+01
4.468337297439575195e-01 -8.930848836898803711e-01 5.233595520257949829e-02 5.200000000000000000e+01
4.698079526424407959e-01 -9.394130706787109375e-01 -2.041656225919724066e-01 4.800000000000000000e+01
4.258342087268828791e-01 -8.518561124801635742e-01 8.332089334726333618e-02 5.600000000000000000e+01
4.591346085071564276e-01 -9.188725352287292480e-01 -1.626918464899063110e-01 4.800000000000000000e+01
4.248652756214141846e-01 -8.506602048873901367e-01 1.167508289217949052e-01 3.000000000000000000e+01
4.601837694644927979e-01 -9.217768311500549316e-01 -1.265003830194472989e-01 4.900000000000000000e+01
4.164617657661437988e-01 -8.341989517211914062e-01 1.476741284132004062e-01 3.600000000000000000e+01
4.554865360260009766e-01 -9.127666354179382324e-01 -8.924748003482818604e-02 3.400000000000000000e+01
4.223797023296356201e-01 -8.467924594879150391e-01 1.839398741722106934e-01 2.900000000000000000e+01
4.527156949043273926e-01 -9.080072045326232910e-01 -5.317332968115807273e-02 5.700000000000000000e+01
4.580785036087036133e-01 -9.191650748252868652e-01 2.370984107255935947e-01 3.900000000000000000e+01
4.520589411258698065e-01 -9.074831008911132812e-01 -1.769674010574818004e-02 5.500000000000000000e+01
4.460408091545104980e-01 -8.957937359809875488e-01 2.681365311145781916e-01 1.300000000000000000e+01
1.184518575668334961e+00 -2.386197090148925781e+00 -7.138229012489318848e-01 1.400000000000000000e+01
4.435223340988159180e-01 -8.938615918159484863e-01 1.741750165820122112e-02 5.600000000000000000e+01
4.857525527477263849e-01 -9.794003963470458984e-01 -2.523950934410095215e-01 2.200000000000000000e+01
4.383890032768250067e-01 -8.839035034179687500e-01 5.170792341232299805e-02 6.300000000000000000e+01
4.673979282379149836e-01 -9.428062438964843750e-01 -2.045472413301467896e-01 2.300000000000000000e+01
4.078191816806793213e-01 -8.229885697364807129e-01 8.035759627819061279e-02 4.600000000000000000e+01
4.585546553134918213e-01 -9.257800579071044922e-01 -1.636304557323456088e-01 4.000000000000000000e+01
4.139663279056549072e-01 -8.361271023750305176e-01 1.145571842789649963e-01 4.500000000000000000e+01
4.578438103199005127e-01 -9.251567125320434570e-01 -1.267441213130950928e-01 3.600000000000000000e+01
4.109188616275786798e-01 -8.303362727165222168e-01 1.467355340719223022e-01 6.500000000000000000e+01
4.602481424808502197e-01 -9.304235577583312988e-01 -9.081628173589706421e-02 3.000000000000000000e+01
4.037582278251647949e-01 -8.165838718414306641e-01 1.770707517862319946e-01 4.600000000000000000e+01
4.521981775760651190e-01 -9.149534702301025391e-01 -5.348734557628632286e-02 5.600000000000000000e+01
4.574566185474395752e-01 -9.259999394416809082e-01 2.384481132030487061e-01 2.600000000000000000e+01
4.533153772354125977e-01 -9.180206060409545898e-01 -1.787126436829566956e-02 5.300000000000000000e+01
4.481998383998870850e-01 -9.076610207557678223e-01 2.712423503398895264e-01 2.000000000000000000e+00
1.183005332946776900e+00 -2.404184341430664062e+00 -7.179640531539916992e-01 1.400000000000000000e+01
4.430471658706665039e-01 -9.007875323295593262e-01 1.752221584320068012e-02 5.500000000000000000e+01
1.369613289833069070e+00 -2.785876035690308061e+00 -7.166940569877624512e-01 9.000000000000000000e+00
4.405879974365233820e-01 -8.961825370788574219e-01 5.233595520257949829e-02 4.900000000000000000e+01
4.554454386234282892e-01 -9.268119931221008301e-01 -2.007310688495635986e-01 5.000000000000000000e+00
4.049439430236815851e-01 -8.244071006774902344e-01 8.035759627819061279e-02 5.700000000000000000e+01
4.614144563674926758e-01 -9.397873282432556152e-01 -1.658205389976500910e-01 2.600000000000000000e+01
4.066723585128784180e-01 -8.286567330360412598e-01 1.133384928107261935e-01 6.400000000000000000e+01
4.589829146862030029e-01 -9.356603026390075684e-01 -1.279628127813338956e-01 3.900000000000000000e+01
4.132377803325653076e-01 -8.424065709114074707e-01 1.486127376556395929e-01 6.900000000000000000e+01
4.605061709880828857e-01 -9.391801357269287109e-01 -9.151352941989898682e-02 2.600000000000000000e+01
4.078175425529479980e-01 -8.320915102958679199e-01 1.801236867904663086e-01 5.600000000000000000e+01
4.490016400814055841e-01 -9.165263772010803223e-01 -5.348734557628632286e-02 5.600000000000000000e+01
4.482223391532897949e-01 -9.153399467468261719e-01 2.352987974882126132e-01 1.200000000000000000e+01
4.474707841873168945e-01 -9.142090678215026855e-01 -1.776655018329620014e-02 5.500000000000000000e+01
1.168666720390320046e+00 -2.394000530242919922e+00 -7.138229012489318848e-01 1.500000000000000000e+01
4.437227547168732245e-01 -9.093636274337768555e-01 1.766183599829674114e-02 5.300000000000000000e+01
1.366834282875061035e+00 -2.802425622940063032e+00 -7.198433876037597656e-01 1.100000000000000000e+01
4.376137256622313898e-01 -8.976386785507202148e-01 5.233595520257949829e-02 4.800000000000000000e+01
1.626016259193419966e+00 -3.335304737091064009e+00 -7.212579846382141113e-01 8.000000000000000000e+00
3.979880809783936102e-01 -8.167199492454528809e-01 7.948603481054306030e-02 5.900000000000000000e+01
4.870053529739379883e-01 -9.998373389244079590e-01 -1.761452108621597012e-01 2.100000000000000000e+01
4.049360156059265137e-01 -8.317150473594665527e-01 1.135822311043739041e-01 6.700000000000000000e+01
4.612530767917633057e-01 -9.478073120117187500e-01 -1.294252425432204923e-01 4.200000000000000000e+01
4.010808765888214111e-01 -8.241623044013977051e-01 1.451711803674697876e-01 8.000000000000000000e+01
4.558103382587432861e-01 -9.370388984680175781e-01 -9.116490930318832397e-02 2.900000000000000000e+01
4.069183766841887873e-01 -8.368998169898986816e-01 1.808869242668152133e-01 6.500000000000000000e+01
4.522313177585601807e-01 -9.305068850517272949e-01 -5.422005057334899902e-02 5.800000000000000000e+01
4.521566629409790039e-01 -9.307664036750793457e-01 2.388980239629744928e-01 2.000000000000000000e+00
4.393556714057921808e-01 -9.048172831535339355e-01 -1.755711995065211903e-02 5.600000000000000000e+01
1.160302996635437012e+00 -2.398065328598022017e+00 -7.138229012489318848e-01 1.400000000000000000e+01
4.370632171630858820e-01 -9.037061333656311035e-01 1.752221584320068012e-02 5.200000000000000000e+01
1.359588146209717019e+00 -2.812443256378173828e+00 -7.211930751800537109e-01 9.000000000000000000e+00
4.362156093120574951e-01 -9.027574062347412109e-01 5.254530161619185707e-02 4.700000000000000000e+01
1.616072297096251997e+00 -3.344495773315430132e+00 -7.220212221145629883e-01 9.000000000000000000e+00
3.908021450042725164e-01 -8.091337680816650391e-01 7.861448079347610474e-02 5.700000000000000000e+01
4.809358716011046808e-01 -9.961944222450256348e-01 -1.752066016197204867e-01 2.800000000000000000e+01
4.046184718608856201e-01 -8.384869098663330078e-01 1.143134459853172025e-01 5.300000000000000000e+01
4.562169611454010010e-01 -9.458356499671936035e-01 -1.289377659559249878e-01 3.900000000000000000e+01
3.980574607849121094e-01 -8.256267905235290527e-01 1.451711803674697876e-01 7.700000000000000000e+01
4.508061408996582031e-01 -9.350348711013793945e-01 -9.081628173589706421e-02 3.200000000000000000e+01
4.022899568080902100e-01 -8.347779512405395508e-01 1.801236867904663086e-01 7.600000000000000000e+01
4.507139921188353937e-01 -9.356785416603088379e-01 -5.442939326167107322e-02 6.100000000000000000e+01
4.243884384632111151e-01 -8.814203739166259766e-01 2.258508652448653897e-01 1.000000000000000000e+00
4.431320726871489923e-01 -9.207604527473449707e-01 -1.783636026084423065e-02 5.600000000000000000e+01
1.151505827903748003e+00 -2.402302026748656782e+00 -7.138229012489318848e-01 1.400000000000000000e+01
4.328839778900145929e-01 -9.034985899925231934e-01 1.748731173574924122e-02 5.100000000000000000e+01
1.350112557411194070e+00 -2.819164991378784180e+00 -7.216429710388183594e-01 1.000000000000000000e+01
4.372157156467437744e-01 -9.133576154708862305e-01 5.306866019964218140e-02 4.400000000000000000e+01
1.614823102951050027e+00 -3.373417139053345171e+00 -7.269822955131530762e-01 1.000000000000000000e+01
3.955733776092528742e-01 -8.267359733581542969e-01 8.018328249454498291e-02 4.200000000000000000e+01
4.815428256988524836e-01 -1.006860733032227007e+00 -1.767709404230118075e-01 2.100000000000000000e+01
3.972617089748383123e-01 -8.310094475746154785e-01 1.130947470664978027e-01 3.800000000000000000e+01
4.630174934864044189e-01 -9.689948558807373047e-01 -1.318626254796982089e-01 4.100000000000000000e+01
4.011347293853759766e-01 -8.394876718521118164e-01 1.473612636327744085e-01 4.300000000000000000e+01
4.508107900619506836e-01 -9.438722729682922363e-01 -9.151352941989898682e-02 3.000000000000000000e+01
3.949985504150391180e-01 -8.273882865905761719e-01 1.782156080007553101e-01 8.100000000000000000e+01
4.481416940689086914e-01 -9.391267299652099609e-01 -5.453406646847724915e-02 6.600000000000000000e+01
4.102486371994019110e-01 -8.601041436195373535e-01 2.200021296739577970e-01 4.000000000000000000e+00
4.431966543197631836e-01 -9.295986294746398926e-01 -1.797597855329513897e-02 5.500000000000000000e+01
1.146429061889647993e+00 -2.413286685943603960e+00 -7.158935070037841797e-01 1.400000000000000000e+01
4.314430356025695801e-01 -9.086169004440307617e-01 1.755711995065211903e-02 4.900000000000000000e+01
1.336085796356200950e+00 -2.815057992935181108e+00 -7.193934917449951172e-01 9.000000000000000000e+00
4.357369542121887207e-01 -9.184871912002563477e-01 5.327800288796424866e-02 4.300000000000000000e+01
1.602196335792541948e+00 -3.377259492874145952e+00 -7.266006469726562500e-01 1.000000000000000000e+01
3.952461183071135919e-01 -8.335124254226684570e-01 8.070621639490127563e-02 4.600000000000000000e+01
2.002629995346068892e+00 -4.225139141082763672e+00 -7.405607700347900391e-01 8.000000000000000000e+00
3.850095272064208984e-01 -8.126576542854309082e-01 1.104136258363724032e-01 6.100000000000000000e+01
4.596322476863861084e-01 -9.706051945686340332e-01 -1.318626254796982089e-01 3.900000000000000000e+01
4.056613147258759100e-01 -8.570214509963989258e-01 1.501770913600921908e-01 2.000000000000000000e+01
4.509229362010955811e-01 -9.526435136795043945e-01 -9.221077710390090942e-02 3.200000000000000000e+01
3.912683725357056219e-01 -8.269873857498168945e-01 1.778339892625808993e-01 6.300000000000000000e+01
4.380299150943756104e-01 -9.262410402297973633e-01 -5.369669198989868164e-02 6.000000000000000000e+01
3.964172899723052979e-01 -8.386272192001342773e-01 2.141534090042113980e-01 1.800000000000000000e+01
4.390947818756104071e-01 -9.293319582939147949e-01 -1.794107444584370006e-02 5.300000000000000000e+01
1.139243125915526900e+00 -2.418823003768920898e+00 -7.164111137390136719e-01 1.500000000000000000e+01
4.318345487117766779e-01 -9.172795414924621582e-01 1.769674010574818004e-02 4.500000000000000000e+01
1.331721782684325950e+00 -2.830052852630614790e+00 -7.220928668975830078e-01 9.000000000000000000e+00
4.275882840156555176e-01 -9.090831875801086426e-01 5.264997109770774841e-02 3.900000000000000000e+01
1.585974454879760964e+00 -3.371894836425780806e+00 -7.243109345436096191e-01 9.000000000000000000e+00
3.933275938034058172e-01 -8.366216421127319336e-01 8.088053017854690552e-02 6.000000000000000000e+01
1.984407186508178933e+00 -4.222817420959472656e+00 -7.389963865280151367e-01 1.100000000000000000e+01
3.840004503726959229e-01 -8.175234794616699219e-01 1.109011024236678938e-01 7.200000000000000000e+01
4.538801610469818115e-01 -9.667333364486694336e-01 -1.311314105987549106e-01 3.200000000000000000e+01
3.970903158187866211e-01 -8.457748889923095703e-01 1.479870080947875977e-01 2.100000000000000000e+01
4.536863863468170166e-01 -9.667592048645019531e-01 -9.343095868825912476e-02 3.400000000000000000e+01
3.843551278114318848e-01 -8.193932175636291504e-01 1.759258955717087070e-01 4.300000000000000000e+01
4.400432109832764227e-01 -9.385386705398559570e-01 -5.432472378015518188e-02 6.000000000000000000e+01
3.911532163619995117e-01 -8.346434831619262695e-01 2.128036916255950928e-01 2.900000000000000000e+01
4.411002099514008123e-01 -9.416481256484985352e-01 -1.815050281584262848e-02 5.200000000000000000e+01
1.129975914955138938e+00 -2.421034336090087891e+00 -7.158935070037841797e-01 1.500000000000000000e+01
4.353933930397034247e-01 -9.332788586616516113e-01 1.797597855329513897e-02 3.700000000000000000e+01
1.318540692329406960e+00 -2.827619552612305132e+00 -7.202932834625244141e-01 9.000000000000000000e+00
4.277874529361724854e-01 -9.178113341331481934e-01 5.306866019964218140e-02 3.000000000000000000e+01
1.580000519752501997e+00 -3.389866590499877930e+00 -7.269822955131530762e-01 1.000000000000000000e+01
3.895634710788726807e-01 -8.361834883689880371e-01 8.070621639490127563e-02 6.800000000000000000e+01
1.975491881370543990e+00 -4.242253780364990234e+00 -7.411864995956420898e-01 1.100000000000000000e+01
3.853328227996826172e-01 -8.278573155403137207e-01 1.121197938919066966e-01 7.500000000000000000e+01
4.530149698257445734e-01 -9.737113118171691895e-01 -1.318626254796982089e-01 1.800000000000000000e+01
3.764956593513488770e-01 -8.096099495887756348e-01 1.414167582988739014e-01 3.400000000000000000e+01
4.477886259555817206e-01 -9.629171490669250488e-01 -9.290802478790283203e-02 3.000000000000000000e+01
3.864577710628510077e-01 -8.314117789268493652e-01 1.782156080007553101e-01 4.500000000000000000e+01
4.392890632152556818e-01 -9.455028772354125977e-01 -5.463873967528343201e-02 5.600000000000000000e+01
3.906998038291931152e-01 -8.413061499595642090e-01 2.141534090042113980e-01 3.600000000000000000e+01
4.344427883625031073e-01 -9.359268546104431152e-01 -1.801088266074657093e-02 4.500000000000000000e+01
4.333678483963013250e-01 -9.340379238128662109e-01 2.759011089801787775e-01 1.000000000000000000e+00
1.117463350296020952e+00 -2.416196823120117188e+00 -7.133052945137023926e-01 1.300000000000000000e+01
4.262593388557434082e-01 -9.220870733261108398e-01 1.773164421319961895e-02 1.200000000000000000e+01
1.313566803932189941e+00 -2.842818975448607954e+00 -7.229927182197570801e-01 9.000000000000000000e+00
4.371426403522490900e-01 -9.464972019195556641e-01 5.463873967528343201e-02 8.000000000000000000e+00
1.564042091369628906e+00 -3.386449337005614790e+00 -7.250741720199584961e-01 9.000000000000000000e+00
3.891475200653076172e-01 -8.429650068283081055e-01 8.122915029525756836e-02 4.400000000000000000e+01
1.960671663284301980e+00 -4.249124050140380859e+00 -7.411864995956420898e-01 1.100000000000000000e+01
3.807779252529143732e-01 -8.255921602249145508e-01 1.116323173046112061e-01 8.100000000000000000e+01
2.402647256851195845e+00 -5.211744308471679688e+00 -7.046485543251037598e-01 1.500000000000000000e+01
3.746358454227448065e-01 -8.126479387283325195e-01 1.417296230792998990e-01 5.700000000000000000e+01
4.410894215106964111e-01 -9.572362899780273438e-01 -9.221077710390090942e-02 1.900000000000000000e+01
3.786253631114960272e-01 -8.220565319061279297e-01 1.759258955717087070e-01 5.300000000000000000e+01
4.368211925029755194e-01 -9.488447904586791992e-01 -5.474340915679932335e-02 3.600000000000000000e+01
3.836875855922698975e-01 -8.338132500648498535e-01 2.119038999080657959e-01 4.500000000000000000e+01
4.286663234233856201e-01 -9.319874048233032227e-01 -1.790616847574710846e-02 1.100000000000000000e+01
3.858689367771149237e-01 -8.389392495155334473e-01 2.474310100078583041e-01 4.000000000000000000e+00
1.111436843872070090e+00 -2.425351381301879883e+00 -7.148581743240356445e-01 1.500000000000000000e+01
1.302013039588928001e+00 -2.843843221664429155e+00 -7.220928668975830078e-01 9.000000000000000000e+00
1.557930350303649902e+00 -3.404384851455688032e+00 -7.277455329895019531e-01 1.000000000000000000e+01
3.812300860881804865e-01 -8.334472179412841797e-01 8.018328249454498291e-02 3.600000000000000000e+01
1.942541956901550071e+00 -4.248755931854248047e+00 -7.399350404739379883e-01 1.100000000000000000e+01
3.770686686038970947e-01 -8.251107931137084961e-01 1.113885790109633983e-01 6.500000000000000000e+01
2.391038417816162109e+00 -5.234544754028320312e+00 -7.065984606742858887e-01 1.600000000000000000e+01
3.757569789886475164e-01 -8.230003118515014648e-01 1.432939767837524137e-01 7.700000000000000000e+01
4.402278363704680841e-01 -9.642074108123779297e-01 -9.273371100425720215e-02 3.000000000000000000e+00
3.733083009719849188e-01 -8.180149793624877930e-01 1.747810393571853915e-01 6.100000000000000000e+01
3.848168849945067804e-01 -8.440132141113281250e-01 2.141534090042113980e-01 5.000000000000000000e+01
3.835923075675963800e-01 -8.421059250831604004e-01 2.479486465454102118e-01 1.600000000000000000e+01
1.102914094924926980e+00 -2.431360483169556108e+00 -7.153758406639099121e-01 1.400000000000000000e+01
1.289475083351135032e+00 -2.845271587371826172e+00 -7.211930751800537109e-01 9.000000000000000000e+00
1.546467185020446999e+00 -3.413918256759643999e+00 -7.285087704658508301e-01 1.000000000000000000e+01
3.829578459262847900e-01 -8.457949757575988770e-01 8.122915029525756836e-02 2.100000000000000000e+01
1.929471492767333984e+00 -4.263381958007813388e+00 -7.411864995956420898e-01 1.100000000000000000e+01
3.722613751888275146e-01 -8.229352235794067383e-01 1.109011024236678938e-01 5.600000000000000000e+01
2.375828742980957031e+00 -5.254539966583251953e+00 -7.080608606338500977e-01 2.000000000000000000e+01
3.727380037307739258e-01 -8.243719935417175293e-01 1.432939767837524137e-01 8.100000000000000000e+01
3.546333551406859907e+00 -7.846953868865966797e+00 -7.533742189407348633e-01 1.000000000000000000e+00
3.717810213565825861e-01 -8.230206966400146484e-01 1.755442768335342130e-01 7.000000000000000000e+01
1.122305488586425959e+01 -2.485631179809569957e+01 -1.429294943809509055e+00 1.300000000000000000e+01
3.807716667652130127e-01 -8.437083363533020020e-01 2.137034982442856113e-01 6.100000000000000000e+01
3.812976181507111151e-01 -8.452671766281127930e-01 2.484662830829620084e-01 4.300000000000000000e+01
1.101547479629517046e+00 -2.451054334640502930e+00 -7.200345993041992188e-01 1.400000000000000000e+01
1.284324645996093972e+00 -2.860421895980834961e+00 -7.238925099372863770e-01 9.000000000000000000e+00
1.532933235168457031e+00 -3.415713310241699219e+00 -7.277455329895019531e-01 9.000000000000000000e+00
3.832649886608123779e-01 -8.543980717658996582e-01 8.192639797925949097e-02 1.500000000000000000e+01
1.917810559272765891e+00 -4.277301311492919922e+00 -7.424379587173461914e-01 1.100000000000000000e+01
3.701983690261840820e-01 -8.260411620140075684e-01 1.111448407173157016e-01 5.600000000000000000e+01
2.360718488693236861e+00 -5.270047664642333984e+00 -7.090358138084411621e-01 1.800000000000000000e+01
3.674354851245880127e-01 -8.202598094940185547e-01 1.423553675413131991e-01 8.600000000000000000e+01
3.170448303222655806e+00 -7.080993652343750000e+00 -6.787689328193664551e-01 1.000000000000000000e+00
3.721137642860413153e-01 -8.314813971519470215e-01 1.770707517862319946e-01 6.900000000000000000e+01
1.108565807342528942e+01 -2.478230094909667969e+01 -1.422805309295654075e+00 1.300000000000000000e+01
3.738471567630767822e-01 -8.361372351646423340e-01 2.114539891481400091e-01 6.400000000000000000e+01
3.751918971538544256e-01 -8.395380973815917969e-01 2.463957369327544888e-01 8.000000000000000000e+01
1.087484717369080034e+00 -2.442530632019042969e+00 -7.164111137390136719e-01 1.300000000000000000e+01
