-3.625698983669281006e-01 -3.864382266998291016e+00 -7.544587850570678711e-01 9.000000000000000000e+00
-4.634026288986206055e-01 -4.920619964599609375e+00 -7.827980518341064453e-01 9.000000000000000000e+00
-6.714084148406982422e-01 -7.102758884429931641e+00 -8.759968280792236328e-01 1.000000000000000000e+00
-4.008362293243408203e+00 -4.240404129028320312e+01 6.746079921722412109e+00 1.400000000000000000e+01
-2.382720232009888139e+00 -2.506645393371582031e+01 -1.319598793983459029e+00 1.100000000000000000e+01
-4.442089557647705078e+00 -4.655870056152343750e+01 1.253201770782471058e+01 1.300000000000000000e+01
-3.121082484722136896e-01 -3.211985588073730025e+00 -7.450379133224487305e-01 8.000000000000000000e+00
-3.779590725898743231e-01 -3.882633447647095171e+00 -7.582749724388122559e-01 9.000000000000000000e+00
-4.807680547237396240e-01 -4.920938491821289062e+00 -7.831109166145324707e-01 9.000000000000000000e+00
-6.961975693702697754e-01 -7.100371837615966797e+00 -8.759968280792236328e-01 1.000000000000000000e+00
-2.467068910598754883e+00 -2.502618217468262074e+01 -1.317924022674560991e+00 1.100000000000000000e+01
-3.246609866619110107e-01 -3.218575716018677202e+00 -7.468374967575073242e-01 8.000000000000000000e+00
-3.904106914997100830e-01 -3.863642215728760210e+00 -7.548403739929199219e-01 9.000000000000000000e+00
-4.966088533401489258e-01 -4.897524833679199219e+00 -7.796693444252014160e-01 7.000000000000000000e+00
-7.222170233726501465e-01 -7.097772598266601562e+00 -8.759968280792236328e-01 1.000000000000000000e+00
-2.561216592788695845e+00 -2.504081344604491832e+01 -1.319180130958556907e+00 1.100000000000000000e+01
-3.354892432689666748e-01 -3.213546276092528853e+00 -7.459377050399780273e-01 8.000000000000000000e+00
-4.038949608802794855e-01 -3.862255811691284180e+00 -7.548403739929199219e-01 9.000000000000000000e+00
-5.174118876457214355e-01 -4.931124210357666016e+00 -7.853010296821594238e-01 7.000000000000000000e+00
-7.467806339263916016e-01 -7.093234062194824219e+00 -8.757531046867370605e-01 1.000000000000000000e+00
-2.649450302124022993e+00 -2.503966522216796875e+01 -1.319598793983459029e+00 1.100000000000000000e+01
-4.750670909881591797e+00 -4.482330703735352273e+01 1.040623569488525035e+01 1.300000000000000000e+01
-3.475410044193267822e-01 -3.220105648040771040e+00 -7.477372884750366211e-01 8.000000000000000000e+00
-4.169522821903228760e-01 -3.856918811798096147e+00 -7.540771365165710449e-01 8.000000000000000000e+00
-5.335566401481628418e-01 -4.919468879699707031e+00 -7.837366461753845215e-01 9.000000000000000000e+00
-7.706772089004516602e-01 -7.082690238952636719e+00 -8.747781515121459961e-01 1.000000000000000000e+00
-2.742048978805541992e+00 -2.507791519165039062e+01 -1.322110891342163086e+00 1.100000000000000000e+01
-4.900740146636962891e+00 -4.474833679199218750e+01 1.039273834228515980e+01 1.300000000000000000e+01
-3.579156696796417236e-01 -3.211125850677489790e+00 -7.459377050399780273e-01 8.000000000000000000e+00
-4.304128885269165039e-01 -3.855439901351929155e+00 -7.540771365165710449e-01 9.000000000000000000e+00
-5.491865873336791992e-01 -4.903834819793701172e+00 -7.815465927124023438e-01 9.000000000000000000e+00
-7.984983921051025391e-01 -7.107574462890625000e+00 -8.781905174255371094e-01 1.000000000000000000e+00
-2.830466747283935991e+00 -2.507612991333008168e+01 -1.322529673576354980e+00 2.300000000000000000e+01
-3.686771392822266180e-01 -3.205985069274901900e+00 -7.450379133224487305e-01 8.000000000000000000e+00
-4.440928995609282892e-01 -3.855864286422729048e+00 -7.544587850570678711e-01 9.000000000000000000e+00
-5.663008093833923340e-01 -4.901887893676757812e+00 -7.815465927124023438e-01 9.000000000000000000e+00
-8.201044797897338867e-01 -7.077137470245361328e+00 -8.747781515121459961e-01 1.000000000000000000e+00
-2.928604841232299805e+00 -2.515735435485839844e+01 -1.327344536781311035e+00 1.100000000000000000e+01
-3.807834088802338202e-01 -3.212419271469116211e+00 -7.468374967575073242e-01 8.000000000000000000e+00
-4.587068557739257812e-01 -3.864038467407227007e+00 -7.563668489456176758e-01 8.000000000000000000e+00
-5.836417078971862793e-01 -4.901842594146729404e+00 -7.818594574928283691e-01 9.000000000000000000e+00
-8.438617587089538574e-01 -7.066347599029541016e+00 -8.738031983375549316e-01 1.000000000000000000e+00
-3.011169433593750000e+00 -2.510335159301758168e+01 -1.325041770935059038e+00 2.300000000000000000e+01
-3.914341032505034845e-01 -3.211138963699340820e+00 -7.468374967575073242e-01 9.000000000000000000e+00
-4.705663323402404785e-01 -3.854701042175292969e+00 -7.548403739929199219e-01 8.000000000000000000e+00
-5.982131958007812500e-01 -4.886155128479003906e+00 -7.796693444252014160e-01 7.000000000000000000e+00
-5.584075927734375000e+00 -4.554436111450195312e+01 5.634019851684570312e+00 4.000000000000000000e+01
-8.692253828048706055e-01 -7.079272747039794922e+00 -8.757531046867370605e-01 1.000000000000000000e+00
-3.092931985855102983e+00 -2.508133506774901988e+01 -1.324413657188415971e+00 1.100000000000000000e+01
-4.011853337287902832e-01 -3.198151588439940962e+00 -7.441380620002746582e-01 8.000000000000000000e+00
-4.849976897239685059e-01 -3.860826730728148970e+00 -7.563668489456176758e-01 8.000000000000000000e+00
-6.157591938972473145e-01 -4.887957096099854404e+00 -7.802951335906982422e-01 7.000000000000000000e+00
-8.929361701011657715e-01 -7.068317413330078125e+00 -8.747781515121459961e-01 1.000000000000000000e+00
-3.181971549987792969e+00 -2.508227348327637074e+01 -1.325041770935059038e+00 1.100000000000000000e+01
-4.139030277729033869e-01 -3.204390287399291992e+00 -7.459377050399780273e-01 8.000000000000000000e+00
-4.976340234279633123e-01 -3.847340822219849077e+00 -7.540771365165710449e-01 8.000000000000000000e+00
-6.331621408462524414e-01 -4.881749629974365234e+00 -7.796693444252014160e-01 7.000000000000000000e+00
-9.224210381507873535e-01 -7.092556476593017578e+00 -8.781905174255371094e-01 1.000000000000000000e+00
-5.602330207824707031e+00 -4.301797866821289062e+01 6.870914459228515625e+00 1.500000000000000000e+01
-3.274915695190430132e+00 -2.507836341857910156e+01 -1.325460433959960938e+00 1.100000000000000000e+01
-5.689497947692871094e+00 -4.345040893554688211e+01 -7.649040818214416504e-01 1.100000000000000000e+01
-4.230348169803618830e-01 -3.187471628189086914e+00 -7.423384785652160645e-01 8.000000000000000000e+00
-5.126125216484069824e-01 -3.857257366180419922e+00 -7.563668489456176758e-01 9.000000000000000000e+00
-6.507206559181213379e-01 -4.883425712585449219e+00 -7.802951335906982422e-01 9.000000000000000000e+00
-9.487503767013549805e-01 -7.101099014282226562e+00 -8.796529173851013184e-01 1.000000000000000000e+00
-3.367215156555175781e+00 -2.510241127014160156e+01 -1.327344536781311035e+00 1.100000000000000000e+01
-4.352111220359802246e-01 -3.193699121475220171e+00 -7.441380620002746582e-01 8.000000000000000000e+00
-5.263391733169555664e-01 -3.857389688491820845e+00 -7.567484974861145020e-01 9.000000000000000000e+00
-6.693694591522216797e-01 -4.892867565155029297e+00 -7.821723222732543945e-01 9.000000000000000000e+00
-9.729925394058227539e-01 -7.093810558319091797e+00 -8.791654706001281738e-01 1.000000000000000000e+00
-3.456998109817504883e+00 -2.510633277893066051e+01 -1.328181862831115945e+00 1.100000000000000000e+01
-4.490551948547362726e-01 -3.211460113525391069e+00 -7.486370801925659180e-01 8.000000000000000000e+00
-5.381674766540527344e-01 -3.843863010406494141e+00 -7.544587850570678711e-01 9.000000000000000000e+00
-6.864446997642517090e-01 -4.890501022338867188e+00 -7.821723222732543945e-01 7.000000000000000000e+00
-9.949824810028076172e-01 -7.070713996887207031e+00 -8.767280578613281250e-01 1.000000000000000000e+00
-3.539027452468872070e+00 -2.505456161499023082e+01 -1.326088428497314009e+00 1.100000000000000000e+01
-4.613689482212067206e-01 -3.217589139938354048e+00 -7.504367232322692871e-01 8.000000000000000000e+00
-5.504658222198486328e-01 -3.834187746047974077e+00 -7.529323101043701172e-01 9.000000000000000000e+00
-6.995719075202941895e-01 -4.860702037811279297e+00 -7.777921557426452637e-01 7.000000000000000000e+00
-6.516273975372313565e+00 -4.521980667114257812e+01 5.609645843505859375e+00 4.000000000000000000e+01
-1.016256093978882058e+00 -7.043620586395263672e+00 -8.738031983375549316e-01 1.000000000000000000e+00
-3.632760047912598100e+00 -2.508554077148437855e+01 -1.328391194343566895e+00 1.100000000000000000e+01
-4.697642922401428223e-01 -3.196678638458251953e+00 -7.459377050399780273e-01 8.000000000000000000e+00
-5.664182901382446289e-01 -3.849724054336547852e+00 -7.563668489456176758e-01 9.000000000000000000e+00
-7.188404798507690430e-01 -4.873864173889160156e+00 -7.802951335906982422e-01 7.000000000000000000e+00
-1.042578816413878950e+00 -7.051812648773193359e+00 -8.752655982971191406e-01 1.000000000000000000e+00
-3.716198921203612837e+00 -2.504504776000976918e+01 -1.326925873756408913e+00 1.100000000000000000e+01
-4.794696271419525146e-01 -3.185384273529053178e+00 -7.436881661415100098e-01 7.000000000000000000e+00
-5.804380178451538086e-01 -3.851606130599976030e+00 -7.571300864219665527e-01 8.000000000000000000e+00
-7.346688508987426758e-01 -4.863512516021729404e+00 -7.790436148643493652e-01 7.000000000000000000e+00
-1.073131561279297097e+00 -7.087385177612304688e+00 -8.801404237747192383e-01 1.000000000000000000e+00
-3.807800292968750000e+00 -2.505956840515137074e+01 -1.328391194343566895e+00 1.100000000000000000e+01
-4.914761185646057129e-01 -3.189469099044799805e+00 -7.450379133224487305e-01 8.000000000000000000e+00
-5.944777727127075195e-01 -3.853437185287476030e+00 -7.578933238983154297e-01 8.000000000000000000e+00
-7.561691403388977051e-01 -4.890201091766357422e+00 -7.837366461753845215e-01 9.000000000000000000e+00
-1.091175794601439986e+00 -7.040439128875732422e+00 -8.747781515121459961e-01 1.000000000000000000e+00
-3.903845310211182085e+00 -2.510138320922851918e+01 -1.331322073936461958e+00 1.100000000000000000e+01
-5.026064515113830566e-01 -3.187734127044678178e+00 -7.450379133224487305e-01 8.000000000000000000e+00
-6.051701903343200684e-01 -3.833885431289672852e+00 -7.544587850570678711e-01 9.000000000000000000e+00
-7.710738182067871094e-01 -4.873873710632324219e+00 -7.815465927124023438e-01 7.000000000000000000e+00
-1.120097160339355025e+00 -7.064035415649414062e+00 -8.781905174255371094e-01 1.000000000000000000e+00
-3.985793113708496094e+00 -2.505209922790526988e+01 -1.329437971115112083e+00 1.100000000000000000e+01
-5.155920386314392090e-01 -3.197503566741942915e+00 -7.477372884750366211e-01 9.000000000000000000e+00
-6.191750168800354004e-01 -3.835625886917113814e+00 -7.552220225334167480e-01 9.000000000000000000e+00
-7.874511480331420898e-01 -4.867252349853515625e+00 -7.809208631515502930e-01 7.000000000000000000e+00
-1.144748449325561968e+00 -7.060082912445068359e+00 -8.781905174255371094e-01 1.000000000000000000e+00
-4.077065467834472656e+00 -2.506168937683105113e+01 -1.330694079399109109e+00 1.100000000000000000e+01
-5.242147445678710938e-01 -3.180302143096923828e+00 -7.441380620002746582e-01 8.000000000000000000e+00
-6.331993341445922852e-01 -3.837315320968627930e+00 -7.559852600097656250e-01 9.000000000000000000e+00
-8.018578886985778809e-01 -4.848882675170898438e+00 -7.784178853034973145e-01 7.000000000000000000e+00
-1.168087601661681907e+00 -7.048210144042968750e+00 -8.772155046463012695e-01 1.000000000000000000e+00
-4.171073913574218750e+00 -2.508670997619628906e+01 -1.332787513732909934e+00 1.100000000000000000e+01
-5.366074442863464355e-01 -3.186139583587646040e+00 -7.459377050399780273e-01 8.000000000000000000e+00
-6.472430229187011719e-01 -3.838953495025635210e+00 -7.567484974861145020e-01 9.000000000000000000e+00
-8.200951218605041504e-01 -4.853845596313476562e+00 -7.796693444252014160e-01 7.000000000000000000e+00
-1.195334434509276900e+00 -7.059747695922851562e+00 -8.791654706001281738e-01 1.000000000000000000e+00
-4.255941390991210938e+00 -2.505624389648437855e+01 -1.331950068473815918e+00 1.100000000000000000e+01
-5.470651984214782715e-01 -3.180406093597412109e+00 -7.450379133224487305e-01 9.000000000000000000e+00
-6.596400737762451172e-01 -3.830866575241088867e+00 -7.556036114692687988e-01 8.000000000000000000e+00
-8.403921127319335938e-01 -4.870419502258300781e+00 -7.827980518341064453e-01 4.000000000000000000e+00
-1.214558720588684082e+00 -7.024235248565673828e+00 -8.752655982971191406e-01 1.000000000000000000e+00
-4.347474098205566406e+00 -2.506484985351562855e+01 -1.333206176757812944e+00 1.100000000000000000e+01
-5.608599781990051270e-01 -3.193831920623778853e+00 -7.486370801925659180e-01 8.000000000000000000e+00
-6.723284125328063965e-01 -3.824673414230347124e+00 -7.548403739929199219e-01 9.000000000000000000e+00
-8.714378476142883301e-01 -4.947218418121337891e+00 -7.956256866455078125e-01 1.000000000000000000e+00
-7.898975849151611328e+00 -4.479731750488281250e+01 5.585271835327148438e+00 3.900000000000000000e+01
-1.239760518074036089e+00 -7.023862838745117188e+00 -8.757531046867370605e-01 1.000000000000000000e+00
-4.438422203063964844e+00 -2.506918907165526988e+01 -1.334252834320067915e+00 1.100000000000000000e+01
-5.681462287902832031e-01 -3.176707744598389116e+00 -7.450379133224487305e-01 8.000000000000000000e+00
-6.857245564460754395e-01 -3.830272436141968218e+00 -7.563668489456176758e-01 8.000000000000000000e+00
-8.813949823379516602e-01 -4.913347244262695312e+00 -7.906197905540466309e-01 1.000000000000000000e+00
-1.265332341194153054e+00 -7.039471149444580078e+00 -8.781905174255371094e-01 1.000000000000000000e+00
-1.875600457191467063e+00 -1.042414951324463068e+01 -9.266398549079895020e-01 2.000000000000000000e+00
-4.513613700866699219e+00 -2.503546524047851918e+01 -1.333206176757812944e+00 1.100000000000000000e+01
-5.806306600570678711e-01 -3.182373523712158203e+00 -7.468374967575073242e-01 8.000000000000000000e+00
-6.990905404090881348e-01 -3.827855587005614790e+00 -7.563668489456176758e-01 2.000000000000000000e+00
-8.882287144660949707e-01 -4.853890419006347656e+00 -7.815465927124023438e-01 4.000000000000000000e+00
-8.446272850036621094e+00 -4.611077117919921875e+01 5.755888938903808594e+00 4.300000000000000000e+01
-1.288465023040771040e+00 -7.027201175689697266e+00 -8.772155046463012695e-01 3.000000000000000000e+00
-1.899747490882873979e+00 -1.035091018676757990e+01 -9.207132458686828613e-01 2.000000000000000000e+00
-4.614703178405761719e+00 -2.509420204162598012e+01 -1.337183713912964089e+00 1.100000000000000000e+01
-5.907030105590820312e-01 -3.168626308441162109e+00 -7.441380620002746582e-01 8.000000000000000000e+00
-9.054076075553894043e-01 -4.842677116394042969e+00 -7.802951335906982422e-01 7.000000000000000000e+00
-1.315437912940979004e+00 -7.022202014923095703e+00 -8.772155046463012695e-01 1.000000000000000000e+00
-1.935071825981139915e+00 -1.032004070281982067e+01 -9.186215400695800781e-01 2.000000000000000000e+00
-4.711023807525634766e+00 -2.507629776000976918e+01 -1.337183713912964089e+00 1.100000000000000000e+01
-6.021237969398498535e-01 -3.168459415435791016e+00 -7.445880174636840820e-01 8.000000000000000000e+00
-9.230458140373229980e-01 -4.843368053436279297e+00 -7.809208631515502930e-01 7.000000000000000000e+00
-1.335101962089539018e+00 -6.992218971252441406e+00 -8.740469217300415039e-01 3.000000000000000000e+00
-1.958366990089416948e+00 -1.024668598175049006e+01 -9.126949310302734375e-01 4.000000000000000000e+00
-4.804537296295166016e+00 -2.509108543395996094e+01 -1.338858485221863015e+00 1.100000000000000000e+01
-6.191081404685974121e-01 -3.196949481964110884e+00 -7.517864108085632324e-01 1.000000000000000000e+00
-9.384403228759765625e-01 -4.832359790802001953e+00 -7.796693444252014160e-01 7.000000000000000000e+00
-1.363671422004699929e+00 -7.008950233459472656e+00 -8.767280578613281250e-01 1.000000000000000000e+00
-1.974699378013611062e+00 -1.014004898071289062e+01 -9.038050770759582520e-01 1.200000000000000000e+01
-4.878323554992675781e+00 -2.500359153747558949e+01 -1.335090279579163042e+00 1.100000000000000000e+01
-9.553027153015136719e-01 -4.829054832458496094e+00 -7.796693444252014160e-01 7.000000000000000000e+00
-1.387357115745543990e+00 -7.000253200531005859e+00 -8.762405514717102051e-01 1.000000000000000000e+00
-1.996514201164246050e+00 -1.006469345092773082e+01 -8.977041244506835938e-01 1.200000000000000000e+01
-4.985816478729248047e+00 -2.508827590942383168e+01 -1.340533137321471946e+00 1.100000000000000000e+01
-9.673534035682678223e-01 -4.810536861419677734e+00 -7.771664261817932129e-01 4.000000000000000000e+00
-1.410910367965698020e+00 -7.003643989562988281e+00 -8.772155046463012695e-01 3.000000000000000000e+00
-2.027335882186890093e+00 -1.005446529388427912e+01 -8.973555564880371094e-01 1.000000000000000000e+01
-5.063817977905273438e+00 -2.506857299804687855e+01 -1.340323805809020996e+00 1.100000000000000000e+01
-9.972137808799743652e-01 -4.870993614196777344e+00 -7.874910831451416016e-01 1.000000000000000000e+00
-1.434152603149414062e+00 -6.992842674255371094e+00 -8.764843344688415527e-01 3.000000000000000000e+00
-2.085656404495238814e+00 -1.016052627563476918e+01 -9.074655771255493164e-01 1.200000000000000000e+01
-5.145660877227783203e+00 -2.502335548400878906e+01 -1.338858485221863015e+00 1.100000000000000000e+01
-1.032861590385437012e+00 -4.948344230651854581e+00 -8.006315827369689941e-01 1.000000000000000000e+00
-1.454898238182068093e+00 -6.958137989044188565e+00 -8.728282451629638672e-01 1.000000000000000000e+00
-2.124654531478881836e+00 -1.015244293212890980e+01 -9.074655771255493164e-01 6.000000000000000000e+00
-5.226133346557617188e+00 -2.492913246154785156e+01 -1.334880948066710982e+00 1.100000000000000000e+01
-1.036996603012084961e+00 -4.882875442504882812e+00 -7.906197905540466309e-01 1.000000000000000000e+00
-1.481656193733215110e+00 -6.964666843414306641e+00 -8.742906451225280762e-01 3.000000000000000000e+00
-2.164644479751586914e+00 -1.016639995574950994e+01 -9.093829989433288574e-01 6.000000000000000000e+00
-5.327285289764404297e+00 -2.497715187072753906e+01 -1.338439702987670898e+00 1.100000000000000000e+01
-1.045668482780456987e+00 -4.848698139190673828e+00 -7.856138944625854492e-01 3.000000000000000000e+00
-1.506882309913635032e+00 -6.975500583648681641e+00 -8.762405514717102051e-01 3.000000000000000000e+00
-2.178888559341431108e+00 -1.007775878906250000e+01 -9.020619392395019531e-01 1.000000000000000000e+01
-5.403190612792968750e+00 -2.494857978820801137e+01 -1.337811708450316939e+00 1.100000000000000000e+01
-1.060048222541809082e+00 -4.833441257476806641e+00 -7.837366461753845215e-01 3.000000000000000000e+00
-1.531222105026244895e+00 -6.970198154449462891e+00 -8.762405514717102051e-01 1.000000000000000000e+00
-2.204640865325928178e+00 -1.002728176116943004e+01 -8.982270956039428711e-01 1.200000000000000000e+01
-5.509145259857177734e+00 -2.501539039611816051e+01 -1.342417240142822044e+00 1.100000000000000000e+01
-1.078203320503235085e+00 -4.835495471954345703e+00 -7.846753001213073730e-01 4.000000000000000000e+00
-1.555543303489685059e+00 -6.964810848236083984e+00 -8.762405514717102051e-01 1.000000000000000000e+00
-2.231371402740478960e+00 -9.982581138610839844e+00 -8.949151635169982910e-01 8.000000000000000000e+00
-5.604286193847656250e+00 -2.503108978271484020e+01 -1.344301342964171919e+00 1.100000000000000000e+01
-1.096822261810302956e+00 -4.839408874511718750e+00 -7.859267592430114746e-01 6.000000000000000000e+00
-1.579406142234802024e+00 -6.957402706146240234e+00 -8.759968280792236328e-01 3.000000000000000000e+00
-2.261789321899414062e+00 -9.955303192138671875e+00 -8.931720256805419922e-01 6.000000000000000000e+00
-5.689854145050048828e+00 -2.500358390808105113e+01 -1.343882679939270020e+00 1.100000000000000000e+01
-1.110067844390868919e+00 -4.812063694000244141e+00 -7.821723222732543945e-01 7.000000000000000000e+00
-1.602980732917786089e+00 -6.937747955322265625e+00 -8.742906451225280762e-01 3.000000000000000000e+00
-2.306282281875609907e+00 -9.973721504211425781e+00 -8.956124186515808105e-01 4.000000000000000000e+00
-5.792127609252929688e+00 -2.500879287719726918e+01 -1.345348119735717995e+00 1.100000000000000000e+01
-1.123252391815185991e+00 -4.792773246765136719e+00 -7.796693444252014160e-01 7.000000000000000000e+00
-1.623559117317199929e+00 -6.916649341583251953e+00 -8.723407387733459473e-01 3.000000000000000000e+00
-2.226261615753173828e+00 -9.476833343505859375e+00 -8.516859412193298340e-01 1.000000000000000000e+00
-5.876645088195800781e+00 -2.497675704956055043e+01 -1.344720005989074929e+00 2.300000000000000000e+01
-1.136853933334351030e+00 -4.779413223266601562e+00 -7.781050205230712891e-01 9.000000000000000000e+00
-1.646026611328125000e+00 -6.909296512603759766e+00 -8.720970153808593750e-01 3.000000000000000000e+00
-2.316820621490478960e+00 -9.717471122741699219e+00 -8.739978075027465820e-01 5.000000000000000000e+00
-5.975210189819335938e+00 -2.502318191528319957e+01 -1.348278880119323953e+00 1.100000000000000000e+01
-1.153530359268188032e+00 -4.775415897369384766e+00 -7.781050205230712891e-01 9.000000000000000000e+00
-1.671534895896912065e+00 -6.909296989440917969e+00 -8.728282451629638672e-01 1.000000000000000000e+00
-2.385420322418212891e+00 -9.852622032165527344e+00 -8.868968486785888672e-01 7.000000000000000000e+00
-6.056873321533203125e+00 -2.497887992858887074e+01 -1.347022891044616921e+00 1.100000000000000000e+01
-1.173015713691710982e+00 -4.782871246337890625e+00 -7.799822688102722168e-01 9.000000000000000000e+00
-1.689960479736327903e+00 -6.880286693572998047e+00 -8.699033856391906738e-01 3.000000000000000000e+00
-2.429309844970703125e+00 -9.882930755615234375e+00 -8.903830647468566895e-01 7.000000000000000000e+00
-6.146893501281738281e+00 -2.496922111511230113e+01 -1.347650885581969993e+00 1.100000000000000000e+01
-1.191135644912719949e+00 -4.784498214721679688e+00 -7.809208631515502930e-01 9.000000000000000000e+00
-1.713006377220154031e+00 -6.870493412017822266e+00 -8.694158792495727539e-01 3.000000000000000000e+00
-2.355266332626343218e+00 -9.439438819885253906e+00 -8.511629700660705566e-01 5.000000000000000000e+00
-6.235951900482177734e+00 -2.495536422729491832e+01 -1.348069548606873003e+00 1.100000000000000000e+01
-1.207345485687256081e+00 -4.778396129608154297e+00 -7.806079983711242676e-01 9.000000000000000000e+00
-1.733569741249084029e+00 -6.851001262664794922e+00 -8.677096962928771973e-01 3.000000000000000000e+00
-2.380865573883057085e+00 -9.402188301086425781e+00 -8.485482931137084961e-01 3.000000000000000000e+00
-6.325969696044921875e+00 -2.494506072998046875e+01 -1.348697543144226074e+00 1.100000000000000000e+01
-1.215187191963196023e+00 -4.739709854125976562e+00 -7.749763131141662598e-01 9.000000000000000000e+00
-1.762904047966002974e+00 -6.866057872772216797e+00 -8.703908324241638184e-01 3.000000000000000000e+00
-2.404250144958496094e+00 -9.357155799865722656e+00 -8.452364206314086914e-01 9.000000000000000000e+00
-6.434905052185058594e+00 -2.500793266296387074e+01 -1.353303194046020952e+00 1.200000000000000000e+01
-1.235867261886596902e+00 -4.754772186279296875e+00 -7.781050205230712891e-01 9.000000000000000000e+00
-1.785663008689879927e+00 -6.860174179077148438e+00 -8.703908324241638184e-01 3.000000000000000000e+00
-2.424719572067261186e+00 -9.308642387390136719e+00 -8.415758609771728516e-01 9.000000000000000000e+00
-6.504692077636718750e+00 -2.493620872497558949e+01 -1.350581645965575950e+00 1.200000000000000000e+01
-1.253464221954345925e+00 -4.754249572753906250e+00 -7.787307500839233398e-01 9.000000000000000000e+00
-1.803517699241637962e+00 -6.830867290496826172e+00 -8.674659729003906250e-01 3.000000000000000000e+00
-2.455671310424805132e+00 -9.294342994689941406e+00 -8.410528898239135742e-01 8.000000000000000000e+00
-6.607021808624267578e+00 -2.497127723693848012e+01 -1.353721857070923074e+00 1.200000000000000000e+01
-1.271709918975830078e+00 -4.749401569366455078e+00 -7.787307500839233398e-01 9.000000000000000000e+00
-1.830761194229125977e+00 -6.827726840972900391e+00 -8.679534792900085449e-01 1.000000000000000000e+00
-2.474301576614379883e+00 -9.221343040466308594e+00 -8.353006243705749512e-01 3.000000000000000000e+00
-6.701818943023681641e+00 -2.494186592102051137e+01 -1.353512525558471902e+00 1.200000000000000000e+01
-1.288280725479125977e+00 -4.744933605194091797e+00 -7.787307500839233398e-01 9.000000000000000000e+00
-1.182246971130370916e+01 -4.351391601562500000e+01 5.536524295806884766e+00 3.800000000000000000e+01
-1.843125581741333008e+00 -6.779152393341063565e+00 -8.625912070274353027e-01 6.000000000000000000e+00
-2.485552787780762163e+00 -9.135748863220214844e+00 -8.283281922340393066e-01 1.000000000000000000e+00
-6.800391674041748047e+00 -2.496071434020996094e+01 -1.355815291404723899e+00 1.200000000000000000e+01
-1.302214503288269043e+00 -4.730885028839111328e+00 -7.771664261817932129e-01 7.000000000000000000e+00
-1.860448122024535911e+00 -6.749712944030761719e+00 -8.596663475036621094e-01 9.000000000000000000e+00
-6.900240898132324219e+00 -2.498302841186523082e+01 -1.358327388763427956e+00 1.200000000000000000e+01
-1.315004348754883035e+00 -4.712991714477539062e+00 -7.749763131141662598e-01 9.000000000000000000e+00
-1.878121852874756081e+00 -6.722146987915039062e+00 -8.569852113723754883e-01 1.100000000000000000e+01
-6.969099044799804688e+00 -2.489339828491210938e+01 -1.354768514633178933e+00 1.200000000000000000e+01
-1.334386229515075906e+00 -4.721911430358886719e+00 -7.771664261817932129e-01 9.000000000000000000e+00
-1.894997954368591087e+00 -6.696780681610107422e+00 -8.545478582382202148e-01 1.300000000000000000e+01
-7.045072078704833984e+00 -2.484709167480469105e+01 -1.353512525558471902e+00 1.200000000000000000e+01
-1.353579759597778098e+00 -4.726720333099365234e+00 -7.787307500839233398e-01 9.000000000000000000e+00
-1.917268276214600053e+00 -6.686308860778808594e+00 -8.540603518486022949e-01 1.100000000000000000e+01
-7.169265270233154297e+00 -2.495288276672362926e+01 -1.360630154609679954e+00 1.200000000000000000e+01
-1.357117462158202947e+01 -4.720391082763671875e+01 1.133933258056640980e+01 1.400000000000000000e+01
-1.367869138717650923e+00 -4.714377880096436435e+00 -7.774792909622192383e-01 9.000000000000000000e+00
-1.928965806961060014e+00 -6.639544010162354404e+00 -8.489418625831604004e-01 8.000000000000000000e+00
-3.271526336669921875e+00 -1.125333595275879084e+01 -1.025300145149230957e+00 2.000000000000000000e+00
-7.261905670166015625e+00 -2.494688034057616832e+01 -1.361676931381226030e+00 1.200000000000000000e+01
-1.366719627380370916e+01 -4.692050552368164062e+01 1.128264522552490057e+01 1.400000000000000000e+01
-1.388773560523987038e+00 -4.724736213684082031e+00 -7.799822688102722168e-01 9.000000000000000000e+00
-1.944844245910644975e+00 -6.608014106750488281e+00 -8.457732200622558594e-01 6.000000000000000000e+00
-3.295027494430541992e+00 -1.118833351135254084e+01 -1.020419478416443093e+00 2.000000000000000000e+00
-7.354591369628906250e+00 -2.494053840637207031e+01 -1.362723588943481001e+00 1.200000000000000000e+01
-1.383089637756348012e+01 -4.687251281738281250e+01 1.128264522552490057e+01 1.400000000000000000e+01
-1.398493289947509988e+00 -4.697140693664550781e+00 -7.762278318405151367e-01 9.000000000000000000e+00
-1.941811323165893999e+00 -6.513676643371582031e+00 -8.345612883567810059e-01 8.000000000000000000e+00
-3.321532249450684038e+00 -1.113475990295409979e+01 -1.016584634780884011e+00 2.000000000000000000e+00
-7.441605567932128906e+00 -2.491471290588378906e+01 -1.362723588943481001e+00 1.200000000000000000e+01
-1.411459207534790039e+00 -4.680882930755615234e+00 -7.743505835533142090e-01 9.000000000000000000e+00
-1.941586256027221902e+00 -6.430843830108642578e+00 -8.248116970062255859e-01 7.000000000000000000e+00
-7.542407035827636719e+00 -2.493446731567383168e+01 -1.365235805511475053e+00 1.200000000000000000e+01
-8.795465469360351562e+00 -2.887679100036621094e+01 1.582011342048645020e+00 1.500000000000000000e+01
-1.169906735420227051e+00 -3.838570117950439009e+00 -7.800271511077880859e-01 1.000000000000000000e+00
-1.431009650230407937e+00 -4.689402103424072266e+00 -7.765406966209411621e-01 1.000000000000000000e+01
-1.946659445762634055e+00 -6.371213436126708984e+00 -8.179870247840881348e-01 1.000000000000000000e+01
-3.426372528076171875e+00 -1.120715999603270951e+01 -1.025300145149230957e+00 2.000000000000000000e+00
-7.611021041870117188e+00 -2.486348342895508168e+01 -1.362723588943481001e+00 2.400000000000000000e+01
-1.429110622406006037e+01 -4.662765121459960938e+01 -8.512585759162902832e-01 1.300000000000000000e+01
-1.150879502296447976e+00 -3.729409217834473100e+00 -7.586565613746643066e-01 1.000000000000000000e+00
-1.447370052337646040e+00 -4.684378147125244141e+00 -7.765406966209411621e-01 9.000000000000000000e+00
-1.947767019271851030e+00 -6.296108245849609375e+00 -8.092124462127685547e-01 1.000000000000000000e+01
-3.444262027740478960e+00 -1.112661266326903942e+01 -1.019024968147278054e+00 2.000000000000000000e+00
-7.710772037506104404e+00 -2.487873458862305043e+01 -1.365026354789734109e+00 2.400000000000000000e+01
-1.443362903594971058e+01 -4.651254653930664062e+01 -8.500717878341674805e-01 1.300000000000000000e+01
-1.162197709083556907e+00 -3.717670679092406782e+00 -7.571300864219665527e-01 1.000000000000000000e+00
-1.462759256362915039e+00 -4.673386573791503906e+00 -7.756021022796630859e-01 9.000000000000000000e+00
-1.953021526336669922e+00 -6.232099533081054688e+00 -8.019002676010131836e-01 1.000000000000000000e+01
-1.421267986297607067e+01 -4.535271835327147727e+01 7.527626514434813565e+00 1.600000000000000000e+01
-3.489789009094237837e+00 -1.112912273406982067e+01 -1.020419478416443093e+00 2.000000000000000000e+00
-7.797119617462158203e+00 -2.483506202697753906e+01 -1.364189028739928977e+00 1.200000000000000000e+01
-1.181090831756592019e+00 -3.732308864593505859e+00 -7.609462738037109375e-01 3.000000000000000000e+00
-1.486223101615905984e+00 -4.690849304199218750e+00 -7.793564796447753906e-01 1.000000000000000000e+01
-1.950154185295104980e+00 -6.147665023803710938e+00 -7.919070124626159668e-01 1.200000000000000000e+01
-7.884972095489501953e+00 -2.481150054931640980e+01 -1.364398360252379927e+00 1.200000000000000000e+01
-9.071917533874511719e+00 -2.835770606994628906e+01 5.196977853775024414e-01 2.000000000000000000e+01
-1.191716432571410911e+00 -3.720684528350830078e+00 -7.594197988510131836e-01 4.000000000000000000e+00
-1.494746446609497070e+00 -4.661179542541503906e+00 -7.752892374992370605e-01 9.000000000000000000e+00
-1.948541998863219993e+00 -6.068997859954833984e+00 -7.826449275016784668e-01 1.200000000000000000e+01
-3.584462404251099077e+00 -1.115760231018066051e+01 -1.025300145149230957e+00 2.000000000000000000e+00
-7.961747646331787109e+00 -2.475340461730957031e+01 -1.362723588943481001e+00 1.200000000000000000e+01
-1.202880740165710005e+00 -3.710899353027344194e+00 -7.582749724388122559e-01 6.000000000000000000e+00
-1.512837290763854980e+00 -4.661570549011229581e+00 -7.762278318405151367e-01 9.000000000000000000e+00
-1.953765869140625000e+00 -6.013072967529296875e+00 -7.763077020645141602e-01 1.300000000000000000e+01
-3.592587232589722124e+00 -1.105028343200683949e+01 -1.016584634780884011e+00 2.000000000000000000e+00
-8.109923362731933594e+00 -2.491538047790526988e+01 -1.373190760612488015e+00 1.200000000000000000e+01
-1.215826869010925071e+00 -3.706677675247191939e+00 -7.582749724388122559e-01 7.000000000000000000e+00
-1.532797932624816895e+00 -4.667521953582763672e+00 -7.781050205230712891e-01 9.000000000000000000e+00
-1.952422976493835005e+00 -5.938328266143798828e+00 -7.675331234931945801e-01 1.300000000000000000e+01
-3.631138086318970171e+00 -1.103767585754395064e+01 -1.016584634780884011e+00 2.000000000000000000e+00
-8.224335670471191406e+00 -2.497038841247558949e+01 -1.377796411514282005e+00 1.200000000000000000e+01
-1.512924575805664062e+01 -4.590782165527343750e+01 1.115937232971191051e+01 1.400000000000000000e+01
-1.231231689453125000e+00 -3.709864377975463867e+00 -7.598014473915100098e-01 7.000000000000000000e+00
-1.542852520942687988e+00 -4.643396854400634766e+00 -7.749763131141662598e-01 9.000000000000000000e+00
-1.958101511001586914e+00 -5.886270046234130859e+00 -7.616834044456481934e-01 1.300000000000000000e+01
-1.456556129455566051e+01 -4.378569412231445312e+01 7.308618068695068359e+00 1.500000000000000000e+01
-8.319025993347167969e+00 -2.496426582336426137e+01 -1.379052400588989036e+00 1.200000000000000000e+01
-9.389074325561523438e+00 -2.814257812500000000e+01 -5.178477764129638672e-01 8.000000000000000000e+00
-1.241631984710692915e+00 -3.702255487442017046e+00 -7.590382099151611328e-01 8.000000000000000000e+00
-1.559947609901428001e+00 -4.646017551422119141e+00 -7.762278318405151367e-01 9.000000000000000000e+00
-1.963933944702147993e+00 -5.842456817626953125e+00 -7.568086385726928711e-01 1.300000000000000000e+01
-8.405060768127441406e+00 -2.496072006225585938e+01 -1.380308508872986062e+00 1.200000000000000000e+01
-9.509381294250488281e+00 -2.820768737792969105e+01 -5.195930600166320801e-01 4.000000000000000000e+00
-1.251394033432007058e+00 -3.688602924346923828e+00 -7.571300864219665527e-01 8.000000000000000000e+00
-1.576155662536621094e+00 -4.640543937683104581e+00 -7.762278318405151367e-01 9.000000000000000000e+00
-1.450905036926270064e+01 -4.269331741333007812e+01 5.536524295806884766e+00 3.800000000000000000e+01
-1.958114027976989968e+00 -5.758510112762451172e+00 -7.468153238296508789e-01 1.100000000000000000e+01
-8.496002197265625000e+00 -2.494257354736328125e+01 -1.380936503410338911e+00 2.400000000000000000e+01
-9.531626701354980469e+00 -2.795098686218262074e+01 -5.154742598533630371e-01 8.000000000000000000e+00
-9.658891677856445312e+00 -2.816318511962890980e+01 5.196977853775024414e-01 2.000000000000000000e+01
-1.259804606437683105e+00 -3.669136762619018999e+00 -7.540771365165710449e-01 8.000000000000000000e+00
-1.595722079277039018e+00 -4.642208099365234375e+00 -7.774792909622192383e-01 9.000000000000000000e+00
-1.972101330757140891e+00 -5.730647087097167969e+00 -7.441341876983642578e-01 9.000000000000000000e+00
-8.575648307800292969e+00 -2.487727737426758168e+01 -1.379052400588989036e+00 1.200000000000000000e+01
-9.669235229492187500e+00 -2.801794052124023082e+01 -5.173591375350952148e-01 8.000000000000000000e+00
-1.275824785232543945e+00 -3.673989772796630859e+00 -7.559852600097656250e-01 9.000000000000000000e+00
-1.613214015960692915e+00 -4.640341281890869141e+00 -7.781050205230712891e-01 9.000000000000000000e+00
-1.988830447196960005e+00 -5.714354515075683594e+00 -7.429155111312866211e-01 5.000000000000000000e+00
-8.691363334655761719e+00 -2.493017387390137074e+01 -1.383658051490783913e+00 1.200000000000000000e+01
-9.793334960937500000e+00 -2.805953788757323863e+01 -5.187553167343139648e-01 4.000000000000000000e+00
-1.289301514625549094e+00 -3.673443794250487837e+00 -7.567484974861145020e-01 9.000000000000000000e+00
-1.620735049247741921e+00 -4.612602233886718750e+00 -7.743505835533142090e-01 9.000000000000000000e+00
-2.002499341964722124e+00 -5.692746639251708984e+00 -7.409656047821044922e-01 5.000000000000000000e+00
-2.516879320144652876e+00 -7.151049613952636719e+00 -6.632552146911621094e-01 5.000000000000000000e+00
-8.768677711486816406e+00 -2.488614463806151988e+01 -1.382820606231689009e+00 1.200000000000000000e+01
-1.304742932319640891e+00 -3.676321744918822798e+00 -7.582749724388122559e-01 9.000000000000000000e+00
-1.638148784637450950e+00 -4.610639572143554688e+00 -7.749763131141662598e-01 9.000000000000000000e+00
-2.017701864242554155e+00 -5.672629833221436435e+00 -7.392594218254089355e-01 7.000000000000000000e+00
-2.532473564147949219e+00 -7.115941524505615234e+00 -6.608148217201232910e-01 7.000000000000000000e+00
-8.871580123901367188e+00 -2.490053939819335938e+01 -1.385332703590393066e+00 1.200000000000000000e+01
-1.313564658164978027e+00 -3.658580541610718218e+00 -7.556036114692687988e-01 9.000000000000000000e+00
-1.656372904777527078e+00 -4.608322143554688388e+00 -7.756021022796630859e-01 9.000000000000000000e+00
-2.027053833007812944e+00 -5.633443355560302734e+00 -7.351158857345581055e-01 1.100000000000000000e+01
-2.552463531494141069e+00 -7.089740276336669922e+00 -6.592460274696350098e-01 4.000000000000000000e+00
-8.956013679504394531e+00 -2.484906578063964844e+01 -1.384286046028136985e+00 1.200000000000000000e+01
-1.110530495643615945e+00 -3.061127662658690962e+00 -7.517864108085632324e-01 1.000000000000000000e+00
-1.324317812919616921e+00 -3.648436784744263139e+00 -7.544587850570678711e-01 9.000000000000000000e+00
-1.681219339370727983e+00 -4.626647949218750000e+00 -7.796693444252014160e-01 1.000000000000000000e+01
-2.051455974578856978e+00 -5.639391422271729404e+00 -7.368220686912536621e-01 1.300000000000000000e+01
-2.559478521347045898e+00 -7.032109260559082031e+00 -6.547139286994934082e-01 1.000000000000000000e+00
-9.072783470153808594e+00 -2.490022087097167969e+01 -1.388891577720642090e+00 1.200000000000000000e+01
-1.131406068801880105e+00 -3.086703538894652876e+00 -7.589848637580871582e-01 1.000000000000000000e+00
-1.337085247039794922e+00 -3.645868301391602007e+00 -7.548403739929199219e-01 9.000000000000000000e+00
-1.692467808723449929e+00 -4.609921455383300781e+00 -7.777921557426452637e-01 1.000000000000000000e+01
-2.070830583572388139e+00 -5.634420871734619141e+00 -7.370657920837402344e-01 1.600000000000000000e+01
-3.856297016143798828e+00 -1.048675537109375000e+01 -9.775388240814208984e-01 2.000000000000000000e+00
-9.166345596313476562e+00 -2.489998626708984020e+01 -1.390566349029541016e+00 1.200000000000000000e+01
-1.131341099739074929e+00 -3.053497791290283203e+00 -7.517864108085632324e-01 1.000000000000000000e+00
-1.349803566932678001e+00 -3.641178607940673828e+00 -7.548403739929199219e-01 9.000000000000000000e+00
-1.703738212585448997e+00 -4.591022014617919922e+00 -7.756021022796630859e-01 9.000000000000000000e+00
-2.082881450653076172e+00 -5.606688976287841797e+00 -7.343846559524536133e-01 1.800000000000000000e+01
-2.626721620559691939e+00 -7.066816329956054688e+00 -6.595946550369262695e-01 1.000000000000000000e+00
-9.262958526611328125e+00 -2.489404487609862926e+01 -1.392031788825988992e+00 1.200000000000000000e+01
-1.139942646026611106e+00 -3.044055223464965820e+00 -7.504367232322692871e-01 2.000000000000000000e+00
-1.365949511528014915e+00 -3.645637035369873047e+00 -7.567484974861145020e-01 1.000000000000000000e+01
-1.719753503799438032e+00 -4.585046768188476562e+00 -7.756021022796630859e-01 9.000000000000000000e+00
-1.608703231811523082e+01 -4.286699676513671875e+01 5.621832847595214844e+00 4.000000000000000000e+01
-2.078714847564696822e+00 -5.536198139190673828e+00 -7.260975241661071777e-01 1.800000000000000000e+01
-9.368077278137207031e+00 -2.491016387939453125e+01 -1.394753217697143999e+00 1.200000000000000000e+01
-1.149871587753295898e+00 -3.038234949111938032e+00 -7.499868273735046387e-01 1.000000000000000000e+00
-1.380752563476562944e+00 -3.646354913711547852e+00 -7.578933238983154297e-01 9.000000000000000000e+00
-1.738548517227173074e+00 -4.586404323577880859e+00 -7.768535614013671875e-01 9.000000000000000000e+00
-2.108591318130493164e+00 -5.556747913360595703e+00 -7.297536134719848633e-01 1.800000000000000000e+01
-2.675992727279663086e+00 -7.048306465148925781e+00 -6.595946550369262695e-01 1.000000000000000000e+00
-9.462068557739257812e+00 -2.489598083496094105e+01 -1.395799994468688965e+00 1.200000000000000000e+01
-1.159773826599121094e+00 -3.032382488250731978e+00 -7.495369315147399902e-01 2.000000000000000000e+00
-1.386455893516540971e+00 -3.623177051544189009e+00 -7.540771365165710449e-01 9.000000000000000000e+00
-1.762320399284363015e+00 -4.600598812103270596e+00 -7.802951335906982422e-01 1.000000000000000000e+01
-2.107363462448120117e+00 -5.495602607727050781e+00 -7.226852178573608398e-01 1.800000000000000000e+01
-3.948099136352539062e+00 -1.029051780700683949e+01 -9.642911553382873535e-01 2.000000000000000000e+00
-9.564667701721191406e+00 -2.490382003784180043e+01 -1.398102760314940962e+00 1.200000000000000000e+01
-1.182294130325316939e+00 -3.059216737747191939e+00 -7.571852207183837891e-01 1.000000000000000000e+00
-1.400510787963866965e+00 -3.621977567672729048e+00 -7.548403739929199219e-01 9.000000000000000000e+00
-1.772664189338684082e+00 -4.579681873321533203e+00 -7.777921557426452637e-01 1.000000000000000000e+01
-2.126533746719359907e+00 -5.488213062286376953e+00 -7.226852178573608398e-01 1.600000000000000000e+01
-3.966711521148682085e+00 -1.023208904266357067e+01 -9.601076841354370117e-01 2.000000000000000000e+00
-9.635643005371093750e+00 -2.482931709289551137e+01 -1.395799994468688965e+00 1.200000000000000000e+01
-1.190130233764647993e+00 -3.047810077667235884e+00 -7.553856372833251953e-01 1.000000000000000000e+00
-1.416002988815308061e+00 -3.624381542205810991e+00 -7.563668489456176758e-01 9.000000000000000000e+00
-1.791517496109009011e+00 -4.580824851989746094e+00 -7.790436148643493652e-01 1.000000000000000000e+01
-2.122520923614501953e+00 -5.421605110168457031e+00 -7.148855924606323242e-01 1.600000000000000000e+01
-9.728087425231933594e+00 -2.481040763854980113e+01 -1.396637320518494096e+00 1.200000000000000000e+01
-1.189319252967834029e+00 -3.014632940292357954e+00 -7.481871843338012695e-01 1.000000000000000000e+00
-1.431529045104980025e+00 -3.626721143722534180e+00 -7.578933238983154297e-01 8.000000000000000000e+00
-1.805318951606750044e+00 -4.569031715393066406e+00 -7.781050205230712891e-01 1.000000000000000000e+01
-1.694218444824219105e+01 -4.285662078857421875e+01 5.658393383026123047e+00 4.100000000000000000e+01
-2.156035184860229048e+00 -5.451081752777099609e+00 -7.197603583335876465e-01 1.300000000000000000e+01
-4.018986225128173828e+00 -1.015597915649414062e+01 -9.555755853652954102e-01 2.000000000000000000e+00
-9.855824470520019531e+00 -2.488028335571289062e+01 -1.402498960494994895e+00 1.200000000000000000e+01
-1.212821841239928977e+00 -3.043047666549683061e+00 -7.562854290008544922e-01 1.000000000000000000e+00
-1.439816832542418990e+00 -3.610760450363159180e+00 -7.556036114692687988e-01 9.000000000000000000e+00
-1.823453783988953081e+00 -4.568206310272216797e+00 -7.790436148643493652e-01 1.000000000000000000e+01
-1.716530227661133168e+01 -4.298157119750977273e+01 5.682767391204833984e+00 4.200000000000000000e+01
-2.180205821990966797e+00 -5.456426143646240234e+00 -7.214665412902832031e-01 1.500000000000000000e+01
-2.724636554718018022e+00 -6.815526962280273438e+00 -6.421635150909423828e-01 1.000000000000000000e+00
-9.982683181762695312e+00 -2.494586181640625000e+01 -1.408151268959044966e+00 1.200000000000000000e+01
-1.224892258644104004e+00 -3.042411088943481001e+00 -7.571852207183837891e-01 1.000000000000000000e+00
-1.453145503997802956e+00 -3.607533454895019975e+00 -7.559852600097656250e-01 9.000000000000000000e+00
-1.840866088867187944e+00 -4.565477371215820312e+00 -7.796693444252014160e-01 1.000000000000000000e+01
-2.195523977279663086e+00 -5.439578533172607422e+00 -7.202478051185607910e-01 1.600000000000000000e+01
-4.070393085479736328e+00 -1.007964134216308949e+01 -9.510434865951538086e-01 2.000000000000000000e+00
-1.007568740844726918e+01 -2.492567634582519887e+01 -1.408988595008850098e+00 1.200000000000000000e+01
-1.234036564826965110e+00 -3.034506559371947798e+00 -7.562854290008544922e-01 1.000000000000000000e+00
-1.463509678840636985e+00 -3.596983671188354048e+00 -7.548403739929199219e-01 8.000000000000000000e+00
-1.853810906410217063e+00 -4.551705837249755859e+00 -7.784178853034973145e-01 1.000000000000000000e+01
-2.233983039855957031e+00 -5.479674816131591797e+00 -7.265850305557250977e-01 1.600000000000000000e+01
-4.098027706146240234e+00 -1.004692268371582031e+01 -9.493003487586975098e-01 2.000000000000000000e+00
-1.020642185211181996e+01 -2.499760055541991832e+01 -1.415059566497802956e+00 1.200000000000000000e+01
-1.246102213859558105e+00 -3.033785581588745117e+00 -7.571852207183837891e-01 1.000000000000000000e+00
-1.479041457176208052e+00 -3.599116802215576172e+00 -7.563668489456176758e-01 9.000000000000000000e+00
-1.866682171821594016e+00 -4.537899971008300781e+00 -7.771664261817932129e-01 1.000000000000000000e+01
-2.240247964859008789e+00 -5.440639019012451172e+00 -7.224414944648742676e-01 1.600000000000000000e+01
-4.122448444366455078e+00 -1.000676631927490057e+01 -9.468600153923034668e-01 2.000000000000000000e+00
-1.030884552001952947e+01 -2.499874877929687855e+01 -1.417153000831604004e+00 1.200000000000000000e+01
-1.247724294662476030e+00 -3.007817268371582031e+00 -7.517864108085632324e-01 1.000000000000000000e+00
-1.495358586311340110e+00 -3.602998495101929155e+00 -7.582749724388122559e-01 9.000000000000000000e+00
-1.881753087043761985e+00 -4.529531955718994141e+00 -7.768535614013671875e-01 1.200000000000000000e+01
-2.259225845336914062e+00 -5.432785987854003906e+00 -7.224414944648742676e-01 2.000000000000000000e+01
-4.146638393402099609e+00 -9.966562271118164062e+00 -9.444196224212646484e-01 2.000000000000000000e+00
-1.040372371673583984e+01 -2.498105049133301137e+01 -1.418199777603148970e+00 1.200000000000000000e+01
-1.258215904235840066e+00 -3.003443717956542969e+00 -7.517864108085632324e-01 1.000000000000000000e+00
-1.504131793975830078e+00 -3.588703393936156782e+00 -7.563668489456176758e-01 9.000000000000000000e+00
-1.906723260879517046e+00 -4.544794559478759766e+00 -7.806079983711242676e-01 1.200000000000000000e+01
-2.264340877532958984e+00 -5.391921997070313388e+00 -7.180541753768920898e-01 2.400000000000000000e+01
-4.169054985046386719e+00 -9.922636985778808594e+00 -9.416306614875793457e-01 2.000000000000000000e+00
-1.052338027954101918e+01 -2.502190589904785156e+01 -1.422595977783202903e+00 1.300000000000000000e+01
-1.279321551322937012e+00 -3.024159908294678178e+00 -7.580850720405578613e-01 1.000000000000000000e+00
-1.515119194984436035e+00 -3.579815149307250977e+00 -7.556036114692687988e-01 8.000000000000000000e+00
-1.921805381774901900e+00 -4.536292076110839844e+00 -7.802951335906982422e-01 1.500000000000000000e+01
-2.290123462677001953e+00 -5.400433063507080078e+00 -7.202478051185607910e-01 1.600000000000000000e+01
-4.188102722167968750e+00 -9.871340751647949219e+00 -9.381443858146667480e-01 2.000000000000000000e+00
-1.062002754211425959e+01 -2.500708007812500000e+01 -1.423851966857909934e+00 1.300000000000000000e+01
-3.347285842895507812e+01 -7.874245452880859375e+01 2.292619132995605113e+01 5.700000000000000000e+01
-1.279153108596801980e+00 -2.994586467742919922e+00 -7.517864108085632324e-01 1.000000000000000000e+00
-1.529148817062377930e+00 -3.578115224838256836e+00 -7.563668489456176758e-01 9.000000000000000000e+00
-1.932189941406250000e+00 -4.516842842102050781e+00 -7.781050205230712891e-01 1.500000000000000000e+01
-2.300365447998046875e+00 -5.372333049774169922e+00 -7.175666689872741699e-01 2.400000000000000000e+01
-4.183306217193604404e+00 -9.765090942382812500e+00 -9.294288158416748047e-01 2.000000000000000000e+00
-1.072614479064941051e+01 -2.501391220092773082e+01 -1.426364183425903098e+00 1.300000000000000000e+01
-1.537118434906006081e+00 -3.564011096954346147e+00 -7.544587850570678711e-01 9.000000000000000000e+00
-1.944808840751647949e+00 -4.504970073699951172e+00 -7.771664261817932129e-01 1.300000000000000000e+01
-2.313443422317504883e+00 -5.353741645812988281e+00 -7.161042690277099609e-01 3.100000000000000000e+01
-4.199852943420410156e+00 -9.714589118957519531e+00 -9.259425997734069824e-01 2.000000000000000000e+00
-1.082648563385009943e+01 -2.501853179931640980e+01 -1.428666949272155984e+00 1.300000000000000000e+01
-1.299506783485413042e+00 -2.985810279846190962e+00 -7.517864108085632324e-01 1.000000000000000000e+00
-1.555820107460021973e+00 -3.573024034500122070e+00 -7.575117349624633789e-01 9.000000000000000000e+00
-1.951051115989685059e+00 -4.476423740386962891e+00 -7.734119892120361328e-01 3.000000000000000000e+01
