3.399790048599243164e+00 -2.617245674133300781e+00 -6.795513033866882324e-01 1.000000000000000000e+01
4.437755107879638672e+00 -3.418765306472777876e+00 -6.878305673599243164e-01 1.200000000000000000e+01
5.884828090667724609e+00 -4.535201072692871094e+00 -6.500075459480285645e-01 7.000000000000000000e+00
2.018093585968018022e+00 -1.562011599540710005e+00 -6.837999224662780762e-01 1.500000000000000000e+01
2.335610628128052202e+00 -1.809075117111206055e+00 -6.820515990257263184e-01 1.100000000000000000e+01
2.765494823455810991e+00 -2.142819404602050781e+00 -6.800432801246643066e-01 1.200000000000000000e+01
3.393755435943603960e+00 -2.631517887115478960e+00 -6.801770329475402832e-01 1.000000000000000000e+01
4.419520854949951172e+00 -3.429367303848267046e+00 -6.868556141853332520e-01 1.200000000000000000e+01
5.913030147552490234e+00 -4.589922904968261719e+00 -6.548882722854614258e-01 6.000000000000000000e+00
2.008058071136475053e+00 -1.565483212471008079e+00 -6.822469830513000488e-01 1.500000000000000000e+01
2.332354545593262163e+00 -1.819614291191101074e+00 -6.829513907432556152e-01 1.200000000000000000e+01
2.750259637832642046e+00 -2.146420240402222124e+00 -6.781351566314697266e-01 1.200000000000000000e+01
3.393890142440795898e+00 -2.650643825531005859e+00 -6.820542812347412109e-01 1.000000000000000000e+01
4.420035839080811435e+00 -3.454552888870238814e+00 -6.888055205345153809e-01 1.200000000000000000e+01
5.887554645538330078e+00 -4.603172302246093750e+00 -6.538423895835876465e-01 6.000000000000000000e+00
1.998023033142090066e+00 -1.568903923034667969e+00 -6.806941032409667969e-01 1.300000000000000000e+01
2.327520847320557085e+00 -1.828948616981505904e+00 -6.834012866020202637e-01 1.300000000000000000e+01
2.742750644683837891e+00 -2.156007528305054155e+00 -6.781351566314697266e-01 1.100000000000000000e+01
3.393932342529296875e+00 -2.669802427291870117e+00 -6.839314699172973633e-01 1.000000000000000000e+01
4.411069869995117188e+00 -3.472416400909423828e+00 -6.892930269241333008e-01 1.200000000000000000e+01
5.705528736114501953e+00 -4.493033885955811435e+00 -6.353653669357299805e-01 1.300000000000000000e+01
1.997080087661742942e+00 -1.579463839530945046e+00 -6.822469830513000488e-01 1.500000000000000000e+01
2.325706720352172852e+00 -1.840690255165100098e+00 -6.847510337829589844e-01 1.200000000000000000e+01
2.733668804168701172e+00 -2.164349555969237837e+00 -6.777535676956176758e-01 1.100000000000000000e+01
3.367561101913452148e+00 -2.668139219284058061e+00 -6.804898977279663086e-01 1.000000000000000000e+01
4.408254623413085938e+00 -3.495192527770996094e+00 -6.907554268836975098e-01 1.200000000000000000e+01
5.808445453643798828e+00 -4.607019424438476562e+00 -6.486130356788635254e-01 9.000000000000000000e+00
1.990043520927428977e+00 -1.585221767425537109e+00 -6.817293763160705566e-01 1.400000000000000000e+01
2.307076692581177202e+00 -1.839079499244689941e+00 -6.811518073081970215e-01 1.100000000000000000e+01
2.736841917037963867e+00 -2.182446956634521040e+00 -6.804248690605163574e-01 1.100000000000000000e+01
3.369035005569458008e+00 -2.688502788543701172e+00 -6.826800107955932617e-01 1.100000000000000000e+01
4.383617877960205078e+00 -3.500649213790893999e+00 -6.888055205345153809e-01 1.200000000000000000e+01
5.845254898071289062e+00 -4.669547080993652344e+00 -6.545396447181701660e-01 5.000000000000000000e+00
1.995604395866394043e+00 -1.599924564361572044e+00 -6.853528022766113281e-01 1.500000000000000000e+01
2.307367563247681108e+00 -1.851196289062500000e+00 -6.829513907432556152e-01 1.100000000000000000e+01
2.728440999984741211e+00 -2.189805269241333008e+00 -6.800432801246643066e-01 1.100000000000000000e+01
3.363652467727661133e+00 -2.701547622680664062e+00 -6.833057403564453125e-01 1.100000000000000000e+01
4.364862442016601562e+00 -3.508185386657714844e+00 -6.875868439674377441e-01 1.200000000000000000e+01
5.808817863464354581e+00 -4.670409679412841797e+00 -6.520992517471313477e-01 8.000000000000000000e+00
1.982492327690124956e+00 -1.600812554359436035e+00 -6.827646493911743164e-01 1.400000000000000000e+01
2.308470487594604048e+00 -1.865363240242003950e+00 -6.852009296417236328e-01 1.300000000000000000e+01
2.725360870361328125e+00 -2.203018665313721147e+00 -6.811881065368652344e-01 1.100000000000000000e+01
3.363416671752930132e+00 -2.720726490020751953e+00 -6.851829290390014648e-01 1.000000000000000000e+01
4.375733852386474609e+00 -3.542135000228881836e+00 -6.912429332733154297e-01 1.200000000000000000e+01
5.829640865325927734e+00 -4.720749855041503906e+00 -6.562827229499816895e-01 8.000000000000000000e+00
1.975393533706665039e+00 -1.606504082679748979e+00 -6.822469830513000488e-01 1.400000000000000000e+01
2.307990789413452148e+00 -1.878330230712891069e+00 -6.870005130767822266e-01 1.200000000000000000e+01
2.711564302444458008e+00 -2.207560539245605025e+00 -6.796616315841674805e-01 1.100000000000000000e+01
3.344710350036621094e+00 -2.724964141845703125e+00 -6.833057403564453125e-01 1.000000000000000000e+01
4.357188701629638672e+00 -3.552370071411132812e+00 -6.902679800987243652e-01 1.200000000000000000e+01
5.800775051116943359e+00 -4.730996608734130859e+00 -6.548882722854614258e-01 6.000000000000000000e+00
1.971268296241760032e+00 -1.614613771438599077e+00 -6.827646493911743164e-01 1.400000000000000000e+01
2.293884515762329102e+00 -1.880198478698730025e+00 -6.847510337829589844e-01 1.300000000000000000e+01
2.712950944900513139e+00 -2.224480867385863814e+00 -6.819513440132141113e-01 1.100000000000000000e+01
3.332123756408690962e+00 -2.734116792678833008e+00 -6.826800107955932617e-01 1.100000000000000000e+01
4.360103607177734375e+00 -3.580155372619628906e+00 -6.927053332328796387e-01 1.200000000000000000e+01
5.833491802215576172e+00 -4.791684150695800781e+00 -6.604661941528320312e-01 7.000000000000000000e+00
1.972787261009216087e+00 -1.627975940704345925e+00 -6.853528022766113281e-01 1.400000000000000000e+01
2.285475254058837891e+00 -1.887352466583251953e+00 -6.843010783195495605e-01 1.200000000000000000e+01
2.707806825637816939e+00 -2.236910343170166016e+00 -6.827145814895629883e-01 1.100000000000000000e+01
3.326647996902465820e+00 -2.750087022781372070e+00 -6.836186051368713379e-01 1.100000000000000000e+01
4.353070735931395596e+00 -3.601173162460327148e+00 -6.936802864074707031e-01 1.200000000000000000e+01
5.840449333190917969e+00 -4.833357334136962891e+00 -6.632552146911621094e-01 7.000000000000000000e+00
1.968578338623047097e+00 -1.636087179183959961e+00 -6.858704686164855957e-01 1.400000000000000000e+01
2.271381855010985884e+00 -1.889088273048401101e+00 -6.820515990257263184e-01 1.200000000000000000e+01
2.693945169448852983e+00 -2.241326093673706055e+00 -6.811881065368652344e-01 1.100000000000000000e+01
3.323100328445435014e+00 -2.766738176345825195e+00 -6.848700642585754395e-01 1.100000000000000000e+01
4.331323146820068359e+00 -3.608722209930419922e+00 -6.922178864479064941e-01 1.200000000000000000e+01
5.771505355834960938e+00 -4.810343742370604581e+00 -6.573286056518554688e-01 6.000000000000000000e+00
1.961660385131835938e+00 -1.641366481781006081e+00 -6.853528022766113281e-01 1.500000000000000000e+01
2.274069547653197798e+00 -1.904116392135619895e+00 -6.847510337829589844e-01 1.200000000000000000e+01
2.692517995834351030e+00 -2.255289793014525923e+00 -6.827145814895629883e-01 1.100000000000000000e+01
3.321476697921752930e+00 -2.784087657928466797e+00 -6.864344477653503418e-01 1.000000000000000000e+01
4.334540843963623047e+00 -3.635822772979735884e+00 -6.946552395820617676e-01 1.200000000000000000e+01
5.715839385986328125e+00 -4.796158790588378906e+00 -6.527965068817138672e-01 6.000000000000000000e+00
1.951487183570862038e+00 -1.644469380378722922e+00 -6.837999224662780762e-01 1.400000000000000000e+01
2.282306671142578125e+00 -1.924605488777161089e+00 -6.892500519752502441e-01 1.100000000000000000e+01
2.680127143859862837e+00 -2.260876893997191939e+00 -6.815697550773620605e-01 1.000000000000000000e+01
3.308719396591186968e+00 -2.793116331100463867e+00 -6.858087182044982910e-01 1.000000000000000000e+01
2.854188919067383168e+01 -2.410269355773926137e+01 4.586918354034423828e+00 1.900000000000000000e+01
4.321823120117188388e+00 -3.650931119918822798e+00 -6.946552395820617676e-01 1.200000000000000000e+01
5.711236953735351562e+00 -4.826369285583496094e+00 -6.541910171508789062e-01 9.000000000000000000e+00
1.947496294975280984e+00 -1.652181386947632058e+00 -6.843175292015075684e-01 1.600000000000000000e+01
2.268484115600585938e+00 -1.925857305526732954e+00 -6.870005130767822266e-01 1.200000000000000000e+01
2.680097341537476030e+00 -2.276106357574462891e+00 -6.834778189659118652e-01 1.000000000000000000e+01
3.290407419204711914e+00 -2.796397686004639116e+00 -6.839314699172973633e-01 1.000000000000000000e+01
2.846180343627930043e+01 -2.419720840454101918e+01 4.586918354034423828e+00 1.900000000000000000e+01
4.318765640258789062e+00 -3.672958850860596147e+00 -6.961176991462707520e-01 1.200000000000000000e+01
5.478197574615479404e+00 -4.660663127899169922e+00 -6.292644739151000977e-01 6.000000000000000000e+00
1.951998710632323997e+00 -1.667753696441649947e+00 -6.879410147666931152e-01 1.600000000000000000e+01
2.254341840744018999e+00 -1.927432179450988992e+00 -6.847510337829589844e-01 1.300000000000000000e+01
2.685563802719116211e+00 -2.296932458877563032e+00 -6.869123578071594238e-01 1.100000000000000000e+01
3.286629199981689009e+00 -2.813004255294799805e+00 -6.851829290390014648e-01 1.000000000000000000e+01
4.305918216705322266e+00 -3.688011884689331055e+00 -6.961176991462707520e-01 1.200000000000000000e+01
5.561752796173095703e+00 -4.765315055847167969e+00 -6.407690048217773438e-01 6.000000000000000000e+00
1.953487157821655051e+00 -1.680857300758362038e+00 -6.905292272567749023e-01 1.600000000000000000e+01
2.244646549224853960e+00 -1.932746410369873047e+00 -6.838511824607849121e-01 1.100000000000000000e+01
2.667116880416870117e+00 -2.297323942184447798e+00 -6.842410564422607422e-01 1.000000000000000000e+01
3.282774925231934038e+00 -2.829618453979492188e+00 -6.864344477653503418e-01 1.000000000000000000e+01
4.299031257629395419e+00 -3.708206176757812944e+00 -6.970926523208618164e-01 1.200000000000000000e+01
5.526983261108398438e+00 -4.769080638885498047e+00 -6.386772990226745605e-01 6.000000000000000000e+00
1.938848137855530007e+00 -1.680075287818908913e+00 -6.874234080314636230e-01 1.500000000000000000e+01
2.242303371429442915e+00 -1.944400072097778098e+00 -6.852009296417236328e-01 1.300000000000000000e+01
2.654632329940795898e+00 -2.302760601043701172e+00 -6.830962300300598145e-01 1.100000000000000000e+01
3.278844833374022993e+00 -2.846239805221558061e+00 -6.876859068870544434e-01 1.000000000000000000e+01
4.283063411712645596e+00 -3.720586299896239790e+00 -6.966051459312438965e-01 1.200000000000000000e+01
5.596024990081787109e+00 -4.862835884094238281e+00 -6.486130356788635254e-01 7.000000000000000000e+00
1.927149534225464089e+00 -1.681752085685729980e+00 -6.853528022766113281e-01 1.300000000000000000e+01
2.244309425354003906e+00 -1.959906220436095969e+00 -6.879003047943115234e-01 1.200000000000000000e+01
2.648056745529174805e+00 -2.313304662704468218e+00 -6.834778189659118652e-01 1.000000000000000000e+01
3.268889427185059038e+00 -2.857667922973632812e+00 -6.876859068870544434e-01 1.000000000000000000e+01
4.290967464447020596e+00 -3.753813028335570845e+00 -7.000175118446350098e-01 1.200000000000000000e+01
5.612001419067382812e+00 -4.911206245422363281e+00 -6.524478793144226074e-01 8.000000000000000000e+00
1.925620675086975098e+00 -1.692294716835021973e+00 -6.869057416915893555e-01 1.500000000000000000e+01
2.237454414367675781e+00 -1.967728376388550027e+00 -6.879003047943115234e-01 1.300000000000000000e+01
2.648809671401977983e+00 -2.330314636230469194e+00 -6.857675313949584961e-01 1.000000000000000000e+01
3.258894443511962891e+00 -2.869060993194580078e+00 -6.876859068870544434e-01 1.000000000000000000e+01
4.280817031860351562e+00 -3.771392822265625000e+00 -7.005049586296081543e-01 1.200000000000000000e+01
5.603792667388916016e+00 -4.938669681549072266e+00 -6.534937620162963867e-01 9.000000000000000000e+00
1.925785779953002930e+00 -1.703791260719299094e+00 -6.889762878417968750e-01 1.600000000000000000e+01
2.219244241714477983e+00 -1.964802980422974077e+00 -6.843010783195495605e-01 1.200000000000000000e+01
2.651355504989624023e+00 -2.348197221755981001e+00 -6.884388327598571777e-01 1.100000000000000000e+01
3.252319097518920898e+00 -2.882472515106201172e+00 -6.883116364479064941e-01 1.000000000000000000e+01
4.272742271423339844e+00 -3.789519309997559038e+00 -7.012361884117126465e-01 1.300000000000000000e+01
5.560557842254638672e+00 -4.933424472808837891e+00 -6.503561735153198242e-01 7.000000000000000000e+00
1.918384313583374023e+00 -1.709218025207519975e+00 -6.884586811065673828e-01 1.500000000000000000e+01
2.215281486511230025e+00 -1.975131392478943093e+00 -6.852009296417236328e-01 1.200000000000000000e+01
2.632886409759521040e+00 -2.348290443420410156e+00 -6.857675313949584961e-01 1.000000000000000000e+01
3.236342668533325195e+00 -2.888546228408813032e+00 -6.870601773262023926e-01 1.000000000000000000e+01
4.253566265106201172e+00 -3.799121379852294922e+00 -7.002612352371215820e-01 1.000000000000000000e+01
5.546274662017822266e+00 -4.955459117889404297e+00 -6.507048010826110840e-01 1.200000000000000000e+01
1.914982199668884055e+00 -1.718818664550781028e+00 -6.894939541816711426e-01 1.600000000000000000e+01
2.213826417922974077e+00 -1.988446235656738059e+00 -6.870005130767822266e-01 1.300000000000000000e+01
2.622801542282104048e+00 -2.356612443923950195e+00 -6.853858828544616699e-01 1.100000000000000000e+01
3.234547376632689986e+00 -2.908313035964965820e+00 -6.889373660087585449e-01 1.000000000000000000e+01
4.239613056182861328e+00 -3.814686059951781782e+00 -7.002612352371215820e-01 1.000000000000000000e+01
5.516227722167968750e+00 -4.965090751647949219e+00 -6.493102908134460449e-01 9.000000000000000000e+00
1.907537579536437988e+00 -1.724197268486022949e+00 -6.889762878417968750e-01 1.600000000000000000e+01
2.212652921676636186e+00 -2.001390695571898970e+00 -6.888001561164855957e-01 1.200000000000000000e+01
2.614559412002563032e+00 -2.365753412246704102e+00 -6.853858828544616699e-01 1.100000000000000000e+01
3.227304220199584961e+00 -2.922237873077393022e+00 -6.895630955696105957e-01 1.000000000000000000e+01
4.229213714599609375e+00 -3.832127571105957031e+00 -7.007487416267395020e-01 1.000000000000000000e+01
5.478196144104003906e+00 -4.965582847595214844e+00 -6.468698978424072266e-01 2.100000000000000000e+01
3.741382217407227273e+01 -3.396049499511718750e+01 -8.819748163223266602e-01 1.300000000000000000e+01
1.898650050163269043e+00 -1.728244543075561968e+00 -6.879410147666931152e-01 1.500000000000000000e+01
2.202772140502930132e+00 -2.006477594375609907e+00 -6.879003047943115234e-01 1.300000000000000000e+01
2.619345903396606001e+00 -2.386766195297241211e+00 -6.888204813003540039e-01 1.000000000000000000e+01
3.217084169387816939e+00 -2.933485507965087891e+00 -6.895630955696105957e-01 1.000000000000000000e+01
4.233407974243164062e+00 -3.862923622131348100e+00 -7.036736011505126953e-01 1.100000000000000000e+01
5.466715335845947266e+00 -4.990047931671142578e+00 -6.475671529769897461e-01 1.700000000000000000e+01
1.894029855728148970e+00 -1.736166834831238015e+00 -6.884586811065673828e-01 1.600000000000000000e+01
2.197190761566162109e+00 -2.015471935272216797e+00 -6.883502006530761719e-01 1.400000000000000000e+01
2.610998630523682085e+00 -2.395895004272460938e+00 -6.888204813003540039e-01 1.000000000000000000e+01
3.208279609680175781e+00 -2.946033239364624023e+00 -6.898760199546813965e-01 9.000000000000000000e+00
4.219897747039794922e+00 -3.877677440643310991e+00 -7.036736011505126953e-01 1.100000000000000000e+01
5.449263572692871094e+00 -5.009099960327148438e+00 -6.475671529769897461e-01 1.200000000000000000e+01
1.893941164016724077e+00 -1.747678518295288086e+00 -6.905292272567749023e-01 1.600000000000000000e+01
2.184768438339232954e+00 -2.017458677291870117e+00 -6.865506172180175781e-01 1.200000000000000000e+01
2.600154876708983931e+00 -2.401875734329224077e+00 -6.880572438240051270e-01 1.000000000000000000e+01
3.194140911102294922e+00 -2.952633619308472124e+00 -6.889373660087585449e-01 1.000000000000000000e+01
4.198272228240966797e+00 -3.883561849594116211e+00 -7.022111415863037109e-01 1.100000000000000000e+01
5.485267639160156250e+00 -5.075858116149902344e+00 -6.538423895835876465e-01 9.000000000000000000e+00
1.890659332275391069e+00 -1.756909132003783958e+00 -6.915645003318786621e-01 1.700000000000000000e+01
2.184848070144652876e+00 -2.031707763671875000e+00 -6.888001561164855957e-01 1.300000000000000000e+01
2.590317487716674805e+00 -2.409600257873535156e+00 -6.876755952835083008e-01 9.000000000000000000e+00
3.199719429016112837e+00 -2.978570461273192915e+00 -6.923789381980895996e-01 9.000000000000000000e+00
4.196310997009277344e+00 -3.909017324447631836e+00 -7.041610479354858398e-01 1.100000000000000000e+01
5.508329391479492188e+00 -5.133006572723388672e+00 -6.587231159210205078e-01 7.000000000000000000e+00
1.873230576515197976e+00 -1.752938151359558105e+00 -6.874234080314636230e-01 1.400000000000000000e+01
2.183432579040526900e+00 -2.044650077819824219e+00 -6.905997395515441895e-01 1.300000000000000000e+01
2.576159477233887163e+00 -2.413258790969849077e+00 -6.861491203308105469e-01 1.000000000000000000e+01
3.187861680984497070e+00 -2.988370418548583984e+00 -6.920660734176635742e-01 1.000000000000000000e+01
4.197118282318115234e+00 -3.937222719192504883e+00 -7.065984606742858887e-01 1.100000000000000000e+01
5.438075065612792969e+00 -5.103121280670166016e+00 -6.524478793144226074e-01 1.100000000000000000e+01
1.048809170722960982e+00 -9.855865240097045898e-01 3.856403827667235773e-01 1.000000000000000000e+00
1.872724056243896040e+00 -1.764765858650207964e+00 -6.894939541816711426e-01 1.400000000000000000e+01
2.179117679595946822e+00 -2.054933309555054155e+00 -6.914995312690734863e-01 1.500000000000000000e+01
2.574860334396361861e+00 -2.428972482681273970e+00 -6.880572438240051270e-01 1.000000000000000000e+01
3.168792247772216797e+00 -2.991343975067139116e+00 -6.901888847351074219e-01 1.000000000000000000e+01
4.187678337097167969e+00 -3.955938816070557085e+00 -7.073296904563903809e-01 9.000000000000000000e+00
5.437605857849121094e+00 -5.138494014739990234e+00 -6.545396447181701660e-01 8.000000000000000000e+00
1.046592712402343972e+00 -9.907521009445190430e-01 3.861580193042755127e-01 1.300000000000000000e+01
1.876361727714539018e+00 -1.780600786209106001e+00 -6.931173801422119141e-01 1.600000000000000000e+01
2.157800436019897017e+00 -2.049108028411864790e+00 -6.870005130767822266e-01 1.600000000000000000e+01
2.582023382186890093e+00 -2.452819347381591797e+00 -6.922550201416015625e-01 1.100000000000000000e+01
3.161194562911986861e+00 -3.005109071731566939e+00 -6.908146142959594727e-01 1.000000000000000000e+01
4.168090820312500000e+00 -3.965059757232666016e+00 -7.063547372817993164e-01 1.100000000000000000e+01
5.428296089172363281e+00 -5.165684223175048828e+00 -6.555854678153991699e-01 7.000000000000000000e+00
1.030714750289916992e+00 -9.822226762771606445e-01 3.814992606639862061e-01 3.200000000000000000e+01
1.868738174438477007e+00 -1.785804986953734907e+00 -6.925997734069824219e-01 1.800000000000000000e+01
2.159085035324097124e+00 -2.064708709716796875e+00 -6.896999478340148926e-01 1.800000000000000000e+01
2.563514947891234907e+00 -2.452317476272583008e+00 -6.895837187767028809e-01 1.000000000000000000e+01
3.170662641525268999e+00 -3.035249233245850053e+00 -6.951947808265686035e-01 1.000000000000000000e+01
2.701844406127930043e+01 -2.587357330322265980e+01 4.593255519866943359e+00 1.900000000000000000e+01
4.151357650756835938e+00 -3.976838588714600053e+00 -7.058672308921813965e-01 9.000000000000000000e+00
5.433247566223145419e+00 -5.206657409667968750e+00 -6.583744883537292480e-01 6.000000000000000000e+00
1.042059183120727983e+00 -9.996480345726013184e-01 3.333774507045745850e-01 2.000000000000000000e+00
1.023098230361938032e+00 -9.818017482757568359e-01 3.799463510513306219e-01 5.200000000000000000e+01
1.858317136764525923e+00 -1.788298487663269043e+00 -6.910468339920043945e-01 1.400000000000000000e+01
2.157479286193848100e+00 -2.077639818191527876e+00 -6.914995312690734863e-01 1.900000000000000000e+01
2.556353092193603960e+00 -2.462612867355347124e+00 -6.899653077125549316e-01 1.100000000000000000e+01
3.157204151153564009e+00 -3.043556451797484907e+00 -6.945690512657165527e-01 1.000000000000000000e+01
4.147451400756835938e+00 -4.000952720642089844e+00 -7.075734138488769531e-01 1.100000000000000000e+01
5.397835254669188565e+00 -5.208989143371582031e+00 -6.562827229499816895e-01 8.000000000000000000e+00
1.021744608879088911e+00 -9.870319366455078125e-01 3.279786407947539728e-01 2.800000000000000000e+01
1.015497326850890891e+00 -9.813396930694580078e-01 3.783934414386749268e-01 6.900000000000000000e+01
1.849288821220397949e+00 -1.792085528373718040e+00 -6.900115609169006348e-01 1.500000000000000000e+01
2.783137130737305043e+01 -2.697989654541015980e+01 6.765949130058288574e-01 3.200000000000000000e+01
2.153011798858643022e+00 -2.087871551513671875e+00 -6.923993229866027832e-01 2.100000000000000000e+01
2.544923067092895952e+00 -2.468787193298339844e+00 -6.892020702362060547e-01 1.200000000000000000e+01
3.140891313552856001e+00 -3.049054861068726030e+00 -6.933175325393676758e-01 1.000000000000000000e+01
4.139155864715576172e+00 -4.020938396453857422e+00 -7.085483670234680176e-01 1.100000000000000000e+01
5.356758117675781250e+00 -5.205582618713378906e+00 -6.534937620162963867e-01 9.000000000000000000e+00
1.067049264907836914e+00 -1.037297844886780007e+00 2.892664372920989990e-01 1.000000000000000000e+00
1.023880243301392046e+00 -9.960278272628784180e-01 3.297782540321350098e-01 5.800000000000000000e+01
1.007740974426269975e+00 -9.810124039649963379e-01 3.768405318260192871e-01 9.000000000000000000e+01
1.847169876098633035e+00 -1.802577614784240945e+00 -6.915645003318786621e-01 1.600000000000000000e+01
2.141528129577637163e+00 -2.091289520263671875e+00 -6.910496354103088379e-01 1.900000000000000000e+01
2.547524929046630859e+00 -2.488631010055541992e+00 -6.922550201416015625e-01 1.100000000000000000e+01
3.133054256439208984e+00 -3.062761783599853960e+00 -6.939432621002197266e-01 1.000000000000000000e+01
4.117999553680419922e+00 -4.028421401977539062e+00 -7.073296904563903809e-01 9.000000000000000000e+00
5.287291049957275391e+00 -5.174083232879638672e+00 -6.472185254096984863e-01 1.000000000000000000e+01
9.946783185005187988e-01 -9.737209677696228027e-01 2.705671489238739014e-01 1.000000000000000000e+01
1.024573564529418945e+00 -1.003686904907227007e+00 3.311279416084290106e-01 5.000000000000000000e+01
2.783923912048339844e+01 -2.728124046325683949e+01 -6.803646087646484375e-01 9.000000000000000000e+00
1.001722693443297896e+00 -9.816445708274841309e-01 3.758052587509155273e-01 9.700000000000000000e+01
1.849133849143981934e+00 -1.817138791084289995e+00 -6.946703195571899414e-01 1.700000000000000000e+01
2.125878334045410156e+00 -2.090553998947143999e+00 -6.883502006530761719e-01 1.900000000000000000e+01
2.541621685028076172e+00 -2.500261783599853960e+00 -6.930182576179504395e-01 1.100000000000000000e+01
3.125159502029418945e+00 -3.076451063156127930e+00 -6.945690512657165527e-01 1.000000000000000000e+01
4.113811969757080078e+00 -4.052523136138916016e+00 -7.090358138084411621e-01 1.100000000000000000e+01
1.062287807464600053e+00 -1.046826958656311035e+00 2.362160384654999057e-01 1.000000000000000000e+00
5.283389091491699219e+00 -5.206492900848388672e+00 -6.489616632461547852e-01 7.000000000000000000e+00
9.856808185577392578e-01 -9.716740250587463379e-01 2.690406739711760919e-01 2.400000000000000000e+01
1.019676446914673074e+00 -1.005888700485229048e+00 3.306780457496643066e-01 3.100000000000000000e+01
2.759012031555176137e+01 -2.722655677795410156e+01 -6.765949130058288574e-01 8.000000000000000000e+00
9.982900023460388184e-01 -9.851352572441101074e-01 3.758052587509155273e-01 8.000000000000000000e+01
1.847536921501159890e+00 -1.827014088630676047e+00 -6.962232589721679688e-01 1.600000000000000000e+01
2.126225948333739790e+00 -2.104075908660889116e+00 -6.905997395515441895e-01 1.900000000000000000e+01
2.738033103942871094e+01 -2.710455703735351918e+01 2.019121170043944868e+00 2.200000000000000000e+01
2.525382757186890093e+00 -2.499947071075439009e+00 -6.907285451889038086e-01 1.100000000000000000e+01
3.111268997192382812e+00 -3.082083463668822798e+00 -6.936303973197937012e-01 1.000000000000000000e+01
2.687935256958008168e+01 -2.663650321960448863e+01 4.646390438079833984e+00 1.900000000000000000e+01
4.098240852355957031e+00 -4.062632083892822266e+00 -7.085483670234680176e-01 1.100000000000000000e+01
1.010076165199280007e+00 -1.001299858093261941e+00 2.252656370401381891e-01 9.000000000000000000e+00
5.271250247955322266e+00 -5.227273941040039062e+00 -6.494845747947692871e-01 6.000000000000000000e+00
9.826233386993408203e-01 -9.747658371925354004e-01 2.690406739711760919e-01 4.800000000000000000e+01
9.943832159042358398e-01 -9.871205687522888184e-01 3.234796226024628241e-01 3.000000000000000000e+01
9.977588057518005371e-01 -9.911632537841796875e-01 3.768405318260192871e-01 7.600000000000000000e+01
1.832934856414794922e+00 -1.825273156166077104e+00 -6.931173801422119141e-01 1.600000000000000000e+01
2.123009443283081055e+00 -2.115611791610718218e+00 -6.919494271278381348e-01 2.000000000000000000e+01
2.519421815872191939e+00 -2.511519193649291992e+00 -6.914917826652526855e-01 1.100000000000000000e+01
3.115875244140625000e+00 -3.108270883560181108e+00 -6.970719695091247559e-01 1.100000000000000000e+01
4.086844444274902344e+00 -4.079717636108398438e+00 -7.090358138084411621e-01 1.100000000000000000e+01
9.840350747108459473e-01 -9.826620221138000488e-01 2.202597260475158969e-01 2.300000000000000000e+01
5.088023185729979581e+00 -5.080924034118652344e+00 -6.290901303291320801e-01 1.300000000000000000e+01
9.819927215576171875e-01 -9.809648990631103516e-01 2.698039114475250244e-01 6.700000000000000000e+01
9.826622009277343750e-01 -9.823192358016967773e-01 3.207802176475524902e-01 3.800000000000000000e+01
9.847323894500732422e-01 -9.850761890411376953e-01 3.732170760631560724e-01 6.600000000000000000e+01
1.816685438156127930e+00 -1.822401762008666992e+00 -6.894939541816711426e-01 1.500000000000000000e+01
2.120742321014403853e+00 -2.128901004791260210e+00 -6.937490701675415039e-01 2.000000000000000000e+01
2.510199785232543945e+00 -2.520736455917357954e+00 -6.914917826652526855e-01 1.100000000000000000e+01
3.098888397216796875e+00 -3.114069461822510210e+00 -6.958205103874206543e-01 1.100000000000000000e+01
2.662645912170410156e+01 -2.676624107360839844e+01 4.635665893554688388e+00 1.900000000000000000e+01
4.091460227966308594e+00 -4.114375591278076172e+00 -7.124481797218322754e-01 1.100000000000000000e+01
9.819918274879455566e-01 -9.874916672706604004e-01 2.205725908279418945e-01 4.900000000000000000e+01
5.097459316253662109e+00 -5.127798557281494141e+00 -6.325764060020446777e-01 1.100000000000000000e+01
9.673197865486145020e-01 -9.734168052673339844e-01 2.667509615421295166e-01 6.400000000000000000e+01
9.790552258491516113e-01 -9.859142899513244629e-01 3.207802176475524902e-01 4.000000000000000000e+01
9.756722450256347656e-01 -9.831937551498413086e-01 3.711465001106262207e-01 7.200000000000000000e+01
1.814390301704406960e+00 -1.832850813865662065e+00 -6.910468339920043945e-01 1.600000000000000000e+01
2.111927747726439986e+00 -2.134905576705933061e+00 -6.932991743087768555e-01 2.200000000000000000e+01
2.505526781082152876e+00 -2.533671140670775923e+00 -6.926366686820983887e-01 1.200000000000000000e+01
3.085222244262694868e+00 -3.122057437896728960e+00 -6.951947808265686035e-01 1.000000000000000000e+01
2.639335823059082031e+01 -2.671780014038085938e+01 4.611292362213134766e+00 1.900000000000000000e+01
4.074284076690673828e+00 -4.125807285308837891e+00 -7.119607329368591309e-01 1.100000000000000000e+01
9.785388708114624023e-01 -9.909134507179260254e-01 2.205725908279418945e-01 4.900000000000000000e+01
5.101924419403076172e+00 -5.168247222900390625e+00 -6.353653669357299805e-01 1.200000000000000000e+01
9.584000706672668457e-01 -9.711978435516357422e-01 2.652245163917542059e-01 5.700000000000000000e+01
9.783443808555603027e-01 -9.921008944511413574e-01 3.216800093650817871e-01 4.800000000000000000e+01
9.790141582489013672e-01 -9.934735298156738281e-01 3.737347126007080078e-01 6.800000000000000000e+01
1.814752817153931108e+00 -1.846061348915100098e+00 -6.936350464820861816e-01 1.500000000000000000e+01
2.096268653869628906e+00 -2.133923530578612837e+00 -6.905997395515441895e-01 2.100000000000000000e+01
2.507671833038330078e+00 -2.553607940673828125e+00 -6.956896185874938965e-01 1.200000000000000000e+01
3.078456163406372070e+00 -3.137037754058837891e+00 -6.961333751678466797e-01 1.100000000000000000e+01
4.062637329101563388e+00 -4.142838954925537109e+00 -7.124481797218322754e-01 1.300000000000000000e+01
9.750739336013793945e-01 -9.943231344223022461e-01 2.205725908279418945e-01 4.600000000000000000e+01
5.054563045501708984e+00 -5.156146526336669922e+00 -6.317048072814941406e-01 1.400000000000000000e+01
9.550041556358337402e-01 -9.745373725891113281e-01 2.652245163917542059e-01 6.000000000000000000e+01
9.680580496788024902e-01 -9.885483384132385254e-01 3.194305002689362127e-01 5.000000000000000000e+01
9.730114936828613281e-01 -9.939535856246948242e-01 3.726994395256041925e-01 6.800000000000000000e+01
1.808297872543334961e+00 -1.852384805679321067e+00 -6.936350464820861816e-01 1.500000000000000000e+01
2.742119407653808949e+01 -2.809954261779785156e+01 6.853210926055908203e-01 3.300000000000000000e+01
2.094250440597534180e+00 -2.146807432174683061e+00 -6.923993229866027832e-01 2.100000000000000000e+01
2.493260145187377930e+00 -2.556723594665526900e+00 -6.941631436347961426e-01 1.100000000000000000e+01
3.071623086929320845e+00 -3.152008533477783203e+00 -6.970719695091247559e-01 1.100000000000000000e+01
4.039841651916503906e+00 -4.148461818695068359e+00 -7.109857201576232910e-01 1.100000000000000000e+01
9.619501233100891113e-01 -9.878143072128295898e-01 2.183825075626373013e-01 5.100000000000000000e+01
5.040703296661376953e+00 -5.178041458129882812e+00 -6.322277784347534180e-01 1.200000000000000000e+01
9.474889039993286133e-01 -9.736440181732177734e-01 2.640796601772307794e-01 7.600000000000000000e+01
9.618842601776123047e-01 -9.891273379325866699e-01 3.185306787490844727e-01 4.900000000000000000e+01
9.801326394081115723e-01 -1.008596658706665039e+00 3.768405318260192871e-01 7.000000000000000000e+01
1.804510116577147993e+00 -1.861459732055664062e+00 -6.946703195571899414e-01 1.700000000000000000e+01
2.084032058715819868e+00 -2.151305437088013139e+00 -6.914995312690734863e-01 2.100000000000000000e+01
2.477491617202758789e+00 -2.558359384536743164e+00 -6.922550201416015625e-01 1.100000000000000000e+01
3.072965145111083984e+00 -3.175487041473389116e+00 -6.998878121376037598e-01 1.000000000000000000e+01
4.029476165771484375e+00 -4.166819095611572266e+00 -7.117169499397277832e-01 1.300000000000000000e+01
9.543765187263488770e-01 -9.869060516357421875e-01 2.174439132213593084e-01 5.900000000000000000e+01
5.130610466003417969e+00 -5.307338714599609375e+00 -6.458240747451782227e-01 1.000000000000000000e+01
9.481773376464843750e-01 -9.811807274818420410e-01 2.652245163917542059e-01 7.300000000000000000e+01
9.557182788848876953e-01 -9.896752834320068359e-01 3.176308870315551758e-01 4.900000000000000000e+01
9.660487174987792969e-01 -1.000722169876099077e+00 3.726994395256041925e-01 7.000000000000000000e+01
1.789962649345397949e+00 -1.859396815299988015e+00 -6.915645003318786621e-01 1.600000000000000000e+01
2.090019941329956055e+00 -2.172610998153686968e+00 -6.959985494613647461e-01 2.200000000000000000e+01
2.473989486694335938e+00 -2.572652101516724077e+00 -6.937814950942993164e-01 1.200000000000000000e+01
3.056386947631835938e+00 -3.180497169494628906e+00 -6.986362934112548828e-01 1.100000000000000000e+01
2.684287834167480113e+01 -2.794264221191405895e+01 4.757535457611083984e+00 2.000000000000000000e+01
4.023156166076660156e+00 -4.189450263977050781e+00 -7.131794095039367676e-01 1.300000000000000000e+01
9.521209001541137695e-01 -9.918224215507507324e-01 2.177567780017853061e-01 5.800000000000000000e+01
5.098255634307861328e+00 -5.310842514038085938e+00 -6.440809369087219238e-01 1.300000000000000000e+01
9.406685829162597656e-01 -9.802349805831909180e-01 2.640796601772307794e-01 7.200000000000000000e+01
9.616995453834533691e-01 -1.002851009368896040e+00 3.207802176475524902e-01 4.600000000000000000e+01
9.597011804580688477e-01 -1.001466631889343040e+00 3.716641366481781006e-01 7.700000000000000000e+01
1.785447716712952104e+00 -1.866406917572021040e+00 -6.920821070671081543e-01 1.500000000000000000e+01
2.076451301574707031e+00 -2.172122955322266069e+00 -6.937490701675415039e-01 1.900000000000000000e+01
2.463182210922241211e+00 -2.577573060989379883e+00 -6.930182576179504395e-01 1.100000000000000000e+01
3.046380043029785156e+00 -3.190083265304564986e+00 -6.986362934112548828e-01 1.000000000000000000e+01
4.012715816497802734e+00 -4.204940795898438388e+00 -7.136668562889099121e-01 1.300000000000000000e+01
9.559926986694335938e-01 -1.001788496971129927e+00 2.193211168050765991e-01 5.000000000000000000e+01
5.065042972564697266e+00 -5.309533596038818359e+00 -6.419891715049743652e-01 9.000000000000000000e+00
9.335197806358337402e-01 -9.789229631423950195e-01 2.629348039627075195e-01 6.700000000000000000e+01
9.612330198287963867e-01 -1.008688807487488015e+00 3.216800093650817871e-01 4.600000000000000000e+01
9.540605545043945312e-01 -1.001512169837952104e+00 3.706288635730742853e-01 8.600000000000000000e+01
1.782913565635680930e+00 -1.876829743385314941e+00 -6.936350464820861816e-01 1.600000000000000000e+01
2.063489913940430132e+00 -2.173704624176024947e+00 -6.919494271278381348e-01 1.900000000000000000e+01
2.464981079101562944e+00 -2.597548246383666992e+00 -6.960712075233459473e-01 1.100000000000000000e+01
3.035226106643677202e+00 -3.200697660446166992e+00 -6.986362934112548828e-01 1.000000000000000000e+01
2.701750946044921875e+01 -2.850038528442383168e+01 4.821882247924804688e+00 2.000000000000000000e+01
3.989820957183837891e+00 -4.210276603698729581e+00 -7.122044563293457031e-01 1.300000000000000000e+01
9.441635012626647949e-01 -9.966812133789062500e-01 2.174439132213593084e-01 5.100000000000000000e+01
5.038257122039794922e+00 -5.318502902984619141e+00 -6.409433484077453613e-01 1.000000000000000000e+01
9.381965398788452148e-01 -9.907286167144775391e-01 2.652245163917542059e-01 6.300000000000000000e+01
9.563667178153991699e-01 -1.010622501373291016e+00 3.212301135063170832e-01 4.400000000000000000e+01
9.543654918670654297e-01 -1.009213209152221902e+00 3.721817731857299805e-01 9.200000000000000000e+01
1.782979488372802956e+00 -1.890068054199218972e+00 -6.962232589721679688e-01 1.600000000000000000e+01
2.061236619949340820e+00 -2.186566352844237837e+00 -6.937490701675415039e-01 1.900000000000000000e+01
2.455899000167847124e+00 -2.606136798858643022e+00 -6.960712075233459473e-01 1.200000000000000000e+01
3.030806303024291992e+00 -3.218463659286499023e+00 -7.002006769180297852e-01 1.100000000000000000e+01
3.977820634841918945e+00 -4.227069377899169922e+00 -7.126919031143188477e-01 1.300000000000000000e+01
9.394994378089904785e-01 -9.983681440353393555e-01 2.171310335397720059e-01 5.600000000000000000e+01
5.027852535247802734e+00 -5.344764232635498047e+00 -6.419891715049743652e-01 6.000000000000000000e+00
9.468370079994201660e-01 -1.006869435310363992e+00 2.686590552330017090e-01 4.000000000000000000e+01
9.434916377067565918e-01 -1.004014015197753906e+00 3.180807828903198242e-01 4.500000000000000000e+01
9.602723717689514160e-01 -1.022228598594665971e+00 3.758052587509155273e-01 9.000000000000000000e+01
1.768446683883666992e+00 -1.887821078300476074e+00 -6.931173801422119141e-01 1.100000000000000000e+01
2.053591489791870117e+00 -2.193747997283935991e+00 -6.937490701675415039e-01 1.600000000000000000e+01
2.444104194641112837e+00 -2.611826658248900923e+00 -6.953079700469970703e-01 1.100000000000000000e+01
3.031696319580078125e+00 -3.242008924484252930e+00 -7.030164599418640137e-01 1.100000000000000000e+01
2.646000289916991832e+01 -2.830546760559082031e+01 4.757535457611083984e+00 2.000000000000000000e+01
3.975239515304564986e+00 -4.253982543945313388e+00 -7.148855924606323242e-01 1.500000000000000000e+01
9.250462055206298828e-01 -9.902566671371459961e-01 2.146280854940413874e-01 5.800000000000000000e+01
5.045886993408203125e+00 -5.401593208312988281e+00 -6.466956138610839844e-01 9.000000000000000000e+00
9.526961445808410645e-01 -1.020212650299072044e+00 2.713303864002227783e-01 3.700000000000000000e+01
9.439698457717895508e-01 -1.011575579643249956e+00 3.194305002689362127e-01 3.900000000000000000e+01
9.486141800880432129e-01 -1.017264127731323020e+00 3.726994395256041925e-01 7.800000000000000000e+01
1.749675750732422097e+00 -1.881557703018188032e+00 -6.884586811065673828e-01 8.000000000000000000e+00
2.054822921752930132e+00 -2.211252927780150923e+00 -6.968983411788940430e-01 1.200000000000000000e+01
2.434514760971068892e+00 -2.620767116546630859e+00 -6.953079700469970703e-01 1.100000000000000000e+01
3.009042024612427202e+00 -3.241516828536986861e+00 -7.005135416984558105e-01 1.000000000000000000e+01
3.967721223831177202e+00 -4.277256011962890625e+00 -7.163479924201965332e-01 1.500000000000000000e+01
9.269576072692871094e-01 -9.992725253105163574e-01 2.158795595169067105e-01 4.800000000000000000e+01
4.973220825195313388e+00 -5.363074779510498047e+00 -6.398974657058715820e-01 7.000000000000000000e+00
9.436118006706237793e-01 -1.017938375473022017e+00 2.698039114475250244e-01 6.400000000000000000e+01
9.442288279533386230e-01 -1.019317388534545898e+00 3.207802176475524902e-01 1.200000000000000000e+01
9.398071169853210449e-01 -1.014899373054503950e+00 3.706288635730742853e-01 6.600000000000000000e+01
1.752271413803101030e+00 -1.897588849067687988e+00 -6.920821070671081543e-01 3.000000000000000000e+00
2.041805505752563032e+00 -2.212683439254761186e+00 -6.950987577438354492e-01 8.000000000000000000e+00
2.430676460266112837e+00 -2.635021448135375977e+00 -6.968344449996948242e-01 1.200000000000000000e+01
2.986997842788695845e+00 -3.240381002426147017e+00 -6.980105638504028320e-01 1.000000000000000000e+01
3.959491252899169922e+00 -4.298379898071289062e+00 -7.175666689872741699e-01 1.500000000000000000e+01
9.259650707244873047e-01 -1.005569577217102051e+00 2.165053039789200107e-01 1.600000000000000000e+01
4.967966079711914062e+00 -5.395058155059813565e+00 -6.416406035423278809e-01 1.100000000000000000e+01
9.307453632354736328e-01 -1.011114835739135964e+00 2.671325802803040106e-01 7.800000000000000000e+01
9.551773071289062500e-01 -1.038383722305298074e+00 3.257291316986083984e-01 2.000000000000000000e+00
9.478474259376525879e-01 -1.031137466430664062e+00 3.752876222133635919e-01 6.000000000000000000e+01
1.776972174644469993e+00 -1.937866330146789995e+00 -7.045054435729980469e-01 1.000000000000000000e+00
2.028803110122681108e+00 -2.214050054550170898e+00 -6.932991743087768555e-01 2.000000000000000000e+00
2.430746316909790039e+00 -2.653623819351195845e+00 -6.995058059692382812e-01 1.200000000000000000e+01
2.997009038925170898e+00 -3.274101495742797852e+00 -7.030164599418640137e-01 1.000000000000000000e+01
3.931064844131470171e+00 -4.297527790069580078e+00 -7.151293158531188965e-01 1.300000000000000000e+01
9.292917847633361816e-01 -1.015922427177428977e+00 2.180696427822113037e-01 2.000000000000000000e+01
4.973304748535156250e+00 -5.438833236694335938e+00 -6.447781920433044434e-01 9.000000000000000000e+00
9.232364892959594727e-01 -1.010010361671447976e+00 2.659877538681030273e-01 7.300000000000000000e+01
9.691732525825500488e-01 -1.061380147933959961e+00 3.851227462291718084e-01 6.200000000000000000e+01
2.086638689041138139e+00 -2.293185949325561968e+00 -7.157942652702331543e-01 1.000000000000000000e+00
2.416184425354003906e+00 -2.656283378601074219e+00 -6.979793310165405273e-01 1.200000000000000000e+01
2.992205381393433061e+00 -3.291851758956909180e+00 -7.045808434486389160e-01 1.100000000000000000e+01
3.928051948547362837e+00 -4.324448108673095703e+00 -7.173229455947875977e-01 1.500000000000000000e+01
9.244117140769958496e-01 -1.017697930335998979e+00 2.177567780017853061e-01 3.300000000000000000e+01
4.919466018676757812e+00 -5.417809009552001953e+00 -6.402460932731628418e-01 9.000000000000000000e+00
9.263028502464294434e-01 -1.020495414733886941e+00 2.678958177566527765e-01 6.000000000000000000e+01
9.888203740119934082e-01 -1.090516924858093040e+00 3.944402337074279785e-01 6.800000000000000000e+01
2.405116796493529829e+00 -2.663664102554320845e+00 -6.975976824760437012e-01 1.100000000000000000e+01
2.974826812744141069e+00 -3.296930313110352007e+00 -7.033293843269348145e-01 1.100000000000000000e+01
3.906858444213867188e+00 -4.332919120788574219e+00 -7.163479924201965332e-01 1.500000000000000000e+01
9.138844609260559082e-01 -1.013903379440308061e+00 2.161924242973327914e-01 3.600000000000000000e+01
4.882234096527099609e+00 -5.416564464569091797e+00 -6.379800438880920410e-01 7.000000000000000000e+00
9.264988899230957031e-01 -1.028259158134460005e+00 2.690406739711760919e-01 1.500000000000000000e+01
2.390561819076538086e+00 -2.666196346282958984e+00 -6.960712075233459473e-01 1.100000000000000000e+01
2.971209526062012163e+00 -3.316121578216553178e+00 -7.052065730094909668e-01 1.100000000000000000e+01
3.911572456359862837e+00 -4.368713855743408203e+00 -7.200040817260742188e-01 1.300000000000000000e+01
9.235139489173889160e-01 -1.031806349754333052e+00 2.193211168050765991e-01 2.200000000000000000e+01
4.827420234680175781e+00 -5.393489837646484375e+00 -6.332736015319824219e-01 7.000000000000000000e+00
9.922853708267211914e-01 -1.109031438827515093e+00 2.892664372920989990e-01 1.000000000000000000e+00
2.394295454025268999e+00 -2.689187765121459961e+00 -6.998873949050903320e-01 1.200000000000000000e+01
2.953050613403319868e+00 -3.319093704223632812e+00 -7.036422491073608398e-01 1.100000000000000000e+01
3.891022920608520952e+00 -4.376407146453857422e+00 -7.190291285514831543e-01 1.300000000000000000e+01
4.837683200836181641e+00 -5.443070411682128906e+00 -6.371085047721862793e-01 1.000000000000000000e+01
9.758719801902770996e-01 -1.099537611007689986e+00 3.939225971698760986e-01 1.000000000000000000e+00
2.390095472335814986e+00 -2.703412294387816939e+00 -7.014138698577880859e-01 1.100000000000000000e+01
9.565763473510742188e-01 -1.082354307174683061e+00 1.263758242130280096e-01 1.000000000000000000e+00
2.945370435714722124e+00 -3.333822727203369141e+00 -7.045808434486389160e-01 1.100000000000000000e+01
9.684652090072631836e-01 -1.096577525138854980e+00 1.796354055404663086e-01 1.000000000000000000e+00
3.861270904541016069e+00 -4.373593330383300781e+00 -7.163479924201965332e-01 1.500000000000000000e+01
4.788331031799316406e+00 -5.425566196441650391e+00 -6.330993175506591797e-01 7.000000000000000000e+00
9.665437340736389160e-01 -1.096328616142272949e+00 3.374265730381011963e-01 2.000000000000000000e+00
9.720279574394226074e-01 -1.102937340736388938e+00 3.939225971698760986e-01 1.100000000000000000e+01
2.378999233245850053e+00 -2.707957983016968218e+00 -7.006506323814392090e-01 1.100000000000000000e+01
9.584301710128784180e-01 -1.091342329978943093e+00 1.270730793476105014e-01 1.000000000000000000e+01
2.941398620605469194e+00 -3.350481748580933061e+00 -7.061451673507690430e-01 1.100000000000000000e+01
9.584684967994689941e-01 -1.092154622077941895e+00 1.784167140722275058e-01 7.000000000000000000e+00
3.837038755416870117e+00 -4.373764038085938388e+00 -7.143980860710144043e-01 1.600000000000000000e+01
9.262307286262512207e-01 -1.055791974067687988e+00 2.224498093128204068e-01 1.000000000000000000e+00
4.785713195800781250e+00 -5.457059860229492188e+00 -6.350167393684387207e-01 7.000000000000000000e+00
9.592423439025878906e-01 -1.094962239265441895e+00 3.360768854618073065e-01 1.300000000000000000e+01
9.545580148696899414e-01 -1.089998960494994895e+00 3.882285654544829767e-01 2.900000000000000000e+01
9.623913764953613281e-01 -1.103209972381592019e+00 7.672451436519622803e-02 3.000000000000000000e+00
2.368241548538208008e+00 -2.714766263961791992e+00 -7.002689838409423828e-01 1.100000000000000000e+01
9.559243321418762207e-01 -1.096182823181151900e+00 1.272473782300949097e-01 2.700000000000000000e+01
2.932281494140625000e+00 -3.363706827163695845e+00 -7.067708969116210938e-01 1.100000000000000000e+01
9.611711502075195312e-01 -1.102976441383362038e+00 1.796354055404663086e-01 2.700000000000000000e+01
3.816532611846923828e+00 -4.381144046783447266e+00 -7.134231328964233398e-01 2.400000000000000000e+01
9.418138265609741211e-01 -1.081525206565856934e+00 2.271428406238555908e-01 1.300000000000000000e+01
4.750933647155761719e+00 -5.455701351165770596e+00 -6.329250335693359375e-01 1.000000000000000000e+01
9.528563618659973145e-01 -1.095363378524780051e+00 3.351770639419556219e-01 4.200000000000000000e+01
9.404172897338867188e-01 -1.081826329231261985e+00 3.840874731540679932e-01 4.300000000000000000e+01
9.716830849647521973e-01 -1.121346116065979004e+00 2.589937113225460052e-02 5.000000000000000000e+00
9.506884813308715820e-01 -1.097504734992980957e+00 7.609648257493972778e-02 1.600000000000000000e+01
2.350564479827880859e+00 -2.714523077011107954e+00 -6.979793310165405273e-01 1.100000000000000000e+01
9.310366511344909668e-01 -1.075576543807982954e+00 1.244584023952483992e-01 3.600000000000000000e+01
2.921225786209106001e+00 -3.375925540924071822e+00 -7.070837616920471191e-01 1.100000000000000000e+01
9.493300318717956543e-01 -1.097483873367310014e+00 1.781729757785797119e-01 4.300000000000000000e+01
3.803045988082886186e+00 -4.398106098175048828e+00 -7.139106392860412598e-01 2.800000000000000000e+01
9.378435015678405762e-01 -1.084969878196716087e+00 2.271428406238555908e-01 5.400000000000000000e+01
4.594099044799804688e+00 -5.314809322357177734e+00 -6.146222949028015137e-01 1.000000000000000000e+00
9.293327927589416504e-01 -1.075503468513488992e+00 2.762914299964904785e-01 4.000000000000000000e+00
9.348256587982177734e-01 -1.082623839378356934e+00 3.302281498908997137e-01 4.600000000000000000e+01
9.214875102043151855e-01 -1.067553520202636941e+00 3.778758049011229914e-01 5.000000000000000000e+01
9.416776895523071289e-01 -1.094414949417114036e+00 2.520127408206462860e-02 2.600000000000000000e+01
9.429444670677185059e-01 -1.096274018287658913e+00 7.578246295452117920e-02 4.200000000000000000e+01
2.344914674758911133e+00 -2.727177381515502930e+00 -6.991241574287414551e-01 1.100000000000000000e+01
9.168868660926818848e-01 -1.066732287406920943e+00 1.230639070272445956e-01 4.900000000000000000e+01
2.909423828125000000e+00 -3.386101961135863814e+00 -7.070837616920471191e-01 1.100000000000000000e+01
9.325590729713439941e-01 -1.085732221603393999e+00 1.757355928421021063e-01 5.000000000000000000e+01
3.772152662277222124e+00 -4.393280982971191406e+00 -7.109857201576232910e-01 2.400000000000000000e+01
9.237579703330993652e-01 -1.076245427131653054e+00 2.246398925781250000e-01 5.200000000000000000e+01
9.358002543449401855e-01 -1.090660572052001953e+00 2.793443799018859863e-01 3.500000000000000000e+01
9.335777759552001953e-01 -1.088839173316956010e+00 3.311279416084290106e-01 4.700000000000000000e+01
1.009847760200500044e+00 -1.178209543228148970e+00 -2.708613499999045979e-02 1.000000000000000000e+00
9.102122783660888672e-01 -1.061962842941283958e+00 3.747699856758118231e-01 5.000000000000000000e+01
9.419410228729248047e-01 -1.102092027664185014e+00 2.530599012970924030e-02 4.400000000000000000e+01
