2.318577289581298828e+00 -2.757303476333618164e+00 -7.002689838409423828e-01 1.200000000000000000e+01
2.878370523452758789e+00 -3.425448894500731978e+00 -7.086481451988220215e-01 1.000000000000000000e+01
3.709577322006226030e+00 -4.417769432067871094e+00 -7.083046436309814453e-01 2.400000000000000000e+01
4.598608970642089844e+00 -5.478466510772705078e+00 -6.257782578468322754e-01 7.000000000000000000e+00
1.668834447860717995e+00 -1.996611714363097922e+00 -6.972585320472717285e-01 1.700000000000000000e+01
1.941312193870543990e+00 -2.324255466461182085e+00 -6.991478800773620605e-01 1.300000000000000000e+01
2.312713146209716797e+00 -2.769901275634766069e+00 -7.014138698577880859e-01 1.300000000000000000e+01
2.868927001953125000e+00 -3.438508987426757812e+00 -7.092738747596740723e-01 1.100000000000000000e+01
3.686506509780883789e+00 -4.421543121337890625e+00 -7.068421840667724609e-01 2.000000000000000000e+01
4.575630664825438565e+00 -5.489893913269042969e+00 -6.252552866935729980e-01 7.000000000000000000e+00
1.669257283210753950e+00 -2.011344194412231001e+00 -7.003643512725830078e-01 1.500000000000000000e+01
1.935675263404845969e+00 -2.334017753601074219e+00 -7.000476717948913574e-01 1.100000000000000000e+01
2.306789398193358931e+00 -2.782491445541381836e+00 -7.025586962699890137e-01 1.200000000000000000e+01
2.854386568069458008e+00 -3.445460081100463867e+00 -7.086481451988220215e-01 1.000000000000000000e+01
3.672315835952758789e+00 -4.435913562774658203e+00 -7.070859074592590332e-01 2.600000000000000000e+01
4.604709625244140625e+00 -5.564160346984863281e+00 -6.318791508674621582e-01 6.000000000000000000e+00
1.733470153808594105e+01 -2.096150398254394887e+01 -1.425526738166809082e+00 1.300000000000000000e+01
1.659769177436829057e+00 -2.014177083969116211e+00 -6.993290781974792480e-01 1.500000000000000000e+01
1.923799991607666016e+00 -2.336247205734252930e+00 -6.986979842185974121e-01 1.300000000000000000e+01
2.300805807113647017e+00 -2.795073986053466797e+00 -7.037035822868347168e-01 1.100000000000000000e+01
2.846106767654418945e+00 -3.459979534149169922e+00 -7.095867395401000977e-01 1.100000000000000000e+01
3.634119510650635210e+00 -4.421102046966552734e+00 -7.026986479759216309e-01 2.200000000000000000e+01
4.605497360229492188e+00 -5.604829311370849609e+00 -6.346681118011474609e-01 9.000000000000000000e+00
1.653951525688170943e+00 -2.021453619003295898e+00 -6.998466849327087402e-01 1.400000000000000000e+01
1.913166165351867898e+00 -2.339931011199951172e+00 -6.977981925010681152e-01 1.200000000000000000e+01
2.286065340042113814e+00 -2.797007799148560014e+00 -7.021771073341369629e-01 1.100000000000000000e+01
2.836511135101317915e+00 -3.472953081130981001e+00 -7.102124691009521484e-01 1.100000000000000000e+01
3.607368469238280806e+00 -4.419919490814208984e+00 -7.005049586296081543e-01 1.900000000000000000e+01
4.525447845458984375e+00 -5.546770572662354404e+00 -6.263011693954467773e-01 1.000000000000000000e+01
1.714755630493164062e+01 -2.103247451782226918e+01 -1.422177314758301003e+00 1.300000000000000000e+01
1.646885275840759055e+00 -2.027214765548706055e+00 -6.998466849327087402e-01 1.500000000000000000e+01
1.912356019020081010e+00 -2.355672597885131836e+00 -7.004975676536560059e-01 1.300000000000000000e+01
2.271339654922484907e+00 -2.798872709274291992e+00 -7.006506323814392090e-01 1.100000000000000000e+01
2.829347848892211914e+00 -3.488970279693603960e+00 -7.114639282226562500e-01 1.100000000000000000e+01
3.615664243698120117e+00 -4.461788177490234375e+00 -7.051360011100769043e-01 1.600000000000000000e+01
4.355564117431640625e+00 -5.376754283905029297e+00 -6.053838133811950684e-01 1.200000000000000000e+01
1.701371574401855113e+01 -2.101768875122069957e+01 -1.417153000831604004e+00 1.200000000000000000e+01
1.632168531417846902e+00 -2.024214029312133789e+00 -6.967408657073974609e-01 1.500000000000000000e+01
1.909822583198546919e+00 -2.370253086090087891e+00 -7.027471065521240234e-01 1.300000000000000000e+01
2.265991926193236861e+00 -2.813294649124145952e+00 -7.021771073341369629e-01 1.100000000000000000e+01
2.819018125534058061e+00 -3.502394676208496094e+00 -7.120896577835083008e-01 1.100000000000000000e+01
3.596798419952393022e+00 -4.471916198730468750e+00 -7.046485543251037598e-01 1.600000000000000000e+01
4.438199996948242188e+00 -5.520007610321044922e+00 -6.196773052215576172e-01 1.000000000000000000e+01
1.689904022216796875e+01 -2.103319740295410156e+01 -1.414012908935547097e+00 1.200000000000000000e+01
1.631129503250122070e+00 -2.037439346313477007e+00 -6.993290781974792480e-01 1.400000000000000000e+01
1.899102449417114036e+00 -2.373861789703369141e+00 -7.018473148345947266e-01 1.400000000000000000e+01
2.259836435317993164e+00 -2.825787067413330078e+00 -7.033219337463378906e-01 1.200000000000000000e+01
2.803075790405272993e+00 -3.507584095001221147e+00 -7.111510634422302246e-01 1.100000000000000000e+01
3.572495460510253906e+00 -4.473586082458496094e+00 -7.029423713684082031e-01 1.600000000000000000e+01
4.401502132415770596e+00 -5.513666629791259766e+00 -6.172369718551635742e-01 8.000000000000000000e+00
1.680808067321776988e+01 -2.107019805908203125e+01 -1.412547469139098899e+00 1.200000000000000000e+01
1.625566482543945090e+00 -2.044349431991577148e+00 -6.998466849327087402e-01 1.500000000000000000e+01
1.882733821868896040e+00 -2.369466304779053178e+00 -6.986979842185974121e-01 1.300000000000000000e+01
2.259001016616820845e+00 -2.844026803970336914e+00 -7.059932947158813477e-01 1.100000000000000000e+01
2.795113086700439009e+00 -3.521501779556273970e+00 -7.120896577835083008e-01 1.100000000000000000e+01
3.547772169113159180e+00 -4.472966194152832031e+00 -7.009924650192260742e-01 3.300000000000000000e+01
4.493361949920654297e+00 -5.667179584503173828e+00 -6.327506899833679199e-01 9.000000000000000000e+00
1.669098472595214844e+01 -2.106633377075194957e+01 -1.408569931983947976e+00 1.200000000000000000e+01
1.626799821853637917e+00 -2.060625076293944868e+00 -7.034701704978942871e-01 1.600000000000000000e+01
1.879279255867003950e+00 -2.382143735885620117e+00 -7.004975676536560059e-01 1.300000000000000000e+01
2.242981195449829102e+00 -2.844187021255493164e+00 -7.040851712226867676e-01 1.300000000000000000e+01
2.785248994827270952e+00 -3.534340143203734907e+00 -7.127154469490051270e-01 1.100000000000000000e+01
3.528452634811400923e+00 -4.480644226074218750e+00 -7.002612352371215820e-01 3.300000000000000000e+01
4.312109947204589844e+00 -5.477746963500976562e+00 -6.099159121513366699e-01 7.000000000000000000e+00
1.657536315917969105e+01 -2.107109451293944957e+01 -1.405011057853698953e+00 1.200000000000000000e+01
1.615189552307128906e+00 -2.059927463531494141e+00 -7.013996243476867676e-01 1.600000000000000000e+01
1.877379059791564941e+00 -2.396032333374022993e+00 -7.027471065521240234e-01 1.300000000000000000e+01
2.231116056442261186e+00 -2.848518133163452148e+00 -7.033219337463378906e-01 1.200000000000000000e+01
2.775948524475098100e+00 -3.546668052673339844e+00 -7.133411765098571777e-01 1.100000000000000000e+01
3.509906053543090820e+00 -4.487629413604736328e+00 -6.995300054550170898e-01 3.100000000000000000e+01
4.475544929504395419e+00 -5.724316596984863281e+00 -6.357139945030212402e-01 1.100000000000000000e+01
1.648080444335937855e+01 -2.109446716308594105e+01 -1.402917623519897017e+00 2.500000000000000000e+01
1.599682211875915971e+00 -2.054882287979125977e+00 -6.977761387825012207e-01 1.600000000000000000e+01
1.873790025711060014e+00 -2.408723354339600053e+00 -7.045466899871826172e-01 1.300000000000000000e+01
2.222364425659180132e+00 -2.857838630676269975e+00 -7.037035822868347168e-01 1.200000000000000000e+01
2.762339353561400923e+00 -3.554776430130004883e+00 -7.130283117294311523e-01 1.000000000000000000e+01
3.486914873123168945e+00 -4.490446567535400391e+00 -6.980676054954528809e-01 3.100000000000000000e+01
4.489743709564208984e+00 -5.783972740173339844e+00 -6.405947208404541016e-01 9.000000000000000000e+00
1.632872581481933949e+01 -2.105086708068848012e+01 -1.396218657493591087e+00 1.200000000000000000e+01
1.601588845252990945e+00 -2.072961568832397017e+00 -7.019172310829162598e-01 1.500000000000000000e+01
1.858994603157043013e+00 -2.407862424850463867e+00 -7.022972106933593750e-01 1.300000000000000000e+01
2.220271587371826172e+00 -2.876844167709351030e+00 -7.063748836517333984e-01 1.200000000000000000e+01
2.746879100799560991e+00 -3.561748743057250977e+00 -7.124025821685791016e-01 1.100000000000000000e+01
3.468009710311890093e+00 -4.500051975250244141e+00 -6.975800991058349609e-01 3.600000000000000000e+01
4.464866638183593750e+00 -5.795654296875000000e+00 -6.400717496871948242e-01 7.000000000000000000e+00
1.618323326110839844e+01 -2.102194595336914062e+01 -1.390357017517090066e+00 1.200000000000000000e+01
1.593167304992676003e+00 -2.077006578445435014e+00 -7.013996243476867676e-01 1.600000000000000000e+01
1.850578188896178977e+00 -2.414336919784545898e+00 -7.022972106933593750e-01 1.300000000000000000e+01
2.211410045623778853e+00 -2.886135339736938032e+00 -7.067565321922302246e-01 1.200000000000000000e+01
2.734429597854613814e+00 -3.571315288543701172e+00 -7.124025821685791016e-01 1.000000000000000000e+01
3.502942800521851030e+00 -4.578345775604248047e+00 -7.078171372413635254e-01 2.000000000000000000e+01
4.472447872161865234e+00 -5.847603797912597656e+00 -6.440809369087219238e-01 1.000000000000000000e+01
1.612188339233398082e+01 -2.109417724609375000e+01 -1.391403675079345925e+00 1.200000000000000000e+01
1.589783072471619096e+00 -2.086888551712036133e+00 -7.029525041580200195e-01 1.600000000000000000e+01
1.842561841011046919e+00 -2.420460462570189986e+00 -7.022972106933593750e-01 1.300000000000000000e+01
2.193504810333251953e+00 -2.882516384124755859e+00 -7.040851712226867676e-01 1.200000000000000000e+01
2.727354288101195845e+00 -3.586652994155883789e+00 -7.136540412902832031e-01 1.000000000000000000e+01
3.500952243804932085e+00 -4.607323169708251953e+00 -7.104982733726501465e-01 2.200000000000000000e+01
4.481955528259277344e+00 -5.900480747222900391e+00 -6.482644081115722656e-01 7.000000000000000000e+00
1.581323385238647017e+00 -2.090884447097777876e+00 -7.024348974227905273e-01 1.600000000000000000e+01
1.838801383972167969e+00 -2.433096170425415039e+00 -7.040967941284179688e-01 1.100000000000000000e+01
2.182246208190917969e+00 -2.888589143753052202e+00 -7.037035822868347168e-01 1.200000000000000000e+01
2.719578742980957031e+00 -3.602457761764525923e+00 -7.149055004119873047e-01 1.000000000000000000e+01
3.480066537857056108e+00 -4.613176345825195312e+00 -7.095233201980590820e-01 1.800000000000000000e+01
4.428942680358886719e+00 -5.873138427734375000e+00 -6.435580253601074219e-01 7.000000000000000000e+00
1.566691398620605025e+00 -2.087395668029785156e+00 -6.993290781974792480e-01 1.500000000000000000e+01
1.838056087493896040e+00 -2.450732231140137163e+00 -7.072461247444152832e-01 1.300000000000000000e+01
2.178710460662841797e+00 -2.905992984771728960e+00 -7.059932947158813477e-01 1.300000000000000000e+01
2.703988075256348100e+00 -3.609239339828491211e+00 -7.142797708511352539e-01 1.000000000000000000e+01
3.429824113845825195e+00 -4.581405639648438388e+00 -7.026986479759216309e-01 1.600000000000000000e+01
4.425292968750000000e+00 -5.913259506225585938e+00 -6.461727023124694824e-01 7.000000000000000000e+00
1.566321015357970969e+00 -2.102146387100220171e+00 -7.024348974227905273e-01 1.600000000000000000e+01
1.824835062026977983e+00 -2.450881242752075195e+00 -7.054464817047119141e-01 1.300000000000000000e+01
2.177930831909180132e+00 -2.926179647445679155e+00 -7.090462446212768555e-01 1.400000000000000000e+01
2.690194129943848100e+00 -3.617071151733397993e+00 -7.139669060707092285e-01 1.100000000000000000e+01
3.345132350921630859e+00 -4.500941276550292969e+00 -6.885617971420288086e-01 1.900000000000000000e+01
4.405813217163085938e+00 -5.930269718170166016e+00 -6.463469862937927246e-01 7.000000000000000000e+00
1.633295822143555043e+01 -2.200036811828612926e+01 -1.435993909835814986e+00 1.300000000000000000e+01
1.561271309852600098e+00 -2.110707283020019975e+00 -7.034701704978942871e-01 1.600000000000000000e+01
1.810477018356323020e+00 -2.449400424957274947e+00 -7.031970024108886719e-01 1.100000000000000000e+01
2.168869972229003906e+00 -2.935343027114868164e+00 -7.094278335571289062e-01 1.400000000000000000e+01
2.678725004196166992e+00 -3.628028631210327148e+00 -7.142797708511352539e-01 1.000000000000000000e+01
3.305829763412476030e+00 -4.480642795562744141e+00 -6.836870312690734863e-01 2.100000000000000000e+01
4.398094654083251953e+00 -5.963251113891601562e+00 -6.482644081115722656e-01 1.000000000000000000e+01
1.558467626571655051e+00 -2.122372865676879883e+00 -7.055407166481018066e-01 1.500000000000000000e+01
1.801916003227234109e+00 -2.455705404281616211e+00 -7.031970024108886719e-01 1.100000000000000000e+01
2.156288146972655806e+00 -2.939729928970336914e+00 -7.086645960807800293e-01 1.800000000000000000e+01
2.670715570449829102e+00 -3.643730163574219194e+00 -7.155312299728393555e-01 1.000000000000000000e+01
3.272574663162231001e+00 -4.468132972717285156e+00 -6.800309419631958008e-01 1.900000000000000000e+01
4.358419895172119141e+00 -5.952845573425292969e+00 -6.454754471778869629e-01 1.200000000000000000e+01
1.545359849929810014e+00 -2.119994401931763139e+00 -7.029525041580200195e-01 1.500000000000000000e+01
1.797922492027282937e+00 -2.468280792236328125e+00 -7.049965858459472656e-01 1.200000000000000000e+01
2.143702268600463867e+00 -2.944064617156981978e+00 -7.079013586044311523e-01 1.700000000000000000e+01
2.660304784774779829e+00 -3.656224966049193892e+00 -7.161569595336914062e-01 1.000000000000000000e+01
3.274468660354613814e+00 -4.503612518310546875e+00 -6.836870312690734863e-01 1.900000000000000000e+01
4.311843872070313388e+00 -5.932566165924072266e+00 -6.416406035423278809e-01 1.300000000000000000e+01
1.539082765579224077e+00 -2.126940965652465820e+00 -7.034701704978942871e-01 1.600000000000000000e+01
1.789295673370361106e+00 -2.474541664123535156e+00 -7.049965858459472656e-01 1.200000000000000000e+01
2.134562492370605025e+00 -2.953120708465576172e+00 -7.082830071449279785e-01 1.600000000000000000e+01
2.647526025772095171e+00 -3.665488958358765093e+00 -7.161569595336914062e-01 1.000000000000000000e+01
3.218066692352294922e+00 -4.458678245544433594e+00 -6.751561760902404785e-01 1.900000000000000000e+01
4.281783103942871094e+00 -5.934655189514160156e+00 -6.402460932731628418e-01 9.000000000000000000e+00
1.528267860412598100e+00 -2.127593278884888139e+00 -7.019172310829162598e-01 1.500000000000000000e+01
1.784055948257446067e+00 -2.485521793365478960e+00 -7.063463330268859863e-01 1.200000000000000000e+01
2.123096704483031782e+00 -2.958958625793457031e+00 -7.079013586044311523e-01 1.400000000000000000e+01
2.637017011642456055e+00 -3.677918910980225053e+00 -7.167826890945434570e-01 1.000000000000000000e+01
3.201327323913574219e+00 -4.468270301818847656e+00 -6.749124526977539062e-01 2.100000000000000000e+01
4.290043830871582031e+00 -5.990060806274414062e+00 -6.446038484573364258e-01 7.000000000000000000e+00
1.527561306953429954e+00 -2.142352581024169922e+00 -7.050230503082275391e-01 1.400000000000000000e+01
1.767453432083130105e+00 -2.480624675750731978e+00 -7.031970024108886719e-01 1.000000000000000000e+01
2.119588851928710938e+00 -2.975946187973022017e+00 -7.101910710334777832e-01 1.500000000000000000e+01
2.621871709823607954e+00 -3.683882713317871094e+00 -7.161569595336914062e-01 1.000000000000000000e+01
3.215623378753662109e+00 -4.521478176116943359e+00 -6.812496185302734375e-01 1.700000000000000000e+01
4.300278186798095703e+00 -6.048843383789063388e+00 -6.493102908134460449e-01 8.000000000000000000e+00
1.523421883583069070e+00 -2.152402400970458984e+00 -7.065759897232055664e-01 1.400000000000000000e+01
1.763284683227539062e+00 -2.493143081665039062e+00 -7.049965858459472656e-01 1.100000000000000000e+01
2.103521108627318892e+00 -2.975311517715454102e+00 -7.082830071449279785e-01 1.400000000000000000e+01
2.618114948272705078e+00 -3.705919265747069868e+00 -7.186599373817443848e-01 1.000000000000000000e+01
3.274235248565673828e+00 -4.638086318969726562e+00 -6.970926523208618164e-01 1.400000000000000000e+01
4.276840209960938388e+00 -6.060561180114746094e+00 -6.489616632461547852e-01 8.000000000000000000e+00
1.509236097335814986e+00 -2.148222684860229048e+00 -7.034701704978942871e-01 1.400000000000000000e+01
1.761289477348328081e+00 -2.508852720260620117e+00 -7.076960206031799316e-01 1.100000000000000000e+01
2.097633361816405806e+00 -2.989064216613769975e+00 -7.098094820976257324e-01 1.400000000000000000e+01
2.602894783020019975e+00 -3.711800813674927202e+00 -7.180342078208923340e-01 1.100000000000000000e+01
3.174865961074829102e+00 -4.530811786651611328e+00 -6.792997121810913086e-01 1.500000000000000000e+01
4.235083580017089844e+00 -6.046079635620117188e+00 -6.458240747451782227e-01 9.000000000000000000e+00
1.662624931335448863e+01 -2.375356864929198863e+01 -1.519522190093993919e+00 1.400000000000000000e+01
1.497308015823364036e+00 -2.147139310836791992e+00 -7.013996243476867676e-01 1.500000000000000000e+01
1.754749417304992898e+00 -2.518183231353760210e+00 -7.085958123207092285e-01 1.100000000000000000e+01
2.087186813354492188e+00 -2.996367931365966797e+00 -7.098094820976257324e-01 1.300000000000000000e+01
2.593307733535767046e+00 -3.725728034973144975e+00 -7.189728021621704102e-01 1.100000000000000000e+01
3.232707977294921875e+00 -4.647794246673583984e+00 -6.951427459716796875e-01 1.400000000000000000e+01
4.225326538085938388e+00 -6.077184677124023438e+00 -6.475671529769897461e-01 9.000000000000000000e+00
1.642927551269530895e+01 -2.364743614196776988e+01 -1.509055018424988015e+00 1.400000000000000000e+01
1.495301485061645952e+00 -2.160295009613037109e+00 -7.039877772331237793e-01 1.500000000000000000e+01
1.745948672294616921e+00 -2.524292945861815962e+00 -7.085958123207092285e-01 1.100000000000000000e+01
2.075598478317261186e+00 -3.002020597457886186e+00 -7.094278335571289062e-01 1.400000000000000000e+01
2.582532405853271040e+00 -3.738008022308350053e+00 -7.195985317230224609e-01 1.100000000000000000e+01
3.261576175689696822e+00 -4.724394798278808594e+00 -7.048922777175903320e-01 1.600000000000000000e+01
4.195034027099609375e+00 -6.078778266906738281e+00 -6.461727023124694824e-01 7.000000000000000000e+00
1.627406501770019887e+01 -2.359941101074219105e+01 -1.502355933189392090e+00 1.400000000000000000e+01
1.496502995491028054e+00 -2.178239822387694868e+00 -7.081289291381835938e-01 1.500000000000000000e+01
1.730508923530579057e+00 -2.520732641220093218e+00 -7.058964371681213379e-01 1.100000000000000000e+01
2.076215505599976030e+00 -3.025434970855712891e+00 -7.132440209388732910e-01 1.400000000000000000e+01
2.570585727691649947e+00 -3.748629093170166016e+00 -7.199113965034484863e-01 1.000000000000000000e+01
3.214768648147583008e+00 -4.691537380218505859e+00 -6.983113288879394531e-01 1.700000000000000000e+01
4.204189777374267578e+00 -6.137765884399414062e+00 -6.508790850639343262e-01 6.000000000000000000e+00
1.626378631591796875e+01 -2.376155662536621094e+01 -1.509055018424988015e+00 1.400000000000000000e+01
1.486713647842407005e+00 -2.180258035659790039e+00 -7.070936560630798340e-01 1.500000000000000000e+01
1.726088643074036089e+00 -2.533199548721313032e+00 -7.076960206031799316e-01 1.100000000000000000e+01
2.060116052627563032e+00 -3.024550676345825195e+00 -7.113359570503234863e-01 1.400000000000000000e+01
2.555262088775635210e+00 -3.754313230514525923e+00 -7.192856669425964355e-01 1.100000000000000000e+01
3.161532640457152876e+00 -4.648562908172607422e+00 -6.902679800987243652e-01 1.900000000000000000e+01
4.132331371307373047e+00 -6.078258514404296875e+00 -6.430350542068481445e-01 7.000000000000000000e+00
1.609993553161621094e+01 -2.369923210144042969e+01 -1.501518607139586958e+00 1.400000000000000000e+01
2.690344238281250000e+01 -3.963183212280272727e+01 -8.361098766326904297e-01 1.200000000000000000e+01
1.476928472518920898e+00 -2.182234525680541992e+00 -7.060583829879760742e-01 1.500000000000000000e+01
1.721602439880371094e+00 -2.545666217803955078e+00 -7.094956040382385254e-01 1.100000000000000000e+01
2.049545764923096147e+00 -3.031723499298096147e+00 -7.113359570503234863e-01 1.400000000000000000e+01
2.548775911331177202e+00 -3.773031234741210938e+00 -7.211628556251525879e-01 1.000000000000000000e+01
3.147508144378662109e+00 -4.662860870361328125e+00 -6.907554268836975098e-01 1.500000000000000000e+01
4.117775440216063565e+00 -6.102555751800537109e+00 -6.440809369087219238e-01 7.000000000000000000e+00
1.603050994873046875e+01 -2.377515983581542969e+01 -1.502774596214293990e+00 1.400000000000000000e+01
1.464993238449096902e+00 -2.180962085723876953e+00 -7.039877772331237793e-01 1.300000000000000000e+01
1.714878082275391069e+00 -2.554896354675292969e+00 -7.103954553604125977e-01 1.100000000000000000e+01
2.033481359481811968e+00 -3.030707836151123047e+00 -7.094278335571289062e-01 1.200000000000000000e+01
2.539990186691284180e+00 -3.788468122482299805e+00 -7.224143743515014648e-01 1.000000000000000000e+01
3.116849184036254883e+00 -4.652379989624023438e+00 -6.875868439674377441e-01 1.900000000000000000e+01
4.085361957550048828e+00 -6.100337505340576172e+00 -6.423377990722656250e-01 6.000000000000000000e+00
1.592520618438721058e+01 -2.379777336120605113e+01 -1.500681161880492942e+00 1.400000000000000000e+01
2.818005561828612926e+01 -4.214258193969727273e+01 -8.849068284034729004e-01 1.300000000000000000e+01
1.461657762527466042e+00 -2.192492246627808061e+00 -7.060583829879760742e-01 1.500000000000000000e+01
1.703788518905640093e+00 -2.557623147964477983e+00 -7.094956040382385254e-01 1.200000000000000000e+01
2.031594991683959961e+00 -3.050860404968262163e+00 -7.124807834625244141e-01 1.100000000000000000e+01
2.526750564575194868e+00 -3.797311305999755859e+00 -7.224143743515014648e-01 1.000000000000000000e+01
3.076410055160522017e+00 -4.626864433288574219e+00 -6.822245717048645020e-01 1.500000000000000000e+01
4.082791805267333984e+00 -6.142769336700438565e+00 -6.453011035919189453e-01 7.000000000000000000e+00
1.581994056701659979e+01 -2.381994247436523082e+01 -1.498587727546691895e+00 1.400000000000000000e+01
1.461457490921020952e+00 -2.208858966827393022e+00 -7.096818089485168457e-01 1.600000000000000000e+01
1.690551400184630904e+00 -2.557052612304687944e+00 -7.076960206031799316e-01 1.100000000000000000e+01
2.017685890197753906e+00 -3.053019523620605025e+00 -7.113359570503234863e-01 1.100000000000000000e+01
2.504771709442139116e+00 -3.792921066284180132e+00 -7.199113965034484863e-01 1.100000000000000000e+01
3.083200454711914062e+00 -4.672369003295898438e+00 -6.873431205749511719e-01 4.500000000000000000e+01
4.094236373901367188e+00 -6.206878185272216797e+00 -6.505304574966430664e-01 6.000000000000000000e+00
1.567074680328368963e+01 -2.377496337890625000e+01 -1.492307424545288086e+00 1.400000000000000000e+01
2.774684143066405895e+01 -4.211227416992188211e+01 1.164301681518555043e+01 1.500000000000000000e+01
1.451617479324341042e+00 -2.210717201232910156e+00 -7.086465358734130859e-01 1.600000000000000000e+01
1.684822559356689009e+00 -2.567826271057128906e+00 -7.090457081794738770e-01 1.300000000000000000e+01
2.016707181930541992e+00 -3.074819087982178178e+00 -7.147704958915710449e-01 1.000000000000000000e+01
2.504510164260863814e+00 -3.821467399597167969e+00 -7.236658334732055664e-01 1.000000000000000000e+01
3.077747583389281782e+00 -4.699709892272949219e+00 -6.897804737091064453e-01 5.000000000000000000e+01
4.183853149414063388e+00 -6.391162872314453125e+00 -6.683102250099182129e-01 6.000000000000000000e+00
1.556360816955566051e+01 -2.379274940490723012e+01 -1.490004658699036089e+00 1.400000000000000000e+01
1.447055935859679954e+00 -2.220626354217528853e+00 -7.101994752883911133e-01 1.500000000000000000e+01
1.673722147941588911e+00 -2.570425510406494141e+00 -7.081459164619445801e-01 1.300000000000000000e+01
1.993109822273253950e+00 -3.062094926834106001e+00 -7.101910710334777832e-01 1.000000000000000000e+01
2.490078449249268022e+00 -3.828530550003052202e+00 -7.233529686927795410e-01 1.100000000000000000e+01
3.073222875595093218e+00 -4.728733539581298828e+00 -6.924616098403930664e-01 2.400000000000000000e+01
4.292854309082031250e+00 -6.607891082763671875e+00 -6.894019246101379395e-01 6.000000000000000000e+00
1.548263645172118963e+01 -2.385028076171875000e+01 -1.490213990211487038e+00 1.400000000000000000e+01
2.766432571411133168e+01 -4.263189697265625000e+01 1.173299694061278942e+01 1.500000000000000000e+01
1.431952357292175071e+00 -2.214308738708496094e+00 -7.065759897232055664e-01 1.500000000000000000e+01
1.672143101692199929e+00 -2.587709665298461914e+00 -7.112952470779418945e-01 1.100000000000000000e+01
1.990930914878844993e+00 -3.082226753234862837e+00 -7.132440209388732910e-01 1.000000000000000000e+01
2.477770566940308061e+00 -3.838858842849731001e+00 -7.236658334732055664e-01 1.000000000000000000e+01
3.054545879364014116e+00 -4.736095905303955078e+00 -6.919741034507751465e-01 4.300000000000000000e+01
4.294592857360839844e+00 -6.661350250244140625e+00 -6.934111118316650391e-01 5.000000000000000000e+00
1.537765598297118963e+01 -2.387059974670410156e+01 -1.488120555877685991e+00 1.400000000000000000e+01
2.761246681213378906e+01 -4.289546966552733664e+01 1.366926860809325994e+01 1.600000000000000000e+01
1.427344441413878950e+00 -2.224171161651610884e+00 -7.081289291381835938e-01 1.500000000000000000e+01
1.669411659240723100e+00 -2.603373289108275923e+00 -7.139946222305297852e-01 1.000000000000000000e+01
1.981219291687011941e+00 -3.090810298919678178e+00 -7.136256694793701172e-01 1.000000000000000000e+01
2.464355230331420898e+00 -3.847484588623046875e+00 -7.236658334732055664e-01 1.000000000000000000e+01
3.034785032272338867e+00 -4.741713523864746094e+00 -6.912429332733154297e-01 4.000000000000000000e+01
4.153203487396240234e+00 -6.491686820983886719e+00 -6.742368340492248535e-01 4.000000000000000000e+00
1.525551033020020064e+01 -2.386355209350585938e+01 -1.484352350234984907e+00 1.300000000000000000e+01
1.414770960807800071e+00 -2.220745563507080078e+00 -7.055407166481018066e-01 1.300000000000000000e+01
1.649258017539978027e+00 -2.590811729431151900e+00 -7.090457081794738770e-01 1.200000000000000000e+01
1.973066806793212891e+00 -3.100676059722899947e+00 -7.143889069557189941e-01 9.000000000000000000e+00
2.451582908630371094e+00 -3.855635404586791992e+00 -7.236658334732055664e-01 1.000000000000000000e+01
3.073335886001586914e+00 -4.837202072143554688e+00 -7.036736011505126953e-01 2.000000000000000000e+01
1.512920475006104049e+01 -2.383981132507323863e+01 -1.479746818542480025e+00 1.300000000000000000e+01
1.415268898010253906e+00 -2.238734006881713867e+00 -7.096818089485168457e-01 1.500000000000000000e+01
1.643326640129088911e+00 -2.601495742797852007e+00 -7.103954553604125977e-01 1.100000000000000000e+01
1.956990361213684082e+00 -3.099244356155395952e+00 -7.124807834625244141e-01 1.000000000000000000e+01
2.446542024612427202e+00 -3.877534627914429155e+00 -7.261688113212585449e-01 1.000000000000000000e+01
3.045845270156859907e+00 -4.831108570098876953e+00 -7.012361884117126465e-01 2.200000000000000000e+01
4.253391265869140625e+00 -6.749044418334960938e+00 -6.979432106018066406e-01 5.000000000000000000e+00
1.501183795928955078e+01 -2.383839416503905895e+01 -1.476397275924683061e+00 1.300000000000000000e+01
2.688198661804198863e+01 -4.273748016357421875e+01 1.352847194671631037e+01 1.600000000000000000e+01
1.402948737144469993e+00 -2.237359285354613814e+00 -7.076112627983093262e-01 1.400000000000000000e+01
1.637919425964355025e+00 -2.614106893539429155e+00 -7.121950387954711914e-01 1.100000000000000000e+01
1.949786424636841042e+00 -3.113051652908325195e+00 -7.140072584152221680e-01 1.100000000000000000e+01
2.434409856796265093e+00 -3.889824628829956055e+00 -7.267945408821105957e-01 1.000000000000000000e+01
3.019697666168212891e+00 -4.828774929046630859e+00 -6.992862820625305176e-01 3.800000000000000000e+01
4.154698848724365234e+00 -6.646326541900634766e+00 -6.857413649559020996e-01 3.000000000000000000e+00
1.491801643371582031e+01 -2.388309288024901988e+01 -1.475769281387329102e+00 1.300000000000000000e+01
2.653829574584960938e+01 -4.251967620849608664e+01 1.343012046813965021e+01 1.600000000000000000e+01
1.390027523040771040e+00 -2.234041690826416016e+00 -7.050230503082275391e-01 1.200000000000000000e+01
1.627755522727966087e+00 -2.618153333663939986e+00 -7.117451429367065430e-01 1.000000000000000000e+01
1.940980553627013938e+00 -3.123173713684082031e+00 -7.147704958915710449e-01 1.000000000000000000e+01
2.420816898345946822e+00 -3.898298501968383789e+00 -7.267945408821105957e-01 1.000000000000000000e+01
2.998637199401855025e+00 -4.832539081573486328e+00 -6.983113288879394531e-01 4.300000000000000000e+01
4.108369350433349609e+00 -6.623539924621582031e+00 -6.819065213203430176e-01 3.000000000000000000e+00
1.478826332092284979e+01 -2.386032485961914062e+01 -1.471163749694823997e+00 1.300000000000000000e+01
2.619314002990723012e+01 -4.231113815307617188e+01 1.333383941650390980e+01 1.500000000000000000e+01
1.385265350341797097e+00 -2.243811607360839844e+00 -7.065759897232055664e-01 1.400000000000000000e+01
1.622699141502379927e+00 -2.630453586578369141e+00 -7.135447263717651367e-01 1.000000000000000000e+01
1.932127714157104048e+00 -3.133272171020507812e+00 -7.155337333679199219e-01 1.000000000000000000e+01
2.403049468994141069e+00 -3.899997949600220171e+00 -7.255430221557617188e-01 1.100000000000000000e+01
2.980709552764893022e+00 -4.841286659240722656e+00 -6.980676054954528809e-01 4.200000000000000000e+01
4.106109619140625000e+00 -6.671776294708251953e+00 -6.853927373886108398e-01 5.000000000000000000e+00
1.469232940673827947e+01 -2.389138412475585938e+01 -1.469907641410828081e+00 1.300000000000000000e+01
2.620439720153808949e+01 -4.264465713500977273e+01 1.341148567199707031e+01 1.600000000000000000e+01
1.377424478530884011e+00 -2.248633384704589844e+00 -7.065759897232055664e-01 1.500000000000000000e+01
1.605368494987488015e+00 -2.622804880142211914e+00 -7.099454998970031738e-01 1.000000000000000000e+01
1.921178817749022993e+00 -3.139997243881226030e+00 -7.155337333679199219e-01 1.000000000000000000e+01
2.397664308547974077e+00 -3.921845436096190962e+00 -7.280460000038146973e-01 1.000000000000000000e+01
2.968966245651245117e+00 -4.860131740570068359e+00 -6.992862820625305176e-01 2.600000000000000000e+01
4.100447654724121094e+00 -6.714975833892822266e+00 -6.883560419082641602e-01 7.000000000000000000e+00
1.458387660980224965e+01 -2.390160560607910156e+01 -1.467395544052124023e+00 1.300000000000000000e+01
1.377593755722045898e+00 -2.266634702682495117e+00 -7.107170820236206055e-01 1.500000000000000000e+01
1.596203446388245073e+00 -2.628392696380614790e+00 -7.099454998970031738e-01 1.100000000000000000e+01
1.911225199699402078e+00 -3.148362636566162109e+00 -7.159153223037719727e-01 1.100000000000000000e+01
2.379862070083618164e+00 -3.923434972763061968e+00 -7.267945408821105957e-01 1.100000000000000000e+01
2.977706193923950195e+00 -4.912906169891357422e+00 -7.053797841072082520e-01 1.800000000000000000e+01
4.167834758758544922e+00 -6.879203319549561435e+00 -7.036954760551452637e-01 6.000000000000000000e+00
1.365682959556580034e+00 -2.264812231063843218e+00 -7.086465358734130859e-01 1.500000000000000000e+01
1.599087476730346902e+00 -2.653978586196898970e+00 -7.153443694114685059e-01 1.100000000000000000e+01
1.893133401870727983e+00 -3.143242359161376953e+00 -7.132440209388732910e-01 1.100000000000000000e+01
2.378375053405762163e+00 -3.952028512954711914e+00 -7.305489778518676758e-01 1.100000000000000000e+01
2.953377962112427202e+00 -4.911362171173095703e+00 -7.036736011505126953e-01 1.600000000000000000e+01
4.171510696411132812e+00 -6.939815998077392578e+00 -7.084018588066101074e-01 6.000000000000000000e+00
2.532105636596680043e+01 -4.217465591430664062e+01 1.135687923431395951e+01 1.400000000000000000e+01
2.616630935668944957e+01 -4.361699676513671875e+01 1.362889289855957031e+01 1.600000000000000000e+01
1.358165025711060014e+00 -2.269328355789185014e+00 -7.086465358734130859e-01 1.600000000000000000e+01
1.590277791023253950e+00 -2.659266710281372070e+00 -7.153443694114685059e-01 1.000000000000000000e+01
1.886728882789612038e+00 -3.156243562698363814e+00 -7.147704958915710449e-01 1.100000000000000000e+01
2.361204862594604048e+00 -3.953110218048096147e+00 -7.292974591255187988e-01 1.000000000000000000e+01
2.403162765502930043e+01 -4.024951553344727273e+01 5.755888938903808594e+00 4.300000000000000000e+01
2.950300455093383789e+00 -4.943288326263427734e+00 -7.068421840667724609e-01 1.600000000000000000e+01
4.149495601654052734e+00 -6.955322265625000000e+00 -7.085762023925781250e-01 8.000000000000000000e+00
2.602322196960448863e+01 -4.368902587890625000e+01 1.362578773498534979e+01 1.600000000000000000e+01
1.349249124526977983e+00 -2.272394418716431108e+00 -7.081289291381835938e-01 1.500000000000000000e+01
1.578002572059630904e+00 -2.659773588180541992e+00 -7.139946222305297852e-01 9.000000000000000000e+00
1.882710218429564986e+00 -3.174630641937255859e+00 -7.174417972564697266e-01 1.100000000000000000e+01
2.345377445220946822e+00 -3.957929611206055132e+00 -7.286717295646667480e-01 1.100000000000000000e+01
2.919879198074340820e+00 -4.931351184844970703e+00 -7.036736011505126953e-01 1.500000000000000000e+01
4.133309841156005859e+00 -6.983480930328369141e+00 -7.099706530570983887e-01 8.000000000000000000e+00
1.425294303894042969e+01 -2.410041046142578125e+01 -1.467395544052124023e+00 1.300000000000000000e+01
1.344250202178955078e+00 -2.282083988189696822e+00 -7.096818089485168457e-01 1.500000000000000000e+01
1.562777757644653098e+00 -2.655189037322998047e+00 -7.112952470779418945e-01 9.000000000000000000e+00
1.872612714767456055e+00 -3.182875394821166992e+00 -7.178234457969665527e-01 1.000000000000000000e+01
2.339556217193603960e+00 -3.979715585708618164e+00 -7.311747074127197266e-01 1.200000000000000000e+01
2.900636911392211914e+00 -4.938090324401854581e+00 -7.031860947608947754e-01 1.600000000000000000e+01
4.096802234649658203e+00 -6.977249145507813388e+00 -7.078789472579956055e-01 5.000000000000000000e+00
1.408787536621093928e+01 -2.401220321655273082e+01 -1.459021806716918945e+00 1.300000000000000000e+01
2.521667098999023082e+01 -4.299796676635742188e+01 1.150804615020751953e+01 1.400000000000000000e+01
2.595987892150878906e+01 -4.428295135498046875e+01 1.375416183471680043e+01 1.600000000000000000e+01
1.338225364685059038e+00 -2.290098190307617188e+00 -7.107170820236206055e-01 1.400000000000000000e+01
1.559395432472229004e+00 -2.670725345611571822e+00 -7.139946222305297852e-01 1.000000000000000000e+01
1.859511733055114968e+00 -3.186001300811768022e+00 -7.170602083206176758e-01 1.000000000000000000e+01
2.329630613327025923e+00 -3.994683504104613814e+00 -7.324261665344238281e-01 1.100000000000000000e+01
2.880383729934691939e+00 -4.943039894104003906e+00 -7.024549245834350586e-01 1.600000000000000000e+01
4.006236553192138672e+00 -6.877880096435546875e+00 -6.963743567466735840e-01 5.000000000000000000e+00
1.398387813568115057e+01 -2.402670860290526988e+01 -1.456928372383117898e+00 1.300000000000000000e+01
1.328285574913024902e+00 -2.291412830352783203e+00 -7.096818089485168457e-01 1.500000000000000000e+01
1.554947018623352051e+00 -2.684583663940430132e+00 -7.162441611289978027e-01 1.100000000000000000e+01
1.844444394111633079e+00 -3.185676813125609907e+00 -7.155337333679199219e-01 1.000000000000000000e+01
2.317650794982910156e+00 -4.006210803985595703e+00 -7.330518960952758789e-01 1.100000000000000000e+01
2.839269161224364790e+00 -4.911817073822020596e+00 -6.966051459312438965e-01 1.500000000000000000e+01
4.023072242736816406e+00 -6.962552070617675781e+00 -7.035211324691772461e-01 5.000000000000000000e+00
1.388594341278075994e+01 -2.405116081237792969e+01 -1.455462932586669922e+00 1.300000000000000000e+01
1.318352937698364036e+00 -2.292685985565185991e+00 -7.086465358734130859e-01 1.300000000000000000e+01
1.551391601562500000e+00 -2.700133323669434038e+00 -7.189435958862304688e-01 1.100000000000000000e+01
1.841135144233704057e+00 -3.205715179443358931e+00 -7.185866832733154297e-01 1.000000000000000000e+01
2.301685810089110884e+00 -4.010849952697753906e+00 -7.324261665344238281e-01 1.100000000000000000e+01
2.861603975296020952e+00 -4.990581512451171875e+00 -7.063547372817993164e-01 1.800000000000000000e+01
3.965057849884033203e+00 -6.917780876159667969e+00 -6.975945830345153809e-01 5.000000000000000000e+00
1.374631977081299006e+01 -2.400242805480957031e+01 -1.449601292610168013e+00 1.300000000000000000e+01
2.620092201232910156e+01 -4.578644180297852273e+01 1.413514328002930043e+01 1.700000000000000000e+01
1.313059329986572044e+00 -2.300171852111815962e+00 -7.096818089485168457e-01 1.400000000000000000e+01
1.535177111625670943e+00 -2.691452026367187944e+00 -7.153443694114685059e-01 1.100000000000000000e+01
1.832999944686890093e+00 -3.214894533157349077e+00 -7.193499207496643066e-01 1.000000000000000000e+01
2.283207178115845171e+00 -4.007762908935546875e+00 -7.305489778518676758e-01 1.200000000000000000e+01
2.831181049346923828e+00 -4.973669052124023438e+00 -7.026986479759216309e-01 1.600000000000000000e+01
3.953158855438231978e+00 -6.947520256042479581e+00 -6.993376612663269043e-01 2.000000000000000000e+00
1.364123249053955078e+01 -2.399340629577637074e+01 -1.446461200714111106e+00 1.300000000000000000e+01
1.307877779006958008e+00 -2.309784650802611861e+00 -7.112347483634948730e-01 1.500000000000000000e+01
1.521934390068053977e+00 -2.690010070800780806e+00 -7.135447263717651367e-01 1.000000000000000000e+01
1.821766614913939986e+00 -3.221273422241210938e+00 -7.193499207496643066e-01 1.000000000000000000e+01
2.275034427642821822e+00 -4.026027202606201172e+00 -7.324261665344238281e-01 1.200000000000000000e+01
2.814778566360474077e+00 -4.985249996185302734e+00 -7.029423713684082031e-01 1.800000000000000000e+01
3.916152715682982954e+00 -6.938720703125000000e+00 -6.970716118812561035e-01 5.000000000000000000e+00
1.357701778411865057e+01 -2.407567214965819957e+01 -1.448554635047913042e+00 1.300000000000000000e+01
2.620151901245116832e+01 -4.651918792724608664e+01 1.430596351623534979e+01 1.800000000000000000e+01
1.301699161529541016e+00 -2.317704677581787109e+00 -7.122700214385986328e-01 1.600000000000000000e+01
1.512535214424133079e+00 -2.695306062698363814e+00 -7.135447263717651367e-01 1.100000000000000000e+01
1.812432169914246050e+00 -3.231037378311156782e+00 -7.201131582260131836e-01 1.000000000000000000e+01
2.259035587310791016e+00 -4.030497550964354581e+00 -7.318004369735717773e-01 1.100000000000000000e+01
2.310675430297851918e+01 -4.124319458007813211e+01 5.804636955261229581e+00 4.500000000000000000e+01
2.800269603729248047e+00 -5.000240802764892578e+00 -7.036736011505126953e-01 2.000000000000000000e+01
3.965873003005981001e+00 -7.084475994110107422e+00 -7.103192806243896484e-01 5.000000000000000000e+00
1.348704528808593928e+01 -2.411245918273926137e+01 -1.447926521301269975e+00 1.300000000000000000e+01
1.290780663490294966e+00 -2.317171335220336914e+00 -7.107170820236206055e-01 1.400000000000000000e+01
1.508804082870482954e+00 -2.710785865783690962e+00 -7.162441611289978027e-01 1.000000000000000000e+01
1.796370267868041992e+00 -3.228766202926636186e+00 -7.182050347328186035e-01 1.000000000000000000e+01
2.252631187438964844e+00 -4.052170753479003906e+00 -7.343033552169799805e-01 1.100000000000000000e+01
2.798220872879027876e+00 -5.037751197814941406e+00 -7.075734138488769531e-01 2.000000000000000000e+01
3.993345260620117188e+00 -7.192339420318604404e+00 -7.197321057319641113e-01 5.000000000000000000e+00
1.338923072814941051e+01 -2.413493919372558949e+01 -1.446461200714111106e+00 1.300000000000000000e+01
2.568758773803710938e+01 -4.634163284301757812e+01 1.419725990295409979e+01 1.700000000000000000e+01
1.280940175056457964e+00 -2.320419073104857954e+00 -7.101994752883911133e-01 1.600000000000000000e+01
1.504031538963318093e+00 -2.726797580718994141e+00 -7.189435958862304688e-01 1.100000000000000000e+01
1.783959388732909934e+00 -3.235640048980712891e+00 -7.182050347328186035e-01 9.000000000000000000e+00
2.233242750167847124e+00 -4.053869724273681641e+00 -7.330518960952758789e-01 1.100000000000000000e+01
2.798958778381348100e+00 -5.084978103637695312e+00 -7.126919031143188477e-01 2.200000000000000000e+01
3.941688060760498047e+00 -7.163979053497313565e+00 -7.153743505477905273e-01 3.000000000000000000e+00
1.329646110534667969e+01 -2.418617248535155895e+01 -1.446461200714111106e+00 1.300000000000000000e+01
2.475520133972167969e+01 -4.504816436767578125e+01 1.186706829071044922e+01 1.500000000000000000e+01
2.563524246215819957e+01 -4.668822479248046875e+01 1.427180004119873047e+01 1.800000000000000000e+01
1.275615811347960982e+00 -2.329959869384766069e+00 -7.117523550987243652e-01 1.500000000000000000e+01
1.573143100738525035e+01 -2.874595642089844105e+01 5.719851851463317871e-01 2.400000000000000000e+01
1.494504094123840110e+00 -2.732031106948852983e+00 -7.189435958862304688e-01 1.100000000000000000e+01
1.774537920951843040e+00 -3.245292663574219194e+00 -7.189682722091674805e-01 9.000000000000000000e+00
2.215290069580078125e+00 -4.054706096649169922e+00 -7.318004369735717773e-01 1.100000000000000000e+01
2.756461620330810991e+00 -5.049415588378906250e+00 -7.063547372817993164e-01 1.800000000000000000e+01
3.937652826309204102e+00 -7.216171741485595703e+00 -7.192091941833496094e-01 6.000000000000000000e+00
1.321195411682129084e+01 -2.423243904113769887e+01 -1.446461200714111106e+00 1.300000000000000000e+01
2.513582420349121094e+01 -4.615985488891602273e+01 1.408337974548340021e+01 1.700000000000000000e+01
1.269726514816283958e+00 -2.337572336196898970e+00 -7.127876281738281250e-01 1.400000000000000000e+01
1.563601970672607067e+01 -2.879796600341796875e+01 5.719851851463317871e-01 2.400000000000000000e+01
1.477999567985534890e+00 -2.723269939422606978e+00 -7.153443694114685059e-01 1.100000000000000000e+01
1.769383430480957031e+00 -3.261513233184814009e+00 -7.212579846382141113e-01 9.000000000000000000e+00
2.207479953765869141e+00 -4.072450160980224609e+00 -7.336776256561279297e-01 1.100000000000000000e+01
2.705668449401855025e+00 -4.995689868927001953e+00 -6.975800991058349609e-01 2.100000000000000000e+01
3.612063884735106978e+00 -6.672019958496093750e+00 -6.637781262397766113e-01 1.000000000000000000e+00
1.313152408599854049e+01 -2.427611732482910156e+01 -1.446461200714111106e+00 1.300000000000000000e+01
1.565961837768555043e+01 -2.897394371032714844e+01 -5.748822689056396484e-01 5.000000000000000000e+00
2.501567077636719105e+01 -4.630414199829102273e+01 1.410201454162598012e+01 1.700000000000000000e+01
1.263391494750977007e+00 -2.345391750335692915e+00 -7.138229012489318848e-01 1.400000000000000000e+01
1.553540039062500000e+01 -2.885236930847167969e+01 5.719851851463317871e-01 2.400000000000000000e+01
1.474026083946228027e+00 -2.738708496093750000e+00 -7.180437445640563965e-01 1.100000000000000000e+01
1.757057666778564009e+00 -3.265940904617310014e+00 -7.208763957023620605e-01 1.000000000000000000e+01
2.198862791061400923e+00 -4.090570449829101562e+00 -7.355548739433288574e-01 1.100000000000000000e+01
2.680699348449707031e+00 -4.991113185882568359e+00 -6.956301927566528320e-01 1.700000000000000000e+01
3.588752031326293945e+00 -6.684587955474854404e+00 -6.637781262397766113e-01 1.000000000000000000e+00
1.299194622039794922e+01 -2.421972465515137074e+01 -1.440390229225158913e+00 1.300000000000000000e+01
2.366537094116210938e+01 -4.415423202514647727e+01 -8.744353652000427246e-01 1.300000000000000000e+01
1.251555919647217019e+00 -2.342971801757812944e+00 -7.117523550987243652e-01 1.200000000000000000e+01
1.536677646636963068e+01 -2.877941513061523082e+01 5.694720149040222168e-01 2.400000000000000000e+01
1.461704492568969949e+00 -2.738679647445679155e+00 -7.166940569877624512e-01 1.000000000000000000e+01
1.529319477081299006e+01 -2.865364456176758168e+01 1.702174663543700950e+00 1.700000000000000000e+01
1.741026163101196067e+00 -3.263393402099608931e+00 -7.189682722091674805e-01 1.000000000000000000e+01
2.187358379364014116e+00 -4.103450298309326172e+00 -7.364934682846069336e-01 1.200000000000000000e+01
2.667926788330078125e+00 -5.009200572967529297e+00 -6.968489289283752441e-01 1.500000000000000000e+01
3.927741289138793945e+00 -7.377685546875000000e+00 -7.312366962432861328e-01 3.000000000000000000e+00
1.289231681823729936e+01 -2.423671531677246094e+01 -1.438715457916259988e+00 1.300000000000000000e+01
1.239752769470215066e+00 -2.340497493743896040e+00 -7.096818089485168457e-01 1.300000000000000000e+01
1.528680992126465021e+01 -2.887175941467285156e+01 5.702399015426635742e-01 2.400000000000000000e+01
1.457605242729187012e+00 -2.754099607467650923e+00 -7.193934917449951172e-01 9.000000000000000000e+00
1.734214425086975098e+00 -3.278127670288085938e+00 -7.208763957023620605e-01 1.000000000000000000e+01
2.170251846313477007e+00 -4.105821609497070312e+00 -7.355548739433288574e-01 1.500000000000000000e+01
2.673601150512694868e+00 -5.062366485595703125e+00 -7.029423713684082031e-01 1.600000000000000000e+01
4.010791778564453125e+00 -7.597497940063476562e+00 -7.516311407089233398e-01 2.000000000000000000e+00
1.276477336883544922e+01 -2.420030784606933949e+01 -1.433900475502013938e+00 1.300000000000000000e+01
1.233371973037719949e+00 -2.348231554031372070e+00 -7.107170820236206055e-01 1.500000000000000000e+01
1.445266127586364968e+00 -2.753993988037108931e+00 -7.180437445640563965e-01 1.100000000000000000e+01
1.723673105239867942e+00 -3.285899877548218218e+00 -7.212579846382141113e-01 1.000000000000000000e+01
2.154989719390869141e+00 -4.111622333526611328e+00 -7.352420091629028320e-01 1.600000000000000000e+01
2.658676862716674805e+00 -5.076943874359130859e+00 -7.036736011505126953e-01 2.200000000000000000e+01
3.982398986816405806e+00 -7.607921600341796875e+00 -7.512825131416320801e-01 2.000000000000000000e+00
1.269873332977294922e+01 -2.428011322021484020e+01 -1.435993909835814986e+00 1.300000000000000000e+01
2.421155548095703125e+01 -4.631243515014647727e+01 1.206502437591552912e+01 1.600000000000000000e+01
2.480791282653808949e+01 -4.747333908081054688e+01 1.435255146026610973e+01 1.800000000000000000e+01
1.228736877441406028e+00 -2.359376192092895952e+00 -7.127876281738281250e-01 1.300000000000000000e+01
1.432045936584473100e+00 -2.752107381820679155e+00 -7.162441611289978027e-01 1.100000000000000000e+01
1.479189109802245916e+01 -2.843919181823730113e+01 1.679984211921691895e+00 1.700000000000000000e+01
1.712192654609679954e+00 -3.291896581649779829e+00 -7.212579846382141113e-01 9.000000000000000000e+00
2.142446041107178178e+00 -4.122625350952148438e+00 -7.358677387237548828e-01 1.500000000000000000e+01
2.637279748916625977e+00 -5.079146385192871094e+00 -7.026986479759216309e-01 2.200000000000000000e+01
3.427151918411254883e+00 -6.603181838989257812e+00 -6.508790850639343262e-01 1.000000000000000000e+00
1.261390209197998047e+01 -2.432429313659667969e+01 -1.435993909835814986e+00 1.300000000000000000e+01
2.443829154968262074e+01 -4.718655014038085938e+01 1.423867130279541016e+01 1.700000000000000000e+01
1.228885889053344949e+00 -2.378885030746459961e+00 -7.174463868141174316e-01 1.400000000000000000e+01
1.506393241882324041e+01 -2.917333984375000000e+01 5.731021165847778320e-01 2.400000000000000000e+01
1.425593137741089089e+00 -2.762036085128784180e+00 -7.175938487052917480e-01 1.200000000000000000e+01
1.466453552246093928e+01 -2.842418861389160156e+01 1.676216006278991921e+00 1.700000000000000000e+01
1.703067183494568093e+00 -3.301045894622803178e+00 -7.220212221145629883e-01 9.000000000000000000e+00
2.128763198852539062e+00 -4.129707336425781250e+00 -7.358677387237548828e-01 1.500000000000000000e+01
