1.186524510383605957e+00 1.880527615547179954e+00 -5.958014130592346191e-01 1.300000000000000000e+01
1.358829379081726074e+00 2.151949405670166016e+00 -5.875721573829650879e-01 1.000000000000000000e+01
1.568541407585144043e+00 2.483105897903441939e+00 -5.709004998207092285e-01 1.100000000000000000e+01
1.864096283912658913e+00 2.948708772659302202e+00 -5.525265336036682129e-01 9.000000000000000000e+00
2.309441804885863814e+00 3.650353908538817915e+00 -5.303753614425659180e-01 9.000000000000000000e+00
3.013289451599121094e+00 4.761031627655029297e+00 -4.929528832435607910e-01 6.000000000000000000e+00
4.271645545959472656e+00 6.744037628173828125e+00 -4.183736443519591730e-01 2.000000000000000000e+00
7.372194290161132812e+00 1.163017463684082031e+01 -2.403545379638671875e-01 2.000000000000000000e+00
1.197227835655211958e+00 1.882895231246948020e+00 -5.978720188140869141e-01 1.900000000000000000e+01
1.372609972953795943e+00 2.157057523727416992e+00 -5.902715921401977539e-01 1.000000000000000000e+01
1.578253746032715066e+00 2.479271650314331055e+00 -5.712821483612060547e-01 1.000000000000000000e+01
1.878623366355895996e+00 2.948848009109497070e+00 -5.537779927253723145e-01 9.000000000000000000e+00
2.313632488250731978e+00 3.628879547119141069e+00 -5.284254550933837891e-01 9.000000000000000000e+00
3.017033576965332031e+00 4.730326652526854581e+00 -4.908611476421356201e-01 9.000000000000000000e+00
4.290862083435058594e+00 6.722351551055908203e+00 -4.179549515247344971e-01 2.000000000000000000e+00
7.373992443084716797e+00 1.154370212554931996e+01 -2.390979677438735962e-01 2.000000000000000000e+00
1.201708555221558061e+00 1.875451564788817915e+00 -5.968367457389831543e-01 1.900000000000000000e+01
1.380131125450134055e+00 2.152253150939940962e+00 -5.902715921401977539e-01 1.100000000000000000e+01
1.583718299865723100e+00 2.468790054321289062e+00 -5.701372623443603516e-01 1.100000000000000000e+01
1.882502198219299094e+00 2.932298660278319868e+00 -5.519008040428161621e-01 9.000000000000000000e+00
2.334869623184204102e+00 3.634142160415648970e+00 -5.303753614425659180e-01 9.000000000000000000e+00
3.029217958450316939e+00 4.713061809539794922e+00 -4.901638925075531006e-01 9.000000000000000000e+00
4.318623065948486328e+00 6.714051723480224609e+00 -4.183736443519591730e-01 2.000000000000000000e+00
7.409913063049316406e+00 1.151116657257080078e+01 -2.389583438634871881e-01 2.000000000000000000e+00
1.204056143760680930e+00 1.864753603935241921e+00 -5.947661399841308594e-01 1.900000000000000000e+01
1.383404850959778054e+00 2.140875339508057085e+00 -5.884719491004943848e-01 1.100000000000000000e+01
1.593392133712768999e+00 2.464895486831665039e+00 -5.705189108848571777e-01 1.100000000000000000e+01
1.890580415725708008e+00 2.922392368316649947e+00 -5.512750744819641113e-01 9.000000000000000000e+00
2.352935075759888139e+00 3.634301662445067915e+00 -5.315940976142883301e-01 1.000000000000000000e+01
3.035903453826903853e+00 4.687408924102783203e+00 -4.885950982570648193e-01 9.000000000000000000e+00
4.345292568206787109e+00 6.703964233398438388e+00 -4.186876416206359863e-01 3.000000000000000000e+00
7.450049400329589844e+00 1.148523044586181996e+01 -2.389583438634871881e-01 2.000000000000000000e+00
1.220040202140808105e+00 1.875112771987915039e+00 -5.994248986244201660e-01 2.200000000000000000e+01
1.386616110801696999e+00 2.129501104354857954e+00 -5.866723656654357910e-01 1.100000000000000000e+01
1.604129672050476074e+00 2.462608575820922852e+00 -5.712821483612060547e-01 1.100000000000000000e+01
1.900769948959351030e+00 2.915775299072266069e+00 -5.512750744819641113e-01 9.000000000000000000e+00
2.362352848052978960e+00 3.621078491210937944e+00 -5.308628678321838379e-01 9.000000000000000000e+00
3.057691574096680132e+00 4.685125350952148438e+00 -4.894666373729705811e-01 8.000000000000000000e+00
4.345731735229492188e+00 6.653639316558837891e+00 -4.164895415306090753e-01 4.000000000000000000e+00
7.494471073150634766e+00 1.146585083007813033e+01 -2.390979677438735962e-01 2.000000000000000000e+00
1.232933402061461958e+00 1.880536079406738059e+00 -6.025307178497314453e-01 2.200000000000000000e+01
1.394040942192078081e+00 2.124648094177246094e+00 -5.866723656654357910e-01 1.100000000000000000e+01
1.615947842597960982e+00 2.461917877197266069e+00 -5.724269747734069824e-01 1.100000000000000000e+01
1.923950672149657981e+00 2.928935050964355025e+00 -5.550295114517211914e-01 9.000000000000000000e+00
2.370616674423218218e+00 3.606175184249877930e+00 -5.298879146575927734e-01 9.000000000000000000e+00
3.092637777328491211e+00 4.702723026275634766e+00 -4.924299418926239014e-01 9.000000000000000000e+00
4.372224807739257812e+00 6.643434524536132812e+00 -4.168035686016082764e-01 4.000000000000000000e+00
7.530049324035645419e+00 1.143294048309325994e+01 -2.389583438634871881e-01 2.000000000000000000e+00
1.233513832092284934e+00 1.868592143058777078e+00 -5.999425649642944336e-01 1.900000000000000000e+01
1.402857184410094993e+00 2.123509883880614790e+00 -5.875721573829650879e-01 1.200000000000000000e+01
1.613932251930237038e+00 2.442088127136230025e+00 -5.689924359321594238e-01 1.000000000000000000e+01
1.930963277816772017e+00 2.919580936431885210e+00 -5.544037222862243652e-01 9.000000000000000000e+00
2.381934165954589844e+00 3.598709821701049805e+00 -5.298879146575927734e-01 9.000000000000000000e+00
3.088697195053101030e+00 4.664742946624755859e+00 -4.894666373729705811e-01 9.000000000000000000e+00
4.394177436828613281e+00 6.631330966949462891e+00 -4.169082343578339178e-01 4.000000000000000000e+00
7.546036720275878906e+00 1.137922954559325994e+01 -2.383300662040709894e-01 2.000000000000000000e+00
1.234679341316222922e+00 1.856232404708862083e+00 -5.973543524742126465e-01 2.100000000000000000e+01
1.417819857597351074e+00 2.129955530166625977e+00 -5.907214879989624023e-01 1.300000000000000000e+01
1.623535037040710005e+00 2.438073635101317915e+00 -5.693740248680114746e-01 1.100000000000000000e+01
1.938951849937438965e+00 2.909535408020019975e+00 -5.537779927253723145e-01 9.000000000000000000e+00
2.401089906692504883e+00 3.600282430648804155e+00 -5.313503146171569824e-01 9.000000000000000000e+00
3.112701654434204102e+00 4.665534973144531250e+00 -4.906868338584899902e-01 8.000000000000000000e+00
4.420625209808349609e+00 6.620934963226318359e+00 -4.172222316265106201e-01 6.000000000000000000e+00
7.594599246978759766e+00 1.136612129211425959e+01 -2.386092990636826117e-01 2.000000000000000000e+00
1.239000201225280984e+00 1.848701715469359907e+00 -5.963190793991088867e-01 2.200000000000000000e+01
1.423075199127197044e+00 2.121756553649901900e+00 -5.898216366767883301e-01 1.200000000000000000e+01
1.635317206382751021e+00 2.437282562255858931e+00 -5.705189108848571777e-01 1.200000000000000000e+01
1.949096202850342019e+00 2.902749300003052202e+00 -5.537779927253723145e-01 9.000000000000000000e+00
2.413642644882202148e+00 3.591879129409790039e+00 -5.313503146171569824e-01 9.000000000000000000e+00
3.125633716583251953e+00 4.649680614471436435e+00 -4.901638925075531006e-01 9.000000000000000000e+00
4.425872325897216797e+00 6.578949451446533203e+00 -4.155474901199340820e-01 6.000000000000000000e+00
7.627527713775634766e+00 1.132958889007568004e+01 -2.383998781442641934e-01 2.000000000000000000e+00
1.254094719886780007e+00 1.857173681259155051e+00 -6.004601716995239258e-01 2.200000000000000000e+01
1.425017237663269043e+00 2.108703136444091797e+00 -5.875721573829650879e-01 1.300000000000000000e+01
1.646013975143433061e+00 2.434812307357788086e+00 -5.712821483612060547e-01 1.300000000000000000e+01
1.957002997398376021e+00 2.892655849456787109e+00 -5.531522631645202637e-01 9.000000000000000000e+00
2.419488430023192915e+00 3.573569536209106001e+00 -5.298879146575927734e-01 9.000000000000000000e+00
3.147431612014770952e+00 4.646989822387695312e+00 -4.910354614257813055e-01 9.000000000000000000e+00
4.474584102630615234e+00 6.601485252380371094e+00 -4.179549515247344971e-01 6.000000000000000000e+00
7.680499553680419922e+00 1.132275390625000000e+01 -2.388187348842621127e-01 2.000000000000000000e+00
1.262743234634398970e+00 1.855979204177856001e+00 -6.014954447746276855e-01 2.200000000000000000e+01
1.432369232177733931e+00 2.103716135025023970e+00 -5.875721573829650879e-01 1.300000000000000000e+01
1.652292609214782937e+00 2.425806522369385210e+00 -5.705189108848571777e-01 1.200000000000000000e+01
1.969313502311706987e+00 2.889071464538574219e+00 -5.537779927253723145e-01 9.000000000000000000e+00
2.436422348022460938e+00 3.571661710739136186e+00 -5.308628678321838379e-01 9.000000000000000000e+00
3.162510395050048828e+00 4.634329319000244141e+00 -4.908611476421356201e-01 6.000000000000000000e+00
4.513369560241699219e+00 6.608916282653808594e+00 -4.194203615188599188e-01 5.000000000000000000e+00
7.704179763793945312e+00 1.127276134490966975e+01 -2.383300662040709894e-01 2.000000000000000000e+00
1.265937328338623047e+00 1.846779823303223100e+00 -5.999425649642944336e-01 1.900000000000000000e+01
1.443011045455933061e+00 2.103524208068848100e+00 -5.889218449592590332e-01 1.200000000000000000e+01
1.658528447151184082e+00 2.416786670684814009e+00 -5.697556734085083008e-01 1.100000000000000000e+01
1.983859539031981978e+00 2.888693094253540039e+00 -5.550295114517211914e-01 9.000000000000000000e+00
2.435382604598999023e+00 3.543503522872924805e+00 -5.279380083084106445e-01 9.000000000000000000e+00
3.184311866760253906e+00 4.631470680236816406e+00 -4.917326867580413818e-01 8.000000000000000000e+00
4.539807796478270596e+00 6.598057746887207031e+00 -4.197343587875366211e-01 4.000000000000000000e+00
7.725337028503417969e+00 1.121944808959960938e+01 -2.377715855836868009e-01 2.000000000000000000e+00
1.271278262138366921e+00 1.840759992599487083e+00 -5.994248986244201660e-01 2.200000000000000000e+01
1.454776763916016069e+00 2.104886770248413086e+00 -5.907214879989624023e-01 1.300000000000000000e+01
1.663604974746704102e+00 2.406137943267821822e+00 -5.686107873916625977e-01 1.000000000000000000e+01
1.996178746223449929e+00 2.884999513626099077e+00 -5.556552410125732422e-01 9.000000000000000000e+00
2.457907438278197798e+00 3.549669265747069868e+00 -5.301316380500793457e-01 9.000000000000000000e+00
3.200459480285644975e+00 4.620326995849609375e+00 -4.917326867580413818e-01 8.000000000000000000e+00
4.577603816986083984e+00 6.603509426116943359e+00 -4.210951030254364014e-01 3.000000000000000000e+00
7.773571491241455078e+00 1.120555686950683949e+01 -2.380508184432983121e-01 2.000000000000000000e+00
1.277696013450623003e+00 1.836311221122741921e+00 -5.994248986244201660e-01 2.200000000000000000e+01
1.457661151885986106e+00 2.093399047851562944e+00 -5.889218449592590332e-01 1.500000000000000000e+01
1.677604556083678977e+00 2.408370971679687944e+00 -5.705189108848571777e-01 1.100000000000000000e+01
1.999459266662598100e+00 2.868290901184082031e+00 -5.537779927253723145e-01 1.000000000000000000e+01
2.475961923599243164e+00 3.549208164215087891e+00 -5.313503146171569824e-01 9.000000000000000000e+00
3.213147163391112837e+00 4.604225635528563565e+00 -4.912097752094268799e-01 8.000000000000000000e+00
4.600626468658447266e+00 6.587490558624267578e+00 -4.210951030254364014e-01 2.000000000000000000e+00
7.801183700561523438e+00 1.116196346282958984e+01 -2.377017736434937079e-01 2.000000000000000000e+00
1.281880378723144975e+00 1.828676223754883035e+00 -5.983896255493164062e-01 2.200000000000000000e+01
1.463840365409851074e+00 2.086702585220336914e+00 -5.884719491004943848e-01 1.300000000000000000e+01
1.692767620086669922e+00 2.412142515182495117e+00 -5.728086233139038086e-01 1.100000000000000000e+01
2.009459257125854048e+00 2.861294031143188032e+00 -5.537779927253723145e-01 9.000000000000000000e+00
2.495184659957886186e+00 3.550288438796997070e+00 -5.328127741813659668e-01 9.000000000000000000e+00
3.226907491683959961e+00 4.589722156524658203e+00 -4.908611476421356201e-01 9.000000000000000000e+00
4.641982078552246094e+00 6.597526550292968750e+00 -4.227698445320128839e-01 1.000000000000000000e+00
7.835493564605712891e+00 1.112812423706055043e+01 -2.375621497631072998e-01 2.000000000000000000e+00
1.299399852752685991e+00 1.839970707893372026e+00 -6.035659909248352051e-01 2.100000000000000000e+01
1.467741370201111062e+00 2.076805830001831055e+00 -5.871222615242004395e-01 1.300000000000000000e+01
1.693243741989135964e+00 2.394997596740723100e+00 -5.701372623443603516e-01 1.200000000000000000e+01
2.022857666015625000e+00 2.859099864959716797e+00 -5.547165870666503906e-01 8.000000000000000000e+00
2.498385429382324219e+00 3.528596162796020952e+00 -5.308628678321838379e-01 9.000000000000000000e+00
3.253273248672484907e+00 4.593062877655029297e+00 -4.924299418926239014e-01 8.000000000000000000e+00
4.676533222198486328e+00 6.597577095031738281e+00 -4.238165616989135742e-01 2.000000000000000000e+00
7.865034580230712891e+00 1.108765697479248047e+01 -2.372829169034957886e-01 2.000000000000000000e+00
1.301334977149962935e+00 1.829127192497252974e+00 -6.014954447746276855e-01 2.200000000000000000e+01
1.482893586158751997e+00 2.082782268524169922e+00 -5.902715921401977539e-01 1.400000000000000000e+01
1.702732443809509055e+00 2.390671491622924805e+00 -5.705189108848571777e-01 1.100000000000000000e+01
2.030532360076903853e+00 2.848804235458374023e+00 -5.540908575057983398e-01 8.000000000000000000e+00
2.510687351226807085e+00 3.519853591918944868e+00 -5.308628678321838379e-01 9.000000000000000000e+00
3.269286394119263139e+00 4.581678867340087891e+00 -4.924299418926239014e-01 9.000000000000000000e+00
4.713462352752686435e+00 6.600717544555664062e+00 -4.250726401805878241e-01 1.000000000000000000e+00
7.899039268493652344e+00 1.105362796783447088e+01 -2.371432930231094083e-01 2.000000000000000000e+00
1.298708796501159890e+00 1.812011957168579102e+00 -5.973543524742126465e-01 2.100000000000000000e+01
1.493562221527100053e+00 2.082344055175780806e+00 -5.916212797164916992e-01 1.500000000000000000e+01
1.711067080497741921e+00 2.384713411331177202e+00 -5.705189108848571777e-01 1.200000000000000000e+01
2.039311885833739790e+00 2.840094566345214844e+00 -5.537779927253723145e-01 9.000000000000000000e+00
2.534542322158813032e+00 3.527189016342163086e+00 -5.333002209663391113e-01 9.000000000000000000e+00
3.284096479415893999e+00 4.568621158599854404e+00 -4.922556281089783270e-01 9.000000000000000000e+00
4.736474514007568359e+00 6.584224224090576172e+00 -4.250726401805878241e-01 2.000000000000000000e+00
7.937575340270996094e+00 1.102598762512207031e+01 -2.371432930231094083e-01 2.000000000000000000e+00
1.306971669197082964e+00 1.810828208923340066e+00 -5.983896255493164062e-01 2.100000000000000000e+01
1.493613004684448020e+00 2.067901134490966797e+00 -5.889218449592590332e-01 1.500000000000000000e+01
1.717815876007080078e+00 2.377434730529785156e+00 -5.701372623443603516e-01 1.100000000000000000e+01
2.048718929290771040e+00 2.833316326141356978e+00 -5.537779927253723145e-01 9.000000000000000000e+00
2.547388792037963867e+00 3.520372867584228960e+00 -5.335440039634704590e-01 7.000000000000000000e+00
3.299228668212891069e+00 4.557705402374267578e+00 -4.922556281089783270e-01 8.000000000000000000e+00
4.760625839233398438e+00 6.571715831756591797e+00 -4.252819716930388849e-01 2.000000000000000000e+00
7.974095344543457031e+00 1.099960517883300959e+01 -2.371432930231094083e-01 2.000000000000000000e+00
1.317828893661499023e+00 1.812505006790160911e+00 -6.004601716995239258e-01 2.000000000000000000e+01
1.495089530944823997e+00 2.054795980453491211e+00 -5.866723656654357910e-01 1.400000000000000000e+01
1.734191775321960005e+00 2.382534980773925781e+00 -5.728086233139038086e-01 1.200000000000000000e+01
2.056270360946654829e+00 2.822954177856444868e+00 -5.531522631645202637e-01 9.000000000000000000e+00
2.551476240158081055e+00 3.500230550765991211e+00 -5.318378210067749023e-01 9.000000000000000000e+00
3.311596155166625977e+00 4.541331768035888672e+00 -4.917326867580413818e-01 9.000000000000000000e+00
4.783536434173583984e+00 6.555058479309082031e+00 -4.252819716930388849e-01 2.000000000000000000e+00
8.024235725402832031e+00 1.098785209655762074e+01 -2.374923527240752896e-01 2.000000000000000000e+00
1.324147701263427956e+00 1.807893872261046919e+00 -6.004601716995239258e-01 2.000000000000000000e+01
1.504557132720947044e+00 2.052708148956298828e+00 -5.875721573829650879e-01 1.400000000000000000e+01
1.737854242324829102e+00 2.370134115219116211e+00 -5.712821483612060547e-01 1.200000000000000000e+01
2.075460672378540039e+00 2.828500270843505859e+00 -5.556552410125732422e-01 9.000000000000000000e+00
2.561328887939453125e+00 3.488102674484252930e+00 -5.313503146171569824e-01 9.000000000000000000e+00
3.335684776306151900e+00 4.540984630584716797e+00 -4.929528832435607910e-01 6.000000000000000000e+00
4.830048084259033203e+00 6.570505619049072266e+00 -4.273754060268402100e-01 2.000000000000000000e+00
8.055432319641113281e+00 1.095011138916015980e+01 -2.372829169034957886e-01 2.000000000000000000e+00
1.331597328186034934e+00 1.804815292358397993e+00 -6.009778380393981934e-01 2.200000000000000000e+01
1.520973324775696023e+00 2.059985637664794922e+00 -5.911713838577270508e-01 1.300000000000000000e+01
1.742617726325988992e+00 2.359315872192382812e+00 -5.701372623443603516e-01 1.100000000000000000e+01
2.081799030303955078e+00 2.816472768783568892e+00 -5.547165870666503906e-01 8.000000000000000000e+00
2.577030658721923828e+00 3.483928680419921875e+00 -5.320815443992614746e-01 7.000000000000000000e+00
3.339664220809936968e+00 4.513297080993652344e+00 -4.912097752094268799e-01 8.000000000000000000e+00
4.852953910827636719e+00 6.553605556488037109e+00 -4.273754060268402100e-01 1.000000000000000000e+00
8.095987319946289062e+00 1.092513847351074041e+01 -2.373527288436889926e-01 2.000000000000000000e+00
1.329822659492492898e+00 1.789302468299865945e+00 -5.973543524742126465e-01 1.900000000000000000e+01
1.529317736625670943e+00 2.056227445602416992e+00 -5.916212797164916992e-01 1.500000000000000000e+01
1.749670743942260964e+00 2.351643562316894975e+00 -5.697556734085083008e-01 1.100000000000000000e+01
2.090437889099121094e+00 2.807604312896728960e+00 -5.544037222862243652e-01 9.000000000000000000e+00
2.591548204421997070e+00 3.478095531463623047e+00 -5.325690507888793945e-01 7.000000000000000000e+00
3.361351728439331055e+00 4.509599208831787109e+00 -4.920813143253325861e-01 8.000000000000000000e+00
4.875800609588623047e+00 6.536625385284423828e+00 -4.273754060268402100e-01 1.000000000000000000e+00
8.117326736450195312e+00 1.087437725067139027e+01 -2.368640601634978970e-01 2.000000000000000000e+00
1.339533686637877974e+00 1.789289116859436035e+00 -5.989072918891906738e-01 2.200000000000000000e+01
1.535317540168761985e+00 2.049317121505736861e+00 -5.911713838577270508e-01 1.400000000000000000e+01
1.767288088798522949e+00 2.358089685440063032e+00 -5.728086233139038086e-01 1.100000000000000000e+01
2.097855091094971147e+00 2.797129631042480025e+00 -5.537779927253723145e-01 9.000000000000000000e+00
2.613206148147583008e+00 3.481729269027709961e+00 -5.345189571380615234e-01 9.000000000000000000e+00
3.381857872009276900e+00 4.504211902618408203e+00 -4.927785694599152166e-01 8.000000000000000000e+00
4.891389846801757812e+00 6.509985446929931641e+00 -4.267473816871643066e-01 2.000000000000000000e+00
8.152832984924316406e+00 1.084278011322020951e+01 -2.367942482233046930e-01 2.000000000000000000e+00
1.349260807037353960e+00 1.789229750633239968e+00 -6.004601716995239258e-01 2.300000000000000000e+01
1.531896829605102983e+00 2.029945611953734907e+00 -5.871222615242004395e-01 1.300000000000000000e+01
1.775508522987365945e+00 2.351906299591064009e+00 -5.728086233139038086e-01 1.100000000000000000e+01
2.105224609375000000e+00 2.786637306213378906e+00 -5.531522631645202637e-01 9.000000000000000000e+00
2.613372325897216797e+00 3.456751346588135210e+00 -5.320815443992614746e-01 7.000000000000000000e+00
3.391550779342650923e+00 4.484433650970458984e+00 -4.919070005416870117e-01 9.000000000000000000e+00
4.914083957672119141e+00 6.492871761322020596e+00 -4.267473816871643066e-01 1.000000000000000000e+00
8.161654472351074219e+00 1.077599716186523082e+01 -2.359565347433089932e-01 2.000000000000000000e+00
1.359003663063049094e+00 1.789124131202697976e+00 -6.020131111145019531e-01 2.200000000000000000e+01
1.542511224746704102e+00 2.029240131378173828e+00 -5.884719491004943848e-01 1.300000000000000000e+01
1.776577353477478027e+00 2.336317777633666992e+00 -5.705189108848571777e-01 1.200000000000000000e+01
2.119723796844481978e+00 2.785559654235839844e+00 -5.544037222862243652e-01 1.000000000000000000e+01
2.625422716140747070e+00 3.447607994079589844e+00 -5.320815443992614746e-01 7.000000000000000000e+00
3.416842460632324219e+00 4.485247135162354404e+00 -4.933015108108521063e-01 9.000000000000000000e+00
4.931874752044677734e+00 6.469325542449951172e+00 -4.263286888599395752e-01 2.000000000000000000e+00
8.211349487304687500e+00 1.076334095001221058e+01 -2.363055795431137085e-01 2.000000000000000000e+00
1.357023358345031960e+00 1.773629426956176980e+00 -5.983896255493164062e-01 2.300000000000000000e+01
1.556693434715270996e+00 2.033127069473267046e+00 -5.911713838577270508e-01 1.300000000000000000e+01
1.784721851348876953e+00 2.330102205276488814e+00 -5.705189108848571777e-01 1.200000000000000000e+01
2.128232717514038086e+00 2.776575803756713867e+00 -5.540908575057983398e-01 1.000000000000000000e+01
2.636232852935791016e+00 3.436847448348999023e+00 -5.318378210067749023e-01 9.000000000000000000e+00
3.434903860092163086e+00 4.476453781127929688e+00 -4.936501383781433105e-01 9.000000000000000000e+00
4.954426765441895419e+00 6.452070236206054688e+00 -4.263286888599395752e-01 2.000000000000000000e+00
8.248870849609375000e+00 1.073461151123047053e+01 -2.363055795431137085e-01 2.000000000000000000e+00
1.363206267356873003e+00 1.768881797790526900e+00 -5.983896255493164062e-01 2.000000000000000000e+01
1.563780903816222922e+00 2.027680873870850053e+00 -5.911713838577270508e-01 1.400000000000000000e+01
1.794043779373168945e+00 2.325412511825561968e+00 -5.709004998207092285e-01 1.100000000000000000e+01
2.136704683303833008e+00 2.767566442489624023e+00 -5.537779927253723145e-01 9.000000000000000000e+00
2.650640964508057085e+00 3.430766105651855025e+00 -5.323252677917480469e-01 7.000000000000000000e+00
3.446853637695312944e+00 4.459707260131835938e+00 -4.931271970272064209e-01 8.000000000000000000e+00
4.981806278228759766e+00 6.441056251525878906e+00 -4.267473816871643066e-01 2.000000000000000000e+00
8.315666198730468750e+00 1.074370479583740057e+01 -2.371432930231094083e-01 2.000000000000000000e+00
1.372617483139038086e+00 1.768930196762084961e+00 -5.999425649642944336e-01 2.100000000000000000e+01
1.566910624504088911e+00 2.017866611480712891e+00 -5.898216366767883301e-01 1.200000000000000000e+01
1.802949547767638938e+00 2.321001052856444868e+00 -5.712821483612060547e-01 1.100000000000000000e+01
2.141021013259888139e+00 2.754227161407471147e+00 -5.525265336036682129e-01 1.000000000000000000e+01
2.672973155975341797e+00 3.436058759689331055e+00 -5.345189571380615234e-01 9.000000000000000000e+00
3.451834678649901900e+00 4.435673713684082031e+00 -4.917326867580413818e-01 9.000000000000000000e+00
4.998229503631591797e+00 6.418197631835938388e+00 -4.263286888599395752e-01 2.000000000000000000e+00
8.309454917907714844e+00 1.066244220733642933e+01 -2.359565347433089932e-01 2.000000000000000000e+00
1.381163120269774947e+00 1.767172336578368919e+00 -6.009778380393981934e-01 2.100000000000000000e+01
1.571543693542480025e+00 2.009314775466918945e+00 -5.889218449592590332e-01 1.200000000000000000e+01
1.815879583358765093e+00 2.320878267288208008e+00 -5.728086233139038086e-01 1.100000000000000000e+01
2.153057575225830078e+00 2.749847650527954102e+00 -5.531522631645202637e-01 1.000000000000000000e+01
2.673931837081909180e+00 3.412644386291503906e+00 -5.323252677917480469e-01 9.000000000000000000e+00
3.474671602249145952e+00 4.433006286621093750e+00 -4.927785694599152166e-01 9.000000000000000000e+00
5.020603179931640625e+00 6.400711536407470703e+00 -4.263286888599395752e-01 2.000000000000000000e+00
8.358970642089843750e+00 1.064910221099854049e+01 -2.363055795431137085e-01 2.000000000000000000e+00
1.389713168144226074e+00 1.765376329421997070e+00 -6.020131111145019531e-01 2.100000000000000000e+01
1.579753875732422097e+00 2.005347490310668945e+00 -5.893717408180236816e-01 1.300000000000000000e+01
1.819109201431273970e+00 2.308357477188109907e+00 -5.712821483612060547e-01 1.100000000000000000e+01
2.165089607238769975e+00 2.745417356491088867e+00 -5.537779927253723145e-01 9.000000000000000000e+00
2.679679155349731001e+00 3.395498514175415039e+00 -5.311065912246704102e-01 9.000000000000000000e+00
3.501235485076903853e+00 4.434924602508544922e+00 -4.943473637104033869e-01 9.000000000000000000e+00
5.047867774963378906e+00 6.389415740966796875e+00 -4.267473816871643066e-01 2.000000000000000000e+00
8.396091461181640625e+00 1.061985874176025035e+01 -2.363055795431137085e-01 2.000000000000000000e+00
1.392266273498534934e+00 1.755973219871520996e+00 -6.004601716995239258e-01 2.000000000000000000e+01
1.587955474853516069e+00 2.001347541809082031e+00 -5.898216366767883301e-01 1.200000000000000000e+01
1.824714660644531028e+00 2.298918008804320845e+00 -5.705189108848571777e-01 1.100000000000000000e+01
2.182031393051147017e+00 2.747123956680297852e+00 -5.556552410125732422e-01 9.000000000000000000e+00
2.698926448822021040e+00 3.395447731018065962e+00 -5.325690507888793945e-01 9.000000000000000000e+00
3.501814842224121094e+00 4.403962135314941406e+00 -4.922556281089783270e-01 9.000000000000000000e+00
5.065165519714354581e+00 6.365505218505859375e+00 -4.263286888599395752e-01 2.000000000000000000e+00
8.408197402954101562e+00 1.055920028686523082e+01 -2.356074899435043057e-01 2.000000000000000000e+00
1.394770860671997070e+00 1.746573925018310991e+00 -5.989072918891906738e-01 2.100000000000000000e+01
1.601014614105225053e+00 2.003404140472412109e+00 -5.920711755752563477e-01 1.300000000000000000e+01
1.836405992507935014e+00 2.297135114669799805e+00 -5.716637372970581055e-01 1.200000000000000000e+01
2.194075345993041992e+00 2.742575407028197798e+00 -5.562809705734252930e-01 9.000000000000000000e+00
2.714484214782714844e+00 3.390655040740966797e+00 -5.333002209663391113e-01 7.000000000000000000e+00
3.517166137695312944e+00 4.391711711883544922e+00 -4.922556281089783270e-01 9.000000000000000000e+00
5.104841232299804688e+00 6.369604587554931641e+00 -4.277940988540648859e-01 2.000000000000000000e+00
8.427489280700683594e+00 1.050794601440430043e+01 -2.351188212633132935e-01 2.000000000000000000e+00
1.402069807052612083e+00 1.743199944496155007e+00 -5.994248986244201660e-01 1.900000000000000000e+01
1.603110551834106001e+00 1.991730928421020952e+00 -5.902715921401977539e-01 1.400000000000000000e+01
1.849338293075561968e+00 2.296827554702758789e+00 -5.731902122497558594e-01 1.200000000000000000e+01
2.193720340728760210e+00 2.722594499588013139e+00 -5.537779927253723145e-01 1.000000000000000000e+01
2.728795289993286133e+00 3.384249687194824219e+00 -5.337877273559570312e-01 7.000000000000000000e+00
3.534976482391356978e+00 4.382509231567382812e+00 -4.926042556762694757e-01 9.000000000000000000e+00
5.127044200897216797e+00 6.351746559143066406e+00 -4.277940988540648859e-01 2.000000000000000000e+00
8.481709480285644531e+00 1.050024318695068004e+01 -2.356074899435043057e-01 2.000000000000000000e+00
1.409362196922302024e+00 1.739796280860901101e+00 -5.999425649642944336e-01 1.900000000000000000e+01
1.602690100669861062e+00 1.977040052413939986e+00 -5.875721573829650879e-01 1.400000000000000000e+01
1.853634715080261008e+00 2.285783529281616211e+00 -5.720453858375549316e-01 1.200000000000000000e+01
2.200721025466918945e+00 2.711852788925170898e+00 -5.531522631645202637e-01 1.000000000000000000e+01
2.735586404800415039e+00 3.368540048599243164e+00 -5.328127741813659668e-01 7.000000000000000000e+00
3.559046745300292969e+00 4.380968093872070312e+00 -4.938244521617888849e-01 9.000000000000000000e+00
5.137845516204833984e+00 6.319863796234130859e+00 -4.268520474433898926e-01 3.000000000000000000e+00
8.500642776489257812e+00 1.044885540008544922e+01 -2.351188212633132935e-01 2.000000000000000000e+00
1.416647791862488015e+00 1.736363053321837935e+00 -6.004601716995239258e-01 1.700000000000000000e+01
1.612046480178833008e+00 1.974452614784240945e+00 -5.884719491004943848e-01 1.400000000000000000e+01
1.865327954292296919e+00 2.283860921859741211e+00 -5.731902122497558594e-01 1.200000000000000000e+01
2.213924169540404829e+00 2.708742856979370117e+00 -5.540908575057983398e-01 1.100000000000000000e+01
2.741044282913208008e+00 3.351287603378295898e+00 -5.315940976142883301e-01 9.000000000000000000e+00
3.571794033050537109e+00 4.365433692932128906e+00 -4.934758245944976807e-01 8.000000000000000000e+00
5.143425941467285156e+00 6.281801223754882812e+00 -4.254913330078125000e-01 2.000000000000000000e+00
8.554807662963867188e+00 1.044077396392822088e+01 -2.356074899435043057e-01 2.000000000000000000e+00
1.419020891189574973e+00 1.726929664611815962e+00 -5.989072918891906738e-01 1.600000000000000000e+01
1.626355051994323953e+00 1.977844715118407981e+00 -5.911713838577270508e-01 1.400000000000000000e+01
1.865805625915526900e+00 2.268238544464110884e+00 -5.709004998207092285e-01 1.200000000000000000e+01
2.230898380279541016e+00 2.710149049758911133e+00 -5.559681057929992676e-01 1.100000000000000000e+01
2.755249977111815962e+00 3.344763517379761186e+00 -5.320815443992614746e-01 9.000000000000000000e+00
3.584476470947266069e+00 4.349864006042479581e+00 -4.931271970272064209e-01 8.000000000000000000e+00
5.175487518310546875e+00 6.276136398315429688e+00 -4.263286888599395752e-01 2.000000000000000000e+00
8.573381423950195312e+00 1.038925552368164062e+01 -2.351188212633132935e-01 2.000000000000000000e+00
1.416418671607970969e+00 1.711547732353210005e+00 -5.952838063240051270e-01 1.600000000000000000e+01
1.639463901519774947e+00 1.979660034179687944e+00 -5.934208631515502930e-01 1.500000000000000000e+01
1.872459411621093972e+00 2.260200023651123047e+00 -5.705189108848571777e-01 1.300000000000000000e+01
2.240345001220703125e+00 2.702345132827758789e+00 -5.559681057929992676e-01 1.000000000000000000e+01
2.769443511962891069e+00 3.338181018829346147e+00 -5.325690507888793945e-01 1.000000000000000000e+01
3.603455543518065962e+00 4.341925144195556641e+00 -4.936501383781433105e-01 9.000000000000000000e+00
5.202467918395996094e+00 6.264178276062011719e+00 -4.267473816871643066e-01 2.000000000000000000e+00
8.622376441955566406e+00 1.037464427947998047e+01 -2.354678660631180087e-01 2.000000000000000000e+00
1.431979298591613992e+00 1.718714952468872070e+00 -5.994248986244201660e-01 1.500000000000000000e+01
1.639780044555664062e+00 1.966728687286376953e+00 -5.911713838577270508e-01 1.400000000000000000e+01
1.883716702461242898e+00 2.258501291275023970e+00 -5.716637372970581055e-01 1.200000000000000000e+01
2.240433692932128906e+00 2.684285163879394975e+00 -5.537779927253723145e-01 9.000000000000000000e+00
2.788133382797241211e+00 3.338120222091674805e+00 -5.340314507484436035e-01 9.000000000000000000e+00
3.615279197692871094e+00 4.326893806457520419e+00 -4.933015108108521063e-01 9.000000000000000000e+00
5.223212242126464844e+00 6.246891975402832031e+00 -4.267473816871643066e-01 2.000000000000000000e+00
8.613101959228515625e+00 1.029385089874267933e+01 -2.342811077833175937e-01 2.000000000000000000e+00
1.435486435890197976e+00 1.710746169090270996e+00 -5.983896255493164062e-01 1.700000000000000000e+01
1.634103775024414062e+00 1.946069002151489036e+00 -5.866723656654357910e-01 1.300000000000000000e+01
1.906741738319396973e+00 2.269951581954956055e+00 -5.762431621551513672e-01 1.300000000000000000e+01
2.243434429168701172e+00 2.668887615203856978e+00 -5.522136688232421875e-01 9.000000000000000000e+00
2.799768447875977007e+00 3.328367471694945845e+00 -5.340314507484436035e-01 9.000000000000000000e+00
3.623946905136107954e+00 4.306625366210938388e+00 -4.924299418926239014e-01 9.000000000000000000e+00
5.226975440979003906e+00 6.207232952117919922e+00 -4.252819716930388849e-01 2.000000000000000000e+00
8.659290313720703125e+00 1.027595615386963068e+01 -2.345603406429291049e-01 2.000000000000000000e+00
1.448930859565735085e+00 1.714578151702881081e+00 -6.014954447746276855e-01 1.800000000000000000e+01
1.647178530693053977e+00 1.947793126106261985e+00 -5.889218449592590332e-01 1.200000000000000000e+01
1.904509902000427024e+00 2.251291036605834961e+00 -5.731902122497558594e-01 1.200000000000000000e+01
2.260395050048828125e+00 2.670086383819580078e+00 -5.540908575057983398e-01 9.000000000000000000e+00
2.804954051971435991e+00 3.311001062393188032e+00 -5.328127741813659668e-01 1.000000000000000000e+01
3.640245676040648970e+00 4.295469284057617188e+00 -4.926042556762694757e-01 9.000000000000000000e+00
5.247319221496582031e+00 6.187426090240479404e+00 -4.251773059368134100e-01 3.000000000000000000e+00
8.695107460021972656e+00 1.024566650390625000e+01 -2.345603406429291049e-01 2.000000000000000000e+00
1.452402949333190918e+00 1.706567645072937012e+00 -6.004601716995239258e-01 1.700000000000000000e+01
1.662812352180480957e+00 1.952416658401489036e+00 -5.920711755752563477e-01 1.400000000000000000e+01
1.907263875007628950e+00 2.238651514053345171e+00 -5.716637372970581055e-01 1.200000000000000000e+01
2.281235933303833008e+00 2.675708770751953125e+00 -5.569067001342773438e-01 9.000000000000000000e+00
2.812629222869873047e+00 3.296659231185913086e+00 -5.320815443992614746e-01 9.000000000000000000e+00
3.656511068344116211e+00 4.284251689910888672e+00 -4.927785694599152166e-01 9.000000000000000000e+00
5.262399673461914062e+00 6.161478519439697266e+00 -4.246539473533629816e-01 2.000000000000000000e+00
8.712629318237304688e+00 1.019397068023681996e+01 -2.340716719627380094e-01 2.000000000000000000e+00
1.453322291374206987e+00 1.695620298385619895e+00 -5.983896255493164062e-01 1.600000000000000000e+01
1.664542555809020996e+00 1.940683722496032937e+00 -5.902715921401977539e-01 1.200000000000000000e+01
1.917623519897460938e+00 2.234960317611693892e+00 -5.724269747734069824e-01 1.200000000000000000e+01
2.284127950668334961e+00 2.660235881805419922e+00 -5.553423762321472168e-01 9.000000000000000000e+00
2.826706886291503906e+00 3.289832592010498047e+00 -5.325690507888793945e-01 9.000000000000000000e+00
3.677937030792235884e+00 4.279016971588134766e+00 -4.936501383781433105e-01 9.000000000000000000e+00
5.289084911346436435e+00 6.149128437042236328e+00 -4.250726401805878241e-01 2.000000000000000000e+00
8.748160362243652344e+00 1.016349601745604936e+01 -2.340716719627380094e-01 2.000000000000000000e+00
1.460494637489319070e+00 1.691999316215514915e+00 -5.989072918891906738e-01 1.600000000000000000e+01
1.672580599784851074e+00 1.936336398124695046e+00 -5.907214879989624023e-01 1.300000000000000000e+01
1.925413250923156960e+00 2.228252887725830078e+00 -5.724269747734069824e-01 1.100000000000000000e+01
2.289523601531981978e+00 2.647763967514038086e+00 -5.544037222862243652e-01 9.000000000000000000e+00
2.856358289718627930e+00 3.300961256027222124e+00 -5.359813570976257324e-01 9.000000000000000000e+00
3.687635421752930132e+00 4.260126590728759766e+00 -4.929528832435607910e-01 8.000000000000000000e+00
5.310516834259033203e+00 6.130628585815429688e+00 -4.250726401805878241e-01 2.000000000000000000e+00
8.820258140563964844e+00 1.017520618438721058e+01 -2.350490093231200894e-01 2.000000000000000000e+00
1.470194101333617942e+00 1.691264867782592995e+00 -6.004601716995239258e-01 1.700000000000000000e+01
1.672934412956238015e+00 1.923134684562683105e+00 -5.884719491004943848e-01 1.000000000000000000e+01
1.944778680801392046e+00 2.234847545623778853e+00 -5.758615732192993164e-01 1.300000000000000000e+01
2.301346778869628906e+00 2.642735242843627930e+00 -5.550295114517211914e-01 9.000000000000000000e+00
2.852213382720946822e+00 3.273011684417725053e+00 -5.330564975738525391e-01 9.000000000000000000e+00
3.709029674530028853e+00 4.254737854003906250e+00 -4.938244521617888849e-01 9.000000000000000000e+00
5.318755149841308594e+00 6.097003459930419922e+00 -4.240259230136870783e-01 2.000000000000000000e+00
8.803119659423828125e+00 1.008409786224365057e+01 -2.336528152227402011e-01 2.000000000000000000e+00
1.481178760528564009e+00 1.691936850547790971e+00 -6.025307178497314453e-01 1.700000000000000000e+01
1.680921316146851030e+00 1.918749213218688965e+00 -5.889218449592590332e-01 9.000000000000000000e+00
1.940922379493712935e+00 2.214756727218627930e+00 -5.724269747734069824e-01 1.100000000000000000e+01
2.315767288208007812e+00 2.640626668930054155e+00 -5.562809705734252930e-01 9.000000000000000000e+00
2.861002206802368164e+00 3.260051488876343218e+00 -5.325690507888793945e-01 9.000000000000000000e+00
3.727802276611328125e+00 4.246256828308104581e+00 -4.943473637104033869e-01 8.000000000000000000e+00
5.353187084197998047e+00 6.093405246734619141e+00 -4.250726401805878241e-01 2.000000000000000000e+00
8.827703475952148438e+00 1.004129314422607067e+01 -2.333735823631286899e-01 2.000000000000000000e+00
1.479410290718079057e+00 1.678061604499816895e+00 -5.994248986244201660e-01 1.800000000000000000e+01
1.694054961204529031e+00 1.920176625251770020e+00 -5.911713838577270508e-01 8.000000000000000000e+00
1.951239705085753950e+00 2.210912227630614790e+00 -5.731902122497558594e-01 1.300000000000000000e+01
2.323663234710692915e+00 2.631046295166016069e+00 -5.559681057929992676e-01 8.000000000000000000e+00
2.874993801116942915e+00 3.253019809722899947e+00 -5.330564975738525391e-01 9.000000000000000000e+00
3.734683752059936968e+00 4.224262237548828125e+00 -4.933015108108521063e-01 8.000000000000000000e+00
5.379718303680419922e+00 6.080665111541748047e+00 -4.254913330078125000e-01 2.000000000000000000e+00
8.841491699218750000e+00 9.986461639404296875e+00 -2.328151017427443903e-01 2.000000000000000000e+00
1.477563261985779031e+00 1.664219498634337935e+00 -5.963190793991088867e-01 1.800000000000000000e+01
1.705924630165100098e+00 1.920078754425049050e+00 -5.929709672927856445e-01 7.000000000000000000e+00
1.960249543190001997e+00 2.205554962158203125e+00 -5.735718607902526855e-01 1.200000000000000000e+01
2.336771488189696822e+00 2.627347469329833984e+00 -5.569067001342773438e-01 9.000000000000000000e+00
2.891610383987427202e+00 3.248895645141602007e+00 -5.340314507484436035e-01 9.000000000000000000e+00
3.753381013870238814e+00 4.215664386749267578e+00 -4.938244521617888849e-01 8.000000000000000000e+00
5.406225204467773438e+00 6.067814350128173828e+00 -4.259100258350371759e-01 2.000000000000000000e+00
8.961466789245605469e+00 1.005106353759765980e+01 -2.350490093231200894e-01 2.000000000000000000e+00
1.488513946533202903e+00 1.664812326431273970e+00 -5.983896255493164062e-01 1.700000000000000000e+01
1.694424867630005105e+00 1.893780350685120073e+00 -5.866723656654357910e-01 7.000000000000000000e+00
1.969245791435241921e+00 2.200161933898925781e+00 -5.739534497261047363e-01 1.300000000000000000e+01
2.338020801544189009e+00 2.610345840454102007e+00 -5.550295114517211914e-01 9.000000000000000000e+00
2.908233404159545898e+00 3.244695186614989790e+00 -5.350064039230346680e-01 9.000000000000000000e+00
3.757432937622069868e+00 4.190669536590576172e+00 -4.924299418926239014e-01 9.000000000000000000e+00
5.424705505371093750e+00 6.045932769775390625e+00 -4.257006645202637274e-01 2.000000000000000000e+00
9.044592857360839844e+00 1.007328701019286932e+01 -2.363055795431137085e-01 2.000000000000000000e+00
1.502072215080261008e+00 1.668220162391663042e+00 -6.014954447746276855e-01 1.800000000000000000e+01
1.706242918968200906e+00 1.893645048141479048e+00 -5.884719491004943848e-01 8.000000000000000000e+00
1.979542613029479980e+00 2.196191310882567915e+00 -5.747166872024536133e-01 1.200000000000000000e+01
2.344472169876099077e+00 2.599235057830810991e+00 -5.544037222862243652e-01 9.000000000000000000e+00
2.914221286773682085e+00 3.228629589080810991e+00 -5.340314507484436035e-01 9.000000000000000000e+00
3.790731430053710938e+00 4.198230743408203125e+00 -4.948703050613402765e-01 8.000000000000000000e+00
5.435064315795898438e+00 6.015105247497558594e+00 -4.248632788658142090e-01 2.000000000000000000e+00
9.012640953063964844e+00 9.967491149902343750e+00 -2.345603406429291049e-01 2.000000000000000000e+00
1.507886171340941939e+00 1.662966728210448997e+00 -6.014954447746276855e-01 1.600000000000000000e+01
1.711533069610595925e+00 1.886234521865844949e+00 -5.880220532417297363e-01 9.000000000000000000e+00
1.987196683883666992e+00 2.189267873764038086e+00 -5.747166872024536133e-01 1.200000000000000000e+01
2.362828254699707031e+00 2.601270914077758789e+00 -5.565938353538513184e-01 8.000000000000000000e+00
2.920132637023925781e+00 3.212561607360839844e+00 -5.330564975738525391e-01 9.000000000000000000e+00
3.793299436569213867e+00 4.171706199645996094e+00 -4.933015108108521063e-01 6.000000000000000000e+00
5.456027984619140625e+00 5.996096611022949219e+00 -4.248632788658142090e-01 2.000000000000000000e+00
9.025837898254394531e+00 9.912313461303710938e+00 -2.340018600225448886e-01 2.000000000000000000e+00
1.516287088394165039e+00 1.660546302795409934e+00 -6.025307178497314453e-01 1.500000000000000000e+01
1.724679589271544966e+00 1.887441635131835938e+00 -5.902715921401977539e-01 1.200000000000000000e+01
1.985554456710814986e+00 2.172174453735352007e+00 -5.720453858375549316e-01 1.200000000000000000e+01
2.375893592834473100e+00 2.597379922866820845e+00 -5.575324296951293945e-01 9.000000000000000000e+00
2.939370870590209961e+00 3.211134433746337891e+00 -5.345189571380615234e-01 9.000000000000000000e+00
3.806492805480957031e+00 4.156970500946044922e+00 -4.931271970272064209e-01 6.000000000000000000e+00
5.495815753936767578e+00 5.997630596160888672e+00 -4.263286888599395752e-01 2.000000000000000000e+00
9.046868324279785156e+00 9.866008758544921875e+00 -2.336528152227402011e-01 2.000000000000000000e+00
1.511039376258850098e+00 1.644394636154175027e+00 -5.983896255493164062e-01 1.900000000000000000e+01
1.731919646263123003e+00 1.883448481559752974e+00 -5.907214879989624023e-01 1.500000000000000000e+01
1.995026946067810059e+00 2.168815612792969194e+00 -5.728086233139038086e-01 1.300000000000000000e+01
2.381366252899169922e+00 2.586996316909790039e+00 -5.569067001342773438e-01 9.000000000000000000e+00
2.952134370803833008e+00 3.204804420471190962e+00 -5.350064039230346680e-01 9.000000000000000000e+00
3.818183422088623047e+00 4.143526077270507812e+00 -4.929528832435607910e-01 6.000000000000000000e+00
5.528170108795166016e+00 5.995018005371093750e+00 -4.273754060268402100e-01 1.000000000000000000e+00
9.099516868591308594e+00 9.861051559448242188e+00 -2.342112958431243896e-01 2.000000000000000000e+00
1.525954842567444070e+00 1.649035573005676047e+00 -6.020131111145019531e-01 1.900000000000000000e+01
1.738483548164367898e+00 1.877391457557678001e+00 -5.907214879989624023e-01 1.500000000000000000e+01
2.009256362915039062e+00 2.169039964675902876e+00 -5.747166872024536133e-01 1.200000000000000000e+01
2.385010242462158203e+00 2.572873353958129883e+00 -5.556552410125732422e-01 9.000000000000000000e+00
2.957903146743773970e+00 3.188658475875854048e+00 -5.340314507484436035e-01 9.000000000000000000e+00
3.829913377761840820e+00 4.127252101898193359e+00 -4.926042556762694757e-01 8.000000000000000000e+00
5.527318000793457031e+00 5.952267646789550781e+00 -4.257006645202637274e-01 2.000000000000000000e+00
9.112102508544921875e+00 9.805790901184082031e+00 -2.336528152227402011e-01 2.000000000000000000e+00
1.528036713600158913e+00 1.639192223548888938e+00 -6.004601716995239258e-01 1.900000000000000000e+01
1.737377166748047097e+00 1.862457156181335005e+00 -5.880220532417297363e-01 1.300000000000000000e+01
2.023889780044556108e+00 2.168837785720825195e+00 -5.766248106956481934e-01 1.300000000000000000e+01
2.390379667282104048e+00 2.559783220291138139e+00 -5.547165870666503906e-01 8.000000000000000000e+00
2.969570159912108931e+00 3.177795886993408203e+00 -5.340314507484436035e-01 9.000000000000000000e+00
3.855899333953856978e+00 4.124830722808837891e+00 -4.939987361431121826e-01 8.000000000000000000e+00
5.551826000213623047e+00 5.934886455535888672e+00 -4.259100258350371759e-01 2.000000000000000000e+00
9.142515182495117188e+00 9.766488075256347656e+00 -2.335131913423537930e-01 2.000000000000000000e+00
1.539038062095642090e+00 1.639482378959655984e+00 -6.025307178497314453e-01 1.900000000000000000e+01
1.747870564460753950e+00 1.860642194747925027e+00 -5.893717408180236816e-01 1.400000000000000000e+01
2.020692586898804155e+00 2.150314569473267046e+00 -5.735718607902526855e-01 1.200000000000000000e+01
2.411479711532593218e+00 2.564375162124633789e+00 -5.575324296951293945e-01 9.000000000000000000e+00
2.969761610031127930e+00 3.155845642089844194e+00 -5.320815443992614746e-01 9.000000000000000000e+00
3.863445997238159180e+00 4.104092597961425781e+00 -4.931271970272064209e-01 6.000000000000000000e+00
5.558813571929931641e+00 5.900932788848876953e+00 -4.248632788658142090e-01 2.000000000000000000e+00
9.203985214233398438e+00 9.763616561889648438e+00 -2.342112958431243896e-01 2.000000000000000000e+00
1.536505103111267090e+00 1.625945210456847922e+00 -5.994248986244201660e-01 1.900000000000000000e+01
1.758047938346863015e+00 1.859083533287047896e+00 -5.907214879989624023e-01 1.600000000000000000e+01
2.019717216491699219e+00 2.135044574737548828e+00 -5.712821483612060547e-01 1.200000000000000000e+01
2.419970273971558061e+00 2.556364297866820845e+00 -5.575324296951293945e-01 9.000000000000000000e+00
2.993862152099608931e+00 3.160391569137572798e+00 -5.345189571380615234e-01 9.000000000000000000e+00
3.878404855728148970e+00 4.092704296112061435e+00 -4.933015108108521063e-01 6.000000000000000000e+00
5.575602531433104581e+00 5.879568099975585938e+00 -4.246539473533629816e-01 1.000000000000000000e+00
9.214287757873535156e+00 9.709833145141601562e+00 -2.336528152227402011e-01 2.000000000000000000e+00
1.539507865905761941e+00 1.617772936820984109e+00 -5.983896255493164062e-01 1.700000000000000000e+01
1.773933887481689009e+00 1.862814068794250044e+00 -5.938707590103149414e-01 1.600000000000000000e+01
2.039345026016234907e+00 2.140774965286254883e+00 -5.747166872024536133e-01 1.200000000000000000e+01
2.426152706146239790e+00 2.545041799545288086e+00 -5.569067001342773438e-01 9.000000000000000000e+00
3.002135515213013139e+00 3.147048950195312944e+00 -5.340314507484436035e-01 1.000000000000000000e+01
3.900920391082764116e+00 4.087789535522460938e+00 -4.943473637104033869e-01 6.000000000000000000e+00
5.623679637908936435e+00 5.888958454132080078e+00 -4.267473816871643066e-01 1.000000000000000000e+00
9.259177207946777344e+00 9.689175605773925781e+00 -2.339320629835129062e-01 2.000000000000000000e+00
1.548873305320739968e+00 1.616843938827515093e+00 -5.999425649642944336e-01 1.900000000000000000e+01
1.773358583450316939e+00 1.849887490272521973e+00 -5.916212797164916992e-01 1.600000000000000000e+01
2.051868200302124023e+00 2.139668464660644975e+00 -5.762431621551513672e-01 1.200000000000000000e+01
2.434579133987427202e+00 2.536982297897338867e+00 -5.569067001342773438e-01 9.000000000000000000e+00
3.024929523468018022e+00 3.149962425231934038e+00 -5.362251400947570801e-01 1.000000000000000000e+01
3.915834903717041016e+00 4.076268196105957031e+00 -4.945216774940490723e-01 9.000000000000000000e+00
5.629335403442382812e+00 5.855878829956054688e+00 -4.257006645202637274e-01 1.000000000000000000e+00
9.282938957214355469e+00 9.649770736694335938e+00 -2.337226271629332941e-01 2.000000000000000000e+00
1.554507732391356978e+00 1.611427545547484907e+00 -5.999425649642944336e-01 1.900000000000000000e+01
1.777098178863524947e+00 1.840881943702697976e+00 -5.907214879989624023e-01 1.500000000000000000e+01
2.053869247436522993e+00 2.126843929290771040e+00 -5.747166872024536133e-01 1.100000000000000000e+01
