1.235163974761963068e+01 6.397013187408447266e+00 -2.427978813648223877e-01 2.000000000000000000e+00
3.364831161499022727e+01 1.742673110961914062e+01 1.015347099304199041e+01 8.000000000000000000e+00
2.013661623001099077e+00 1.039328336715698020e+00 -6.071894764900207520e-01 1.800000000000000000e+01
2.310482501983643022e+00 1.191507816314697044e+00 -6.001694202423095703e-01 1.200000000000000000e+01
2.668185949325561968e+00 1.375384688377379927e+00 -5.834938883781433105e-01 1.300000000000000000e+01
3.197937726974486861e+00 1.647046208381653054e+00 -5.697343349456787109e-01 1.000000000000000000e+01
3.973236083984375000e+00 2.044596672058105025e+00 -5.486558079719543457e-01 1.100000000000000000e+01
5.210704326629638672e+00 2.680238008499145952e+00 -5.126500725746154785e-01 1.100000000000000000e+01
7.473293304443359375e+00 3.840751171112060991e+00 -4.403547346591948908e-01 2.000000000000000000e+00
3.402311325073242188e+01 1.747799873352051137e+01 8.830678939819335938e+00 1.200000000000000000e+01
1.235966396331786932e+01 6.346551418304443359e+00 -2.425186336040497104e-01 2.000000000000000000e+00
3.899862670898438211e+01 2.001676559448241832e+01 1.174572563171387074e+01 1.200000000000000000e+01
2.018997192382812944e+00 1.033173084259032981e+00 -6.077071428298950195e-01 1.600000000000000000e+01
2.314627647399901900e+00 1.183435440063477007e+00 -6.001694202423095703e-01 1.300000000000000000e+01
2.667726039886475053e+00 1.363382220268249956e+00 -5.823490619659423828e-01 1.100000000000000000e+01
3.207185983657836914e+00 1.637669920921325906e+00 -5.703600645065307617e-01 1.000000000000000000e+01
3.983885526657104048e+00 2.032519340515137163e+00 -5.491432547569274902e-01 1.100000000000000000e+01
5.223577976226806641e+00 2.663843154907227007e+00 -5.129987001419067383e-01 1.900000000000000000e+01
7.465299606323242188e+00 3.803760290145874023e+00 -4.390986859798430841e-01 1.000000000000000000e+00
3.405265808105468750e+01 1.734321022033691051e+01 8.822580337524414062e+00 1.200000000000000000e+01
1.242094707489014027e+01 6.323328495025634766e+00 -2.432865500450134000e-01 2.000000000000000000e+00
3.884098434448242188e+01 1.977339363098144887e+01 1.167843341827392933e+01 1.100000000000000000e+01
2.032928228378295898e+00 1.031363368034363015e+00 -6.108129620552062988e-01 1.600000000000000000e+01
2.315268039703369141e+00 1.173586606979369895e+00 -5.992696285247802734e-01 1.400000000000000000e+01
2.686479330062866211e+00 1.361160516738892046e+00 -5.854020118713378906e-01 1.200000000000000000e+01
3.212882995605469194e+00 1.626464724540710005e+00 -5.703600645065307617e-01 1.000000000000000000e+01
3.990956068038939986e+00 2.018600463867187944e+00 -5.491432547569274902e-01 1.100000000000000000e+01
3.396016311645507812e+01 1.716939353942871094e+01 6.027107238769531250e+00 1.300000000000000000e+01
5.239956855773925781e+00 2.649188995361328125e+00 -5.136959552764892578e-01 1.600000000000000000e+01
7.496359348297119141e+00 3.786683559417725053e+00 -4.401454031467437744e-01 1.000000000000000000e+00
3.420692825317382812e+01 1.727166938781737926e+01 8.846875190734863281e+00 1.200000000000000000e+01
1.244294452667235973e+01 6.279932498931884766e+00 -2.432865500450134000e-01 2.000000000000000000e+00
3.853718948364257812e+01 1.944121551513671875e+01 1.156558799743651988e+01 1.100000000000000000e+01
2.041693449020386186e+00 1.026864886283874956e+00 -6.123658418655395508e-01 1.800000000000000000e+01
2.319350719451903853e+00 1.165497660636902078e+00 -5.992696285247802734e-01 1.400000000000000000e+01
2.687705516815185991e+00 1.350012183189392090e+00 -5.846387743949890137e-01 1.100000000000000000e+01
3.218540906906127930e+00 1.615239858627318892e+00 -5.703600645065307617e-01 1.000000000000000000e+01
3.800141906738281250e+01 1.906288719177246094e+01 5.220151424407958984e+00 3.000000000000000000e+01
3.992654323577880859e+00 2.001987934112548828e+00 -5.484120249748229980e-01 1.400000000000000000e+01
5.242047786712645596e+00 2.627310991287231001e+00 -5.129987001419067383e-01 1.600000000000000000e+01
7.520246505737304688e+00 3.765858888626099077e+00 -4.407734274864196777e-01 1.000000000000000000e+00
1.246478939056395951e+01 6.236460208892822266e+00 -2.432865500450134000e-01 2.000000000000000000e+00
3.871892929077147727e+01 1.937209320068359020e+01 1.160078716278075994e+01 1.100000000000000000e+01
2.040078878402709961e+00 1.017145872116089089e+00 -6.108129620552062988e-01 1.900000000000000000e+01
2.332126379013061968e+00 1.161738991737365945e+00 -6.015191078186035156e-01 1.500000000000000000e+01
2.692401409149169922e+00 1.340622186660767046e+00 -5.846387743949890137e-01 1.200000000000000000e+01
3.231234073638916016e+00 1.607514619827270952e+00 -5.716115236282348633e-01 1.100000000000000000e+01
3.997840642929077148e+00 1.987155079841613992e+00 -5.481683015823364258e-01 1.000000000000000000e+01
5.254755496978759766e+00 2.610769987106322798e+00 -5.133473277091979980e-01 1.100000000000000000e+01
7.533346176147460938e+00 3.739585399627685991e+00 -4.407734274864196777e-01 1.000000000000000000e+00
3.257053756713867188e+01 1.616106986999512074e+01 8.394273757934570312e+00 1.100000000000000000e+01
1.245423603057860973e+01 6.176918983459472656e+00 -2.426582574844360074e-01 2.000000000000000000e+00
3.541801071166992188e+01 1.755854415893555043e+01 1.059242820739745916e+01 9.000000000000000000e+00
2.034957647323607954e+00 1.005738735198975053e+00 -6.082247495651245117e-01 1.800000000000000000e+01
2.346651315689086914e+00 1.158768296241760032e+00 -6.042185425758361816e-01 1.500000000000000000e+01
3.800815200805664062e+01 1.876004219055176137e+01 2.221347332000731978e+00 2.800000000000000000e+01
2.704106569290161133e+00 1.334691524505615012e+00 -5.861652493476867676e-01 1.300000000000000000e+01
3.233282327651977983e+00 1.594478368759155051e+00 -5.709857940673828125e-01 1.100000000000000000e+01
4.008314132690429688e+00 1.974942684173583984e+00 -5.486558079719543457e-01 1.100000000000000000e+01
3.413515853881835938e+01 1.681878662109375000e+01 6.027107238769531250e+00 1.300000000000000000e+01
5.254899978637695312e+00 2.588010072708129883e+00 -5.124757885932922363e-01 9.000000000000000000e+00
7.549937725067138672e+00 3.715029954910277876e+00 -4.409827589988707941e-01 2.000000000000000000e+00
3.228750991821289062e+01 1.588042449951172053e+01 8.306992530822753906e+00 1.000000000000000000e+01
1.250802421569824041e+01 6.149288654327392578e+00 -2.432865500450134000e-01 2.000000000000000000e+00
3.752696990966796875e+01 1.844929122924805043e+01 1.120479393005370916e+01 1.000000000000000000e+01
2.041925668716431108e+00 1.000329017639159934e+00 -6.092600226402282715e-01 1.700000000000000000e+01
2.336679220199584961e+00 1.143716096878051980e+00 -6.006193161010742188e-01 1.600000000000000000e+01
2.698168039321898970e+00 1.320067524909972922e+00 -5.838755369186401367e-01 1.200000000000000000e+01
3.237053632736206055e+00 1.582314848899841087e+00 -5.706729292869567871e-01 1.100000000000000000e+01
4.015183448791503906e+00 1.960939049720763938e+00 -5.486558079719543457e-01 1.100000000000000000e+01
3.419366073608397727e+01 1.669953155517578125e+01 6.027107238769531250e+00 1.300000000000000000e+01
5.265692234039306641e+00 2.570525407791138139e+00 -5.126500725746154785e-01 9.000000000000000000e+00
7.562860012054443359e+00 3.688653230667113814e+00 -4.409827589988707941e-01 2.000000000000000000e+00
3.237777709960938211e+01 1.578470230102539062e+01 8.315990447998046875e+00 1.000000000000000000e+01
1.252941322326659979e+01 6.105589866638183594e+00 -2.432865500450134000e-01 2.000000000000000000e+00
3.574336624145507812e+01 1.741776275634765980e+01 1.065402698516846058e+01 9.000000000000000000e+00
2.054094076156616211e+00 9.974144697189331055e-01 -6.118482351303100586e-01 1.600000000000000000e+01
2.337150812149047852e+00 1.133851408958435059e+00 -5.997195243835449219e-01 1.600000000000000000e+01
2.713358640670775923e+00 1.315780878067017046e+00 -5.861652493476867676e-01 1.200000000000000000e+01
3.242557287216186968e+00 1.571005821228026900e+00 -5.706729292869567871e-01 1.100000000000000000e+01
3.862119674682617188e+01 1.870349121093750000e+01 5.268898963928222656e+00 3.100000000000000000e+01
4.032724857330322266e+00 1.952100872993469016e+00 -5.501182079315185547e-01 1.100000000000000000e+01
3.425463867187500000e+01 1.657409286499023082e+01 6.027107238769531250e+00 1.300000000000000000e+01
5.285393714904785156e+00 2.557335615158081055e+00 -5.136959552764892578e-01 9.000000000000000000e+00
7.557707786560058594e+00 3.653538703918457031e+00 -4.399360418319702148e-01 2.000000000000000000e+00
1.252543926239014027e+01 6.049641132354736328e+00 -2.427978813648223877e-01 2.000000000000000000e+00
3.603009033203125000e+01 1.740211296081542969e+01 1.072132015228270951e+01 9.000000000000000000e+00
2.057563066482543945e+00 9.902382493019104004e-01 -6.118482351303100586e-01 1.400000000000000000e+01
2.344606876373291016e+00 1.127375245094299094e+00 -6.006193161010742188e-01 1.500000000000000000e+01
2.709087610244750977e+00 1.302049160003662109e+00 -5.842571258544921875e-01 1.200000000000000000e+01
3.255144119262694868e+00 1.563097953796386941e+00 -5.719243884086608887e-01 1.100000000000000000e+01
3.862898254394531250e+01 1.854107666015625000e+01 5.261099338531494141e+00 3.100000000000000000e+01
4.041304111480712891e+00 1.938870787620543990e+00 -5.503619313240051270e-01 8.000000000000000000e+00
5.296084880828857422e+00 2.539732217788695845e+00 -5.138702392578125000e-01 9.000000000000000000e+00
7.602836608886718750e+00 3.642668962478638139e+00 -4.418201446533203125e-01 1.000000000000000000e+00
3.208294296264647727e+01 1.536468601226806996e+01 8.212512969970703125e+00 1.000000000000000000e+01
1.253565788269042969e+01 6.000701904296875000e+00 -2.425884455442428866e-01 2.000000000000000000e+00
3.501842117309570312e+01 1.675547790527344105e+01 1.040193748474120916e+01 1.700000000000000000e+01
2.050545215606689009e+00 9.780598878860473633e-01 -6.087424159049987793e-01 1.500000000000000000e+01
2.353805541992187944e+00 1.121699213981627974e+00 -6.019690036773681641e-01 1.600000000000000000e+01
2.711843729019165039e+00 1.291740536689758079e+00 -5.838755369186401367e-01 1.200000000000000000e+01
3.264147996902465820e+00 1.553423523902893066e+00 -5.725501179695129395e-01 9.000000000000000000e+00
4.049839973449707031e+00 1.925604701042175071e+00 -5.506057143211364746e-01 6.000000000000000000e+00
3.459074401855468750e+01 1.643969154357910156e+01 6.065902709960938388e+00 1.400000000000000000e+01
5.306717395782470703e+00 2.522085189819335938e+00 -5.140445828437805176e-01 9.000000000000000000e+00
7.611896991729736328e+00 3.614394426345825195e+00 -4.416108131408690851e-01 2.000000000000000000e+00
3.203778839111328125e+01 1.520580959320068004e+01 8.187318801879882812e+00 1.000000000000000000e+01
1.259266185760498047e+01 5.974049568176270419e+00 -2.432865500450134000e-01 2.000000000000000000e+00
3.492193984985352273e+01 1.656722068786621094e+01 1.035690307617188033e+01 8.000000000000000000e+00
2.053946733474731001e+00 9.708961844444274902e-01 -6.087424159049987793e-01 1.600000000000000000e+01
2.366517066955565962e+00 1.117637038230895996e+00 -6.042185425758361816e-01 1.500000000000000000e+01
2.719886779785155806e+00 1.283942699432373047e+00 -5.846387743949890137e-01 1.200000000000000000e+01
3.264190673828125000e+00 1.539492249488831010e+00 -5.716115236282348633e-01 1.000000000000000000e+01
4.060128211975097656e+00 1.913148641586303933e+00 -5.510931611061096191e-01 1.000000000000000000e+01
5.302871227264404297e+00 2.497603178024291992e+00 -5.128244161605834961e-01 9.000000000000000000e+00
7.656996250152587891e+00 3.603109121322631836e+00 -4.434948861598969061e-01 2.000000000000000000e+00
1.258810329437256037e+01 5.918145656585693359e+00 -2.427978813648223877e-01 2.000000000000000000e+00
3.484669113159179688e+01 1.638275337219237926e+01 1.031756210327148082e+01 8.000000000000000000e+00
2.056986808776855025e+00 9.644387364387512207e-01 -6.087424159049987793e-01 1.500000000000000000e+01
2.364722490310668945e+00 1.107716917991637962e+00 -6.028688549995422363e-01 1.300000000000000000e+01
2.736353158950806108e+00 1.281219124794005904e+00 -5.873100757598876953e-01 1.200000000000000000e+01
3.267221689224243164e+00 1.528392910957335982e+00 -5.712986588478088379e-01 1.200000000000000000e+01
4.069715499877929688e+00 1.902064919471740945e+00 -5.515806674957275391e-01 1.100000000000000000e+01
3.483219146728516336e+01 1.627953910827637074e+01 6.089680671691895419e+00 1.400000000000000000e+01
5.321522712707520419e+00 2.485991001129149947e+00 -5.138702392578125000e-01 9.000000000000000000e+00
3.351406097412108664e+01 1.564923286437987926e+01 7.189682960510253906e+00 6.100000000000000000e+01
7.632081508636474609e+00 3.562141895294189009e+00 -4.414014518260955811e-01 2.000000000000000000e+00
3.214499664306641336e+01 1.499628925323485973e+01 8.189118385314941406e+00 1.000000000000000000e+01
1.259757232666015980e+01 5.874344348907470703e+00 -2.426233589649199884e-01 7.000000000000000000e+00
3.492950057983397727e+01 1.628789329528808949e+01 1.032687950134276988e+01 8.000000000000000000e+00
2.070852756500244141e+00 9.621365666389465332e-01 -6.118482351303100586e-01 1.600000000000000000e+01
2.357969045639038086e+00 1.094532847404479980e+00 -6.001694202423095703e-01 1.200000000000000000e+01
2.746151447296143022e+00 1.274138569831847922e+00 -5.884549617767333984e-01 1.200000000000000000e+01
3.277913331985474077e+00 1.519471168518065962e+00 -5.722372531890869141e-01 1.000000000000000000e+01
4.076330184936523438e+00 1.887847423553467019e+00 -5.515806674957275391e-01 1.100000000000000000e+01
5.344632148742675781e+00 2.474096298217772993e+00 -5.152647495269775391e-01 9.000000000000000000e+00
7.655345916748046875e+00 3.540509700775146040e+00 -4.420294761657714844e-01 1.000000000000000000e+00
3.216884613037108664e+01 1.487090778350830078e+01 8.181920051574707031e+00 2.100000000000000000e+01
1.268516540527343928e+01 5.861369609832763672e+00 -2.439148277044295987e-01 5.000000000000000000e+00
3.494336700439453125e+01 1.613870048522948863e+01 1.031342124938965021e+01 8.000000000000000000e+00
2.076120138168334961e+00 9.553476572036743164e-01 -6.123658418655395508e-01 1.600000000000000000e+01
2.372588396072388139e+00 1.090767145156859907e+00 -6.028688549995422363e-01 1.300000000000000000e+01
2.743667364120482954e+00 1.260785818099976030e+00 -5.869284868240356445e-01 1.100000000000000000e+01
3.281665325164794922e+00 1.506622552871704102e+00 -5.719243884086608887e-01 1.100000000000000000e+01
4.076004505157470703e+00 1.869583845138550027e+00 -5.506057143211364746e-01 1.100000000000000000e+01
5.357286453247070312e+00 2.456151247024536133e+00 -5.156133770942687988e-01 9.000000000000000000e+00
3.344670867919921875e+01 1.532722377777099965e+01 7.151521205902099609e+00 6.100000000000000000e+01
7.693692684173583984e+00 3.524071931838988814e+00 -4.434948861598969061e-01 2.000000000000000000e+00
3.236133956909179688e+01 1.481617832183838068e+01 8.217012405395507812e+00 1.000000000000000000e+01
1.270656394958495916e+01 5.814836502075195312e+00 -2.439148277044295987e-01 5.000000000000000000e+00
3.509785842895507812e+01 1.606164550781250000e+01 1.034240913391112926e+01 8.000000000000000000e+00
2.084715604782104048e+00 9.504991173744201660e-01 -6.139187812805175781e-01 1.600000000000000000e+01
2.372834682464600053e+00 1.080862998962401900e+00 -6.019690036773681641e-01 1.200000000000000000e+01
2.748051404953002930e+00 1.251200914382935014e+00 -5.869284868240356445e-01 1.100000000000000000e+01
3.292298555374145952e+00 1.497611999511718972e+00 -5.728629827499389648e-01 1.100000000000000000e+01
3.743716812133789062e+01 1.702166175842285156e+01 5.049534320831298828e+00 2.500000000000000000e+01
4.098770618438720703e+00 1.862736344337462935e+00 -5.527993440628051758e-01 1.300000000000000000e+01
5.351315498352050781e+00 2.430843591690063032e+00 -5.142188668251037598e-01 9.000000000000000000e+00
7.702309608459472656e+00 3.495543718338013139e+00 -4.432855546474456787e-01 2.000000000000000000e+00
1.274863815307617010e+01 5.780356407165527344e+00 -2.443336844444274902e-01 2.000000000000000000e+00
2.073936223983765093e+00 9.368539452552795410e-01 -6.097776889801025391e-01 1.600000000000000000e+01
2.394355535507202148e+00 1.080589890480041948e+00 -6.064680218696594238e-01 1.200000000000000000e+01
3.852015304565429688e+01 1.737633132934569957e+01 2.214648246765137163e+00 2.800000000000000000e+01
2.750612735748291016e+00 1.240793585777282937e+00 -5.865468382835388184e-01 1.200000000000000000e+01
3.306510925292969194e+00 1.490168809890747070e+00 -5.744273662567138672e-01 1.100000000000000000e+01
4.108868122100830078e+00 1.850047588348388894e+00 -5.532867908477783203e-01 1.200000000000000000e+01
5.348866939544677734e+00 2.407243251800537109e+00 -5.131729841232299805e-01 9.000000000000000000e+00
7.699891567230224609e+00 3.462083816528319868e+00 -4.424481689929962158e-01 1.000000000000000000e+00
1.280522060394286932e+01 5.752207756042479581e+00 -2.450317889451980868e-01 2.000000000000000000e+00
3.496516418457031250e+01 1.569929981231688920e+01 1.026993942260742010e+01 8.000000000000000000e+00
2.077193975448607954e+00 9.296088814735412598e-01 -6.097776889801025391e-01 1.900000000000000000e+01
2.387438774108887163e+00 1.067452907562256081e+00 -6.037686467170715332e-01 1.100000000000000000e+01
2.760304212570189986e+00 1.233587622642517090e+00 -5.876917243003845215e-01 1.300000000000000000e+01
3.291851043701171875e+00 1.469758987426758035e+00 -5.709857940673828125e-01 1.000000000000000000e+01
3.465828704833983664e+01 1.546711826324463068e+01 4.660039901733398438e+00 2.000000000000000000e+01
4.124365329742431641e+00 1.839737057685852051e+00 -5.545055270195007324e-01 1.200000000000000000e+01
5.369975090026854581e+00 2.394236803054810014e+00 -5.143932104110717773e-01 9.000000000000000000e+00
7.741120815277099609e+00 3.448188066482543945e+00 -4.441229104995728094e-01 2.000000000000000000e+00
1.285445213317870916e+01 5.720482826232910156e+00 -2.455902695655823031e-01 2.000000000000000000e+00
3.460671615600585938e+01 1.539343070983887074e+01 1.014881229400634943e+01 8.000000000000000000e+00
2.097762107849121094e+00 9.309145808219909668e-01 -6.149540543556213379e-01 1.900000000000000000e+01
2.380091428756713867e+00 1.055208325386046919e+00 -6.010692119598388672e-01 1.400000000000000000e+01
2.764166116714477983e+00 1.224909782409667969e+00 -5.876917243003845215e-01 1.300000000000000000e+01
3.303677320480347124e+00 1.462608814239501953e+00 -5.722372531890869141e-01 1.000000000000000000e+01
3.461594390869141336e+01 1.531799507141112926e+01 4.647852897644042969e+00 1.900000000000000000e+01
4.126493930816650391e+00 1.825164914131164995e+00 -5.540180206298828125e-01 1.300000000000000000e+01
5.393870830535888672e+00 2.384605169296265093e+00 -5.159620046615600586e-01 9.000000000000000000e+00
7.748261451721191406e+00 3.422237634658813032e+00 -4.439135789871215820e-01 2.000000000000000000e+00
1.284308815002441051e+01 5.667154788970947266e+00 -2.450317889451980868e-01 2.000000000000000000e+00
3.528769302368164062e+01 1.556372737884520951e+01 1.033412647247313920e+01 8.000000000000000000e+00
2.106304407119750977e+00 9.259186387062072754e-01 -6.165069937705993652e-01 1.700000000000000000e+01
2.383760213851929155e+00 1.046893835067749023e+00 -6.010692119598388672e-01 1.400000000000000000e+01
2.770222663879394975e+00 1.216042757034301980e+00 -5.880733132362365723e-01 1.300000000000000000e+01
3.305144548416138139e+00 1.449481248855591042e+00 -5.716115236282348633e-01 1.000000000000000000e+01
4.138294696807861328e+00 1.813139557838439941e+00 -5.547492504119873047e-01 1.300000000000000000e+01
5.405811786651611328e+00 2.367361068725585938e+00 -5.163106322288513184e-01 9.000000000000000000e+00
7.778458118438720703e+00 3.403176069259643999e+00 -4.449602961540222168e-01 1.000000000000000000e+00
1.295440769195556996e+01 5.662333965301513672e+00 -2.467770278453826904e-01 2.000000000000000000e+00
3.529932022094727273e+01 1.542189407348632990e+01 1.032170391082764027e+01 8.000000000000000000e+00
2.099215030670166016e+00 9.132003784179687500e-01 -6.134011149406433105e-01 1.800000000000000000e+01
2.393124103546143022e+00 1.040063381195067915e+00 -6.024188995361328125e-01 1.500000000000000000e+01
2.769469499588013139e+00 1.203050255775452104e+00 -5.869284868240356445e-01 1.400000000000000000e+01
3.334242820739746094e+00 1.447003126144408958e+00 -5.756788253784179688e-01 1.000000000000000000e+01
4.150690078735351562e+00 1.799605250358581987e+00 -5.554804801940917969e-01 1.300000000000000000e+01
3.622732162475585938e+01 1.570699882507324041e+01 6.253937244415283203e+00 1.400000000000000000e+01
5.409377574920654297e+00 2.344210147857666016e+00 -5.157876610755920410e-01 9.000000000000000000e+00
7.787802219390869141e+00 3.371696710586547852e+00 -4.447509646415709894e-01 2.000000000000000000e+00
3.395222473144531250e+01 1.469244003295898082e+01 8.540941238403320312e+00 1.100000000000000000e+01
1.298706626892090021e+01 5.617314338684082031e+00 -2.469864487648009976e-01 2.000000000000000000e+00
3.696558380126953125e+01 1.598877620697020951e+01 1.079171848297118963e+01 9.000000000000000000e+00
2.098841667175292969e+00 9.043383002281188965e-01 -6.123658418655395508e-01 1.800000000000000000e+01
2.414639711380004883e+00 1.039408564567565918e+00 -6.069179177284240723e-01 1.500000000000000000e+01
2.786275863647460938e+00 1.198807120323180930e+00 -5.895997881889343262e-01 1.400000000000000000e+01
3.335644006729125977e+00 1.433795452117919922e+00 -5.750530958175659180e-01 9.000000000000000000e+00
3.642116546630858664e+01 1.564776802062987926e+01 4.867218017578125000e+00 2.100000000000000000e+01
4.158770561218261719e+00 1.785889029502869096e+00 -5.557242035865783691e-01 1.500000000000000000e+01
3.641624832153320312e+01 1.563812637329101918e+01 6.277089118957520419e+00 1.400000000000000000e+01
5.424850940704345703e+00 2.328457117080688032e+00 -5.164849162101745605e-01 8.000000000000000000e+00
7.810537815093994141e+00 3.349214553833007812e+00 -4.453789889812468927e-01 1.000000000000000000e+00
1.305070972442626953e+01 5.590845584869384766e+00 -2.478241771459578913e-01 2.000000000000000000e+00
3.508110046386718750e+01 1.502128696441650035e+01 1.022542285919188920e+01 8.000000000000000000e+00
2.098119258880614790e+00 8.962224125862121582e-01 -6.113305687904357910e-01 1.600000000000000000e+01
2.410723686218262163e+00 1.028758168220520020e+00 -6.051183342933654785e-01 1.600000000000000000e+01
3.721641540527343750e+01 1.587414550781250000e+01 2.120443582534790039e+00 2.400000000000000000e+01
2.800863265991210938e+00 1.194669485092163086e+00 -5.918895006179809570e-01 1.500000000000000000e+01
3.325593709945679155e+00 1.417114138603210005e+00 -5.725501179695129395e-01 1.000000000000000000e+01
4.173492908477783203e+00 1.776702761650085005e+00 -5.569428801536560059e-01 1.200000000000000000e+01
5.437639236450195312e+00 2.313743114471435991e+00 -5.170078873634338379e-01 9.000000000000000000e+00
7.832049369812011719e+00 3.329348564147949219e+00 -4.460070133209229071e-01 1.000000000000000000e+00
1.310502147674561080e+01 5.565451145172119141e+00 -2.485222667455672940e-01 2.000000000000000000e+00
3.523220443725585938e+01 1.496244144439697088e+01 1.025648117065430043e+01 8.000000000000000000e+00
2.104793310165404829e+00 8.903985023498535156e-01 -6.123658418655395508e-01 1.600000000000000000e+01
2.405324935913085938e+00 1.016543745994568093e+00 -6.028688549995422363e-01 1.400000000000000000e+01
3.709129333496093750e+01 1.566797542572020951e+01 2.110185861587523970e+00 2.300000000000000000e+01
2.810441970825194868e+00 1.187177181243896040e+00 -5.930343866348266602e-01 1.400000000000000000e+01
3.341439962387084961e+00 1.410105228424072044e+00 -5.744273662567138672e-01 1.100000000000000000e+01
4.177840232849121094e+00 1.761352658271789995e+00 -5.566991567611694336e-01 1.200000000000000000e+01
5.427321910858154297e+00 2.287011384963988814e+00 -5.152647495269775391e-01 9.000000000000000000e+00
7.836260318756104404e+00 3.298889636993408203e+00 -4.455883204936981201e-01 2.000000000000000000e+00
1.318704128265381037e+01 5.546030044555664062e+00 -2.497090250253677091e-01 2.000000000000000000e+00
3.523338317871093750e+01 1.481075000762938920e+01 1.024095153808593928e+01 8.000000000000000000e+00
2.118579387664794922e+00 8.875246047973632812e-01 -6.154716610908508301e-01 1.600000000000000000e+01
2.412453889846802202e+00 1.009646177291869895e+00 -6.037686467170715332e-01 1.400000000000000000e+01
2.807324171066284180e+00 1.174329161643981934e+00 -5.915079116821289062e-01 1.300000000000000000e+01
3.339051246643065962e+00 1.395386099815369096e+00 -5.731759071350097656e-01 1.100000000000000000e+01
4.187626361846923828e+00 1.748288035392761008e+00 -5.571866631507873535e-01 1.200000000000000000e+01
5.470208168029785156e+00 2.282630681991577148e+00 -5.185766816139221191e-01 9.000000000000000000e+00
7.840353965759277344e+00 3.268441915512084961e+00 -4.451696574687957764e-01 2.000000000000000000e+00
3.314174270629882812e+01 1.380915069580077947e+01 8.288996696472167969e+00 1.000000000000000000e+01
1.323585605621338068e+01 5.512265682220458984e+00 -2.502675056457520086e-01 2.000000000000000000e+00
3.748655319213867188e+01 1.561182308197020951e+01 1.088075256347656072e+01 1.000000000000000000e+01
2.109173536300659180e+00 8.749424219131469727e-01 -6.118482351303100586e-01 1.600000000000000000e+01
2.417763948440552202e+00 1.001965045928955078e+00 -6.042185425758361816e-01 1.600000000000000000e+01
2.795082092285155806e+00 1.157760858535767046e+00 -5.880733132362365723e-01 1.300000000000000000e+01
3.360329151153564009e+00 1.390519857406615989e+00 -5.759916901588439941e-01 1.100000000000000000e+01
3.642168807983397727e+01 1.506401920318604049e+01 4.839431762695313388e+00 2.000000000000000000e+01
4.193703651428222656e+00 1.733659863471985085e+00 -5.571866631507873535e-01 1.100000000000000000e+01
3.548918151855468750e+01 1.466382980346680043e+01 6.081859111785888672e+00 1.400000000000000000e+01
5.472618579864501953e+00 2.261239528656005859e+00 -5.180537104606628418e-01 9.000000000000000000e+00
7.870176792144775391e+00 3.248674631118773970e+00 -4.462163746356964111e-01 2.000000000000000000e+00
3.307805252075195312e+01 1.364729976654052912e+01 8.261102676391601562e+00 1.000000000000000000e+01
1.327720165252686080e+01 5.475178718566895419e+00 -2.506863772869110107e-01 2.000000000000000000e+00
3.758281707763671875e+01 1.549051952362061080e+01 1.089214038848876953e+01 1.000000000000000000e+01
2.106853961944580078e+00 8.653727769851684570e-01 -6.102952957153320312e-01 1.600000000000000000e+01
2.433866739273070845e+00 9.986977577209472656e-01 -6.073678731918334961e-01 1.700000000000000000e+01
2.813637733459473100e+00 1.153956890106200950e+00 -5.911262631416320801e-01 1.400000000000000000e+01
3.356023073196411133e+00 1.375037074089050071e+00 -5.744273662567138672e-01 1.100000000000000000e+01
4.197892665863037109e+00 1.718258500099181907e+00 -5.569428801536560059e-01 1.100000000000000000e+01
5.480478286743164062e+00 2.242122888565063032e+00 -5.180537104606628418e-01 9.000000000000000000e+00
7.862980365753173828e+00 3.213626623153686968e+00 -4.451696574687957764e-01 1.000000000000000000e+00
3.337083816528320312e+01 1.363197708129882990e+01 8.322289466857910156e+00 1.000000000000000000e+01
1.329623222351074041e+01 5.428799152374267578e+00 -2.506863772869110107e-01 2.000000000000000000e+00
3.762324905395507812e+01 1.536142349243164062e+01 1.088903522491455078e+01 1.000000000000000000e+01
2.115230560302733931e+00 8.601964116096496582e-01 -6.118482351303100586e-01 1.500000000000000000e+01
2.424700021743773970e+00 9.850615262985229492e-01 -6.042185425758361816e-01 1.600000000000000000e+01
2.817648649215697798e+00 1.144128441810607910e+00 -5.911262631416320801e-01 1.300000000000000000e+01
3.353480339050292969e+00 1.360343694686890093e+00 -5.731759071350097656e-01 1.100000000000000000e+01
4.222262382507324219e+00 1.711050271987915039e+00 -5.593802928924560547e-01 1.100000000000000000e+01
5.473497867584229404e+00 2.216995000839232954e+00 -5.166592597961425781e-01 9.000000000000000000e+00
7.892664909362792969e+00 3.193651676177978960e+00 -4.462163746356964111e-01 1.000000000000000000e+00
1.334847259521484020e+01 5.395843029022216797e+00 -2.513146400451660156e-01 2.000000000000000000e+00
3.768288040161132812e+01 1.522487163543700994e+01 1.089006996154784979e+01 1.000000000000000000e+01
2.119863271713256836e+00 8.538991808891296387e-01 -6.123658418655395508e-01 1.700000000000000000e+01
2.424337387084960938e+00 9.755605459213256836e-01 -6.033187508583068848e-01 1.600000000000000000e+01
2.839641809463500977e+00 1.142104387283324973e+00 -5.949424505233764648e-01 1.300000000000000000e+01
3.363471746444702148e+00 1.351425170898437944e+00 -5.741145014762878418e-01 1.000000000000000000e+01
4.227913379669188565e+00 1.697039365768433061e+00 -5.593802928924560547e-01 1.100000000000000000e+01
5.501160144805908203e+00 2.206992387771606001e+00 -5.185766816139221191e-01 8.000000000000000000e+00
7.903211593627929688e+00 3.167461156845093218e+00 -4.462163746356964111e-01 1.000000000000000000e+00
1.341827201843262074e+01 5.372359752655029297e+00 -2.522919774055480957e-01 2.000000000000000000e+00
3.753503799438477273e+01 1.502814483642577947e+01 1.083364772796631037e+01 1.900000000000000000e+01
2.131803274154663086e+00 8.500720262527465820e-01 -6.149540543556213379e-01 1.600000000000000000e+01
2.434969663619995117e+00 9.699767827987670898e-01 -6.051183342933654785e-01 1.500000000000000000e+01
2.832667112350463867e+00 1.127827882766724077e+00 -5.926527380943298340e-01 1.500000000000000000e+01
3.382852792739868164e+00 1.345516800880431907e+00 -5.766174197196960449e-01 1.000000000000000000e+01
4.024516677856445312e+01 1.599922561645507990e+01 5.317646980285645419e+00 3.200000000000000000e+01
4.230121612548828125e+00 1.680804848670959029e+00 -5.588927865028381348e-01 1.100000000000000000e+01
5.521792411804199219e+00 2.192924022674560991e+00 -5.197968482971191406e-01 9.000000000000000000e+00
7.921646118164063388e+00 3.142800569534302202e+00 -4.466350376605988104e-01 1.000000000000000000e+00
3.647307968139647727e+01 1.446280956268311080e+01 9.058328628540039062e+00 1.200000000000000000e+01
1.347784233093262074e+01 5.341698169708251953e+00 -2.530598938465117853e-01 2.000000000000000000e+00
3.764913558959960938e+01 1.491394996643066051e+01 1.085072994232177912e+01 9.000000000000000000e+00
2.136554479598999023e+00 8.433347344398498535e-01 -6.154716610908508301e-01 1.700000000000000000e+01
2.438340663909912109e+00 9.614712595939636230e-01 -6.051183342933654785e-01 1.500000000000000000e+01
2.834760189056396040e+00 1.117213249206542969e+00 -5.922711491584777832e-01 1.700000000000000000e+01
3.402233362197875977e+00 1.339489459991455078e+00 -5.791203975677490234e-01 1.000000000000000000e+01
4.243352413177490234e+00 1.668934941291809082e+00 -5.598677396774291992e-01 1.100000000000000000e+01
5.518288135528563565e+00 2.169262409210205078e+00 -5.187509655952453613e-01 9.000000000000000000e+00
7.951159000396729404e+00 3.122430324554442915e+00 -4.476817548274993896e-01 2.000000000000000000e+00
1.351129817962645951e+01 5.300461292266845703e+00 -2.533391416072844904e-01 2.000000000000000000e+00
3.747538375854492188e+01 1.470153427124023082e+01 1.078654289245604936e+01 9.000000000000000000e+00
2.130488395690917969e+00 8.323565721511840820e-01 -6.128835082054138184e-01 1.600000000000000000e+01
2.450758695602416992e+00 9.564965963363647461e-01 -6.073678731918334961e-01 1.400000000000000000e+01
2.836813688278197798e+00 1.106597900390625000e+00 -5.918895006179809570e-01 1.400000000000000000e+01
3.394004344940185991e+00 1.322584629058837891e+00 -5.769302845001220703e-01 1.200000000000000000e+01
4.249152183532714844e+00 1.654112696647644043e+00 -5.598677396774291992e-01 1.000000000000000000e+01
3.527556991577147727e+01 1.373209571838379084e+01 5.995507240295410156e+00 1.300000000000000000e+01
5.523969650268554688e+00 2.149264335632324219e+00 -5.185766816139221191e-01 8.000000000000000000e+00
7.980625629425048828e+00 3.101892232894897017e+00 -4.487285017967224121e-01 2.000000000000000000e+00
3.571940994262695312e+01 1.387616729736327947e+01 8.846875190734863281e+00 1.200000000000000000e+01
1.355208778381348012e+01 5.261951446533203125e+00 -2.537579834461212158e-01 2.000000000000000000e+00
3.762371826171875000e+01 1.460838985443115057e+01 1.081449508666992010e+01 9.000000000000000000e+00
2.138786315917969194e+00 8.270049095153808594e-01 -6.144363880157470703e-01 1.700000000000000000e+01
2.452264785766602007e+00 9.472337961196899414e-01 -6.069179177284240723e-01 1.300000000000000000e+01
2.855311155319213867e+00 1.102345466613769975e+00 -5.949424505233764648e-01 1.300000000000000000e+01
3.396757364273070845e+00 1.310018420219420943e+00 -5.766174197196960449e-01 1.100000000000000000e+01
4.253047943115234375e+00 1.638556718826293945e+00 -5.596240162849426270e-01 1.100000000000000000e+01
5.533297538757324219e+00 2.130684852600098100e+00 -5.187509655952453613e-01 9.000000000000000000e+00
3.488587188720703125e+01 1.342637252807617010e+01 7.266006469726563388e+00 6.200000000000000000e+01
7.965307235717773438e+00 3.063976764678955078e+00 -4.472630918025969904e-01 2.000000000000000000e+00
3.562211608886718750e+01 1.369545364379882990e+01 8.810882568359375000e+00 1.200000000000000000e+01
1.362637138366699041e+01 5.236132144927979404e+00 -2.548051476478577215e-01 2.000000000000000000e+00
3.724169158935546875e+01 1.431066322326659979e+01 1.069026184082031072e+01 9.000000000000000000e+00
2.130834579467772993e+00 8.153915405273437500e-01 -6.113305687904357910e-01 1.500000000000000000e+01
2.450095415115356001e+00 9.365805983543395996e-01 -6.055682301521301270e-01 1.100000000000000000e+01
2.864643573760985884e+00 1.094473958015441895e+00 -5.960872769355773926e-01 1.400000000000000000e+01
3.403154850006103960e+00 1.298857927322387917e+00 -5.769302845001220703e-01 1.100000000000000000e+01
3.583151245117188211e+01 1.366839504241943004e+01 4.708787918090820312e+00 2.000000000000000000e+01
4.262451171875000000e+00 1.625115156173706055e+00 -5.601115226745605469e-01 1.100000000000000000e+01
5.559319496154785156e+00 2.118451833724976030e+00 -5.204941034317016602e-01 9.000000000000000000e+00
7.972220897674561435e+00 3.034733057022095171e+00 -4.470537304878234863e-01 1.000000000000000000e+00
3.576077270507813211e+01 1.360567378997802912e+01 8.833377838134765625e+00 1.200000000000000000e+01
1.366325664520264027e+01 5.195642948150634766e+00 -2.551541924476624090e-01 2.000000000000000000e+00
3.746364212036132812e+01 1.423858451843262074e+01 1.073892021179199041e+01 9.000000000000000000e+00
2.146172523498535156e+00 8.131120204925537109e-01 -6.149540543556213379e-01 1.400000000000000000e+01
2.460478067398070845e+00 9.312097430229187012e-01 -6.073678731918334961e-01 1.400000000000000000e+01
2.862748384475708008e+00 1.082884550094604048e+00 -5.949424505233764648e-01 1.300000000000000000e+01
3.420378446578979048e+00 1.292453289031981978e+00 -5.791203975677490234e-01 1.000000000000000000e+01
4.260388374328613281e+00 1.608167290687561035e+00 -5.591365694999694824e-01 1.100000000000000000e+01
5.568178176879882812e+00 2.100708007812500000e+00 -5.206683874130249023e-01 9.000000000000000000e+00
8.004667282104492188e+00 3.016731739044189009e+00 -4.483098089694976807e-01 1.000000000000000000e+00
3.553214645385742188e+01 1.338397407531737926e+01 8.765892982482910156e+00 1.100000000000000000e+01
1.367292499542235973e+01 5.147487163543701172e+00 -2.550145685672760010e-01 2.000000000000000000e+00
3.734185409545897727e+01 1.405819892883300959e+01 1.069129753112792969e+01 9.000000000000000000e+00
2.150806665420531782e+00 8.062936663627624512e-01 -6.154716610908508301e-01 1.600000000000000000e+01
2.450938940048218218e+00 9.178314805030822754e-01 -6.042185425758361816e-01 1.200000000000000000e+01
2.859156131744385210e+00 1.070132374763488992e+00 -5.934159755706787109e-01 1.300000000000000000e+01
3.428569555282593218e+00 1.281889677047729048e+00 -5.797461271286010742e-01 1.000000000000000000e+01
4.273414134979248047e+00 1.596064209938049094e+00 -5.601115226745605469e-01 1.100000000000000000e+01
5.558677673339843750e+00 2.074987649917602983e+00 -5.190995931625366211e-01 9.000000000000000000e+00
8.041348457336425781e+00 2.998541355133057085e+00 -4.497752189636229914e-01 2.000000000000000000e+00
3.557864761352539062e+01 1.325986194610596058e+01 8.765892982482910156e+00 1.100000000000000000e+01
1.371704483032226918e+01 5.109500408172607422e+00 -2.555032372474669855e-01 2.000000000000000000e+00
3.731466293334960938e+01 1.389944362640381037e+01 1.066955661773681996e+01 9.000000000000000000e+00
2.150124549865723100e+00 7.970621585845947266e-01 -6.144363880157470703e-01 1.600000000000000000e+01
2.468906164169311968e+00 9.142559766769409180e-01 -6.078177690505981445e-01 1.600000000000000000e+01
2.866741657257080078e+00 1.061008810997009055e+00 -5.941792130470275879e-01 1.300000000000000000e+01
3.425833702087401900e+00 1.266574621200561968e+00 -5.784946680068969727e-01 1.100000000000000000e+01
4.282959938049316406e+00 1.581766009330749956e+00 -5.605989694595336914e-01 1.100000000000000000e+01
5.577460289001464844e+00 2.058739662170410156e+00 -5.201454758644104004e-01 9.000000000000000000e+00
8.052285194396972656e+00 2.969048261642456055e+00 -4.497752189636229914e-01 2.000000000000000000e+00
3.567089462280272727e+01 1.314554309844971058e+01 8.776690483093261719e+00 1.100000000000000000e+01
1.379197406768799006e+01 5.079925060272216797e+00 -2.565503716468811035e-01 2.000000000000000000e+00
3.730009841918945312e+01 1.373854827880859020e+01 1.065092086791992010e+01 9.000000000000000000e+00
2.138383865356444868e+00 7.842306494712829590e-01 -6.102952957153320312e-01 1.500000000000000000e+01
2.472082376480102983e+00 9.056323170661926270e-01 -6.078177690505981445e-01 1.500000000000000000e+01
2.870427846908568892e+00 1.050995469093322976e+00 -5.941792130470275879e-01 1.300000000000000000e+01
3.430233955383300781e+00 1.254608511924744096e+00 -5.784946680068969727e-01 1.000000000000000000e+01
4.301506996154785156e+00 1.571574568748473899e+00 -5.623051524162292480e-01 1.100000000000000000e+01
5.608942508697509766e+00 2.048142433166503906e+00 -5.224115252494812012e-01 9.000000000000000000e+00
8.055094718933105469e+00 2.938184738159180132e+00 -4.493565261363983154e-01 2.000000000000000000e+00
1.379459095001221058e+01 5.026274204254150391e+00 -2.562711238861083984e-01 2.000000000000000000e+00
3.720498275756835938e+01 1.354886054992675959e+01 1.060951042175292969e+01 9.000000000000000000e+00
2.155500173568726030e+00 7.824083566665649414e-01 -6.144363880157470703e-01 1.600000000000000000e+01
2.453087806701660156e+00 8.894583582878112793e-01 -6.024188995361328125e-01 1.500000000000000000e+01
2.883126258850098100e+00 1.044815540313720925e+00 -5.960872769355773926e-01 1.300000000000000000e+01
3.439947843551636186e+00 1.245243787765502930e+00 -5.794332623481750488e-01 9.000000000000000000e+00
4.306694984436035156e+00 1.557301640510559082e+00 -5.623051524162292480e-01 1.100000000000000000e+01
5.602587223052979404e+00 2.024791002273560014e+00 -5.211913585662841797e-01 9.000000000000000000e+00
8.068551063537597656e+00 2.912813186645507812e+00 -4.495658576488494873e-01 1.000000000000000000e+00
1.384128093719482067e+01 4.991355895996093750e+00 -2.568296194076538086e-01 2.000000000000000000e+00
3.690207672119141336e+01 1.330739593505859020e+01 1.051115894317626953e+01 9.000000000000000000e+00
2.176400184631348100e+00 7.814075350761413574e-01 -6.196128129959106445e-01 1.400000000000000000e+01
2.472686529159545898e+00 8.868108987808227539e-01 -6.064680218696594238e-01 1.400000000000000000e+01
2.881211280822753906e+00 1.032757878303528054e+00 -5.949424505233764648e-01 1.200000000000000000e+01
3.455432176589965820e+00 1.237223863601685014e+00 -5.813104510307312012e-01 1.000000000000000000e+01
4.304627895355224609e+00 1.539584994316101074e+00 -5.613301992416381836e-01 1.100000000000000000e+01
5.620877265930175781e+00 2.009245634078979048e+00 -5.222371816635131836e-01 9.000000000000000000e+00
8.056097984313964844e+00 2.876571416854857954e+00 -4.483098089694976807e-01 1.000000000000000000e+00
3.665230560302733664e+01 1.308013916015625000e+01 8.984544754028320312e+00 1.200000000000000000e+01
1.390382289886474965e+01 4.959133148193359375e+00 -2.576673328876494806e-01 2.000000000000000000e+00
2.155448436737060991e+00 7.654018402099609375e-01 -6.128835082054138184e-01 1.300000000000000000e+01
2.473930358886719194e+00 8.775227665901184082e-01 -6.060181260108947754e-01 1.500000000000000000e+01
2.886649131774901900e+00 1.023350238800049050e+00 -5.953240394592285156e-01 1.300000000000000000e+01
3.463454008102416992e+00 1.226473331451416016e+00 -5.819361805915832520e-01 9.000000000000000000e+00
4.315590381622313565e+00 1.526535630226135032e+00 -5.620614290237426758e-01 1.100000000000000000e+01
4.210478591918945312e+01 1.489354896545409979e+01 7.073653697967529297e+00 1.500000000000000000e+01
5.624099731445313388e+00 1.988284826278686968e+00 -5.218886137008666992e-01 9.000000000000000000e+00
8.107522010803222656e+00 2.863064289093018022e+00 -4.506125748157501221e-01 1.000000000000000000e+00
3.669039154052733664e+01 1.294952392578125000e+01 8.982745170593261719e+00 1.200000000000000000e+01
1.391727733612061080e+01 4.909239292144775391e+00 -2.575975060462952215e-01 2.000000000000000000e+00
2.165397882461547852e+00 7.604336142539978027e-01 -6.149540543556213379e-01 1.600000000000000000e+01
2.491689682006835938e+00 8.740422129631042480e-01 -6.096173524856567383e-01 1.500000000000000000e+01
2.890203714370727983e+00 1.013267755508423074e+00 -5.953240394592285156e-01 1.300000000000000000e+01
3.467714071273804155e+00 1.214376211166382058e+00 -5.819361805915832520e-01 9.000000000000000000e+00
4.324640274047851562e+00 1.512772917747498003e+00 -5.625488758087158203e-01 1.100000000000000000e+01
5.634767532348632812e+00 1.969955921173095925e+00 -5.222371816635131836e-01 6.000000000000000000e+00
8.151407241821289062e+00 2.846598863601685014e+00 -4.524966776371002197e-01 2.000000000000000000e+00
3.658449554443358664e+01 1.276871490478515980e+01 8.945853233337402344e+00 1.200000000000000000e+01
1.394565773010254084e+01 4.864580631256104404e+00 -2.578069567680358887e-01 2.000000000000000000e+00
2.167776107788085938e+00 7.536270618438720703e-01 -6.149540543556213379e-01 1.600000000000000000e+01
2.492582321166992188e+00 8.655707240104675293e-01 -6.091674566268920898e-01 1.200000000000000000e+01
2.902646303176879883e+00 1.007401347160338911e+00 -5.972321629524230957e-01 1.300000000000000000e+01
3.460313558578491211e+00 1.199593901634216087e+00 -5.800589919090270996e-01 9.000000000000000000e+00
4.333123207092285156e+00 1.500478386878967063e+00 -5.630363821983337402e-01 1.100000000000000000e+01
5.640928745269775391e+00 1.952244162559509055e+00 -5.222371816635131836e-01 3.000000000000000000e+00
8.111230850219726562e+00 2.804010152816772017e+00 -4.497752189636229914e-01 2.000000000000000000e+00
1.399489498138427912e+01 4.832493782043457031e+00 -2.584352493286132812e-01 2.000000000000000000e+00
2.174047470092772993e+00 7.473115324974060059e-01 -6.159893274307250977e-01 1.500000000000000000e+01
2.473470926284790039e+00 8.492706418037414551e-01 -6.037686467170715332e-01 1.200000000000000000e+01
2.913573026657104048e+00 9.998120665550231934e-01 -5.987586379051208496e-01 1.300000000000000000e+01
3.479429006576538086e+00 1.192631959915160911e+00 -5.825619697570800781e-01 9.000000000000000000e+00
4.340212345123291016e+00 1.485986828804015891e+00 -5.632801055908203125e-01 1.100000000000000000e+01
5.636398315429688388e+00 1.928671479225158913e+00 -5.211913585662841797e-01 6.000000000000000000e+00
8.124749183654785156e+00 2.776971340179442915e+00 -4.499845504760742188e-01 1.000000000000000000e+00
1.400032329559325994e+01 4.779736518859863281e+00 -2.582257986068726141e-01 2.000000000000000000e+00
2.182130098342895952e+00 7.415829896926879883e-01 -6.175422668457031250e-01 1.600000000000000000e+01
2.483801603317261186e+00 8.431370854377746582e-01 -6.055682301521301270e-01 1.400000000000000000e+01
2.905890226364136186e+00 9.858512282371520996e-01 -5.964689254760742188e-01 1.300000000000000000e+01
3.476087331771851030e+00 1.177943229675292969e+00 -5.813104510307312012e-01 9.000000000000000000e+00
4.339732170104979581e+00 1.468918204307555930e+00 -5.625488758087158203e-01 1.100000000000000000e+01
5.665744304656982422e+00 1.916646480560302956e+00 -5.232830643653869629e-01 8.000000000000000000e+00
8.168452262878417969e+00 2.760102272033690962e+00 -4.518686532974243164e-01 1.000000000000000000e+00
3.689650726318358664e+01 1.246007537841797053e+01 8.990843772888183594e+00 1.200000000000000000e+01
1.407376289367675959e+01 4.750021457672119141e+00 -2.592729628086090088e-01 2.000000000000000000e+00
2.181042909622191939e+00 7.327309250831604004e-01 -6.165069937705993652e-01 1.500000000000000000e+01
2.499662160873413086e+00 8.388015627861022949e-01 -6.087175607681274414e-01 1.200000000000000000e+01
2.903729677200316939e+00 9.738290309906005859e-01 -5.953240394592285156e-01 1.200000000000000000e+01
3.495162725448607954e+00 1.170821905136107954e+00 -5.838134288787841797e-01 9.000000000000000000e+00
4.352363109588623047e+00 1.456280350685120073e+00 -5.635238289833068848e-01 1.100000000000000000e+01
5.655394077301025391e+00 1.891170859336853027e+00 -5.217142701148986816e-01 9.000000000000000000e+00
8.189402580261230469e+00 2.735368728637694868e+00 -4.524966776371002197e-01 1.000000000000000000e+00
3.896939468383789062e+01 1.300873184204101918e+01 9.484836578369140625e+00 1.200000000000000000e+01
1.409025859832764027e+01 4.700865745544433594e+00 -2.592729628086090088e-01 2.000000000000000000e+00
2.179920673370360884e+00 7.238955497741699219e-01 -6.154716610908508301e-01 1.600000000000000000e+01
2.504424571990966797e+00 8.306844830513000488e-01 -6.091674566268920898e-01 1.100000000000000000e+01
2.912701845169066939e+00 9.655404686927795410e-01 -5.964689254760742188e-01 1.300000000000000000e+01
3.495477676391602007e+00 1.157372474670409934e+00 -5.831876993179321289e-01 9.000000000000000000e+00
4.353650569915770596e+00 1.439832210540771040e+00 -5.630363821983337402e-01 1.100000000000000000e+01
5.671419620513916016e+00 1.874544739723206010e+00 -5.225858092308044434e-01 9.000000000000000000e+00
8.217866897583007812e+00 2.713027000427246094e+00 -4.535433948040009100e-01 1.000000000000000000e+00
3.901456451416016336e+01 1.287262439727783025e+01 9.484836578369140625e+00 1.200000000000000000e+01
1.410658168792724965e+01 4.651652812957763672e+00 -2.592729628086090088e-01 2.000000000000000000e+00
3.526984786987304688e+01 1.163025093078612926e+01 9.951074600219726562e+00 8.000000000000000000e+00
2.182434082031250000e+00 7.162818312644958496e-01 -6.154716610908508301e-01 1.500000000000000000e+01
2.505457162857056108e+00 8.213303089141845703e-01 -6.087175607681274414e-01 1.200000000000000000e+01
2.917920112609862837e+00 9.559785723686218262e-01 -5.968505144119262695e-01 1.300000000000000000e+01
3.480722427368164062e+00 1.139020442962646040e+00 -5.800589919090270996e-01 9.000000000000000000e+00
4.366197586059570312e+00 1.427093267440795898e+00 -5.640113353729248047e-01 1.100000000000000000e+01
5.674140930175781250e+00 1.853499054908751997e+00 -5.222371816635131836e-01 9.000000000000000000e+00
8.234882354736328125e+00 2.686802864074707031e+00 -4.539620876312255859e-01 2.000000000000000000e+00
3.924453353881835938e+01 1.279677295684813920e+01 9.529826164245605469e+00 1.200000000000000000e+01
1.413794326782226918e+01 4.607340335845947266e+00 -2.595521807670593262e-01 2.000000000000000000e+00
3.671561431884766336e+01 1.195797157287598012e+01 1.034654998779297053e+01 8.000000000000000000e+00
2.183083534240723100e+00 7.080633044242858887e-01 -6.149540543556213379e-01 1.500000000000000000e+01
2.495331525802611861e+00 8.083755970001220703e-01 -6.055682301521301270e-01 1.100000000000000000e+01
