-4.511472702026367188e+00 -4.483214855194091797e+00 -7.809387445449829102e-01 1.700000000000000000e+01
-8.533207774162292480e-01 -8.479759693145751953e-01 1.905371844768523892e-01 4.600000000000000000e+01
-8.706673979759216309e-01 -8.646101355552673340e-01 2.385112494230270108e-01 6.900000000000000000e+01
-8.396316766738891602e-01 -8.332083821296691895e-01 2.730905711650847834e-01 5.900000000000000000e+01
-8.972269892692565918e-01 -8.900523185729980469e-01 -2.205984108150004994e-02 4.600000000000000000e+01
-8.105552792549133301e-01 -8.040737509727478027e-01 3.059241175651549738e-01 6.000000000000000000e+01
-9.421498775482177734e-01 -9.320095777511596680e-01 -3.550997376441956122e-01 2.800000000000000000e+01
-8.815614581108093262e-01 -8.717688918113708496e-01 2.164098434150218964e-02 6.400000000000000000e+01
-9.770460724830627441e-01 -9.658556580543518066e-01 -3.171809911727905273e-01 1.000000000000000000e+00
-8.964182138442993164e-01 -8.858419656753540039e-01 6.604797393083572388e-02 8.000000000000000000e+01
-8.858823776245117188e-01 -8.751248717308044434e-01 1.089446768164634982e-01 6.500000000000000000e+01
-3.423922300338745117e+00 -3.381164073944091797e+00 -7.621487379074096680e-01 9.000000000000000000e+00
-9.111962914466857910e-01 -8.995031118392944336e-01 1.572114527225494107e-01 5.000000000000000000e+01
-4.558179378509520596e+00 -4.498114585876464844e+00 -7.863010168075561523e-01 1.500000000000000000e+01
-8.732983469963073730e-01 -8.614898324012756348e-01 1.942916065454483032e-01 3.200000000000000000e+01
-8.904548287391662598e-01 -8.781077265739440918e-01 2.430906593799591064e-01 7.900000000000000000e+01
-8.453110456466674805e-01 -8.330081105232238770e-01 2.739903926849365234e-01 5.900000000000000000e+01
-9.017529487609863281e-01 -8.883183598518371582e-01 -2.209474705159664154e-02 4.600000000000000000e+01
-8.066145777702331543e-01 -7.943199872970581055e-01 3.033359348773955744e-01 5.600000000000000000e+01
-9.414244294166564941e-01 -9.244894385337829590e-01 -3.535468280315399170e-01 3.400000000000000000e+01
-8.876047730445861816e-01 -8.713337182998657227e-01 2.171079441905022014e-02 6.300000000000000000e+01
-9.638888239860534668e-01 -9.458891153335571289e-01 -3.117821514606475830e-01 1.300000000000000000e+01
-9.110651016235351562e-01 -8.937397003173828125e-01 6.688535213470458984e-02 8.200000000000000000e+01
-8.933514952659606934e-01 -8.760570287704467773e-01 1.094676107168198048e-01 6.900000000000000000e+01
-3.460272550582886186e+00 -3.392100334167480025e+00 -7.674674987792968750e-01 1.000000000000000000e+00
-9.187404513359069824e-01 -9.003255367279052734e-01 1.579426676034927091e-01 5.200000000000000000e+01
-4.594487667083740234e+00 -4.500825881958007812e+00 -7.897133231163024902e-01 1.400000000000000000e+01
-8.875890970230102539e-01 -8.694949746131896973e-01 1.967945545911788940e-01 3.100000000000000000e+01
-8.894584774971008301e-01 -8.707180023193359375e-01 2.419458031654357910e-01 9.100000000000000000e+01
-8.427863717079162598e-01 -8.244533538818359375e-01 2.721907794475554865e-01 5.700000000000000000e+01
-9.121512174606323242e-01 -8.919978737831115723e-01 -2.226927131414413105e-02 4.300000000000000000e+01
-8.162883520126342773e-01 -7.982529997825622559e-01 3.059241175651549738e-01 5.900000000000000000e+01
-9.432626366615295410e-01 -9.198488593101501465e-01 -3.530291914939879816e-01 3.800000000000000000e+01
-8.849132657051086426e-01 -8.626465797424316406e-01 2.157117426395415913e-02 6.600000000000000000e+01
-9.504369497299194336e-01 -9.261980652809143066e-01 -3.063833415508270264e-01 4.100000000000000000e+01
-9.127486944198608398e-01 -8.891603946685791016e-01 6.678067892789840698e-02 7.200000000000000000e+01
-9.787729382514953613e-01 -9.534783363342285156e-01 -2.656061351299285889e-01 1.000000000000000000e+00
-8.992588520050048828e-01 -8.757133483886718750e-01 1.098162382841109952e-01 7.600000000000000000e+01
-9.090737104415893555e-01 -8.846531510353088379e-01 1.557490229606627863e-01 5.100000000000000000e+01
-4.630091190338134766e+00 -4.504139423370361328e+00 -7.931256890296936035e-01 1.000000000000000000e+00
-9.460005760192871094e-01 -9.199453592300415039e-01 2.089964449405669888e-01 4.500000000000000000e+01
-8.755998015403747559e-01 -8.511863350868225098e-01 2.373663932085036954e-01 7.900000000000000000e+01
-8.512502312660217285e-01 -8.269379138946533203e-01 2.739903926849365234e-01 6.100000000000000000e+01
-9.224322438240051270e-01 -8.957740068435668945e-01 -2.244379557669163097e-02 5.400000000000000000e+01
-8.205947279930114746e-01 -7.966013550758361816e-01 3.064417541027069092e-01 6.100000000000000000e+01
-9.476953744888305664e-01 -9.180600047111511230e-01 -3.535468280315399170e-01 4.000000000000000000e+01
-8.906421065330505371e-01 -8.624895811080932617e-01 2.164098434150218964e-02 6.600000000000000000e+01
-9.493026733398437500e-01 -9.189749360084533691e-01 -3.050336241722106934e-01 4.800000000000000000e+01
-9.113864302635192871e-01 -8.819619417190551758e-01 6.646666675806045532e-02 7.700000000000000000e+01
-9.537129998207092285e-01 -9.229220151901245117e-01 -2.579737603664398193e-01 9.000000000000000000e+00
-9.050219058990478516e-01 -8.754970431327819824e-01 1.101648584008216997e-01 7.500000000000000000e+01
-9.134295582771301270e-01 -8.830134272575378418e-01 1.559927612543106079e-01 4.900000000000000000e+01
-9.957621097564697266e-01 -9.622682332992553711e-01 2.193211168050765991e-01 5.000000000000000000e+01
-8.925400972366333008e-01 -8.619159460067749023e-01 2.411825656890868863e-01 7.400000000000000000e+01
-8.511832356452941895e-01 -8.214040994644165039e-01 2.730905711650847834e-01 6.200000000000000000e+01
-9.268368482589721680e-01 -8.940985202789306641e-01 -2.247869968414306988e-02 6.100000000000000000e+01
-8.328257799148559570e-01 -8.034082055091857910e-01 3.100652098655701239e-01 6.600000000000000000e+01
-9.411485791206359863e-01 -9.053711891174316406e-01 -3.499233424663544256e-01 4.300000000000000000e+01
-9.066196084022521973e-01 -8.718502521514892578e-01 2.195512689650059093e-02 5.900000000000000000e+01
-9.539095759391784668e-01 -9.170061945915222168e-01 -3.054835200309752863e-01 5.500000000000000000e+01
-9.144595265388488770e-01 -8.787752389907836914e-01 6.646666675806045532e-02 8.000000000000000000e+01
-9.456042051315307617e-01 -9.087046384811401367e-01 -2.549208104610443115e-01 2.400000000000000000e+01
-9.123829007148742676e-01 -8.764734268188476562e-01 1.106877923011780063e-01 7.000000000000000000e+01
-1.015877723693848100e+00 -9.755540490150451660e-01 -2.230755537748337070e-01 1.000000000000000000e+00
-9.465791583061218262e-01 -9.086886644363403320e-01 1.611112654209136963e-01 5.100000000000000000e+01
-1.014962911605834961e+00 -9.736545085906982422e-01 2.227626740932464877e-01 5.700000000000000000e+01
-9.125472903251647949e-01 -8.751013875007629395e-01 2.457619905471802035e-01 3.700000000000000000e+01
-1.010690212249756081e+00 -9.688784480094909668e-01 -7.337500900030136108e-02 1.000000000000000000e+00
-8.681151866912841797e-01 -8.319110274314880371e-01 2.775895893573760986e-01 5.600000000000000000e+01
-9.169559478759765625e-01 -8.784079551696777344e-01 -2.216455526649951935e-02 5.600000000000000000e+01
-8.329743146896362305e-01 -7.976780533790588379e-01 3.090299367904663086e-01 6.600000000000000000e+01
-9.359217882156372070e-01 -8.940738439559936523e-01 -3.468175232410430908e-01 4.800000000000000000e+01
-8.995340466499328613e-01 -8.590129017829895020e-01 2.171079441905022014e-02 5.600000000000000000e+01
-9.585142731666564941e-01 -9.150164127349853516e-01 -3.059334456920623779e-01 5.600000000000000000e+01
-9.247460365295410156e-01 -8.824721574783325195e-01 6.699002534151077271e-02 7.000000000000000000e+01
-9.473500847816467285e-01 -9.040428996086120605e-01 -2.545391917228698730e-01 3.800000000000000000e+01
-9.067869782447814941e-01 -8.650317788124084473e-01 1.096419245004653931e-01 5.700000000000000000e+01
-9.620944261550903320e-01 -9.174717664718627930e-01 -2.105607837438583096e-01 8.000000000000000000e+00
-1.023023724555969016e+00 -9.752342104911804199e-01 1.735419481992722113e-01 5.900000000000000000e+01
-1.031056404113769975e+00 -9.825482368469238281e-01 2.255785018205642978e-01 5.200000000000000000e+01
-9.174888134002685547e-01 -8.740181922912597656e-01 -1.108621060848235945e-01 3.000000000000000000e+00
-9.383441805839538574e-01 -8.935730457305908203e-01 2.518678605556488037e-01 9.000000000000000000e+00
-9.677748680114746094e-01 -9.212775230407714844e-01 -7.002551108598709106e-02 1.600000000000000000e+01
-8.681904673576354980e-01 -8.261889219284057617e-01 2.766897976398468018e-01 5.500000000000000000e+01
-9.171189069747924805e-01 -8.724452853202819824e-01 -2.209474705159664154e-02 5.800000000000000000e+01
-8.286164402961730957e-01 -7.882539033889770508e-01 3.064417541027069092e-01 6.800000000000000000e+01
-9.362338781356811523e-01 -8.881422877311706543e-01 -3.457822501659392755e-01 5.000000000000000000e+01
-8.952720761299133301e-01 -8.489876985549926758e-01 2.153627015650272022e-02 5.300000000000000000e+01
-9.574596285820007324e-01 -9.076429605484008789e-01 -3.045837283134459894e-01 6.000000000000000000e+01
-9.336196780204772949e-01 -8.847340345382690430e-01 6.740871071815490723e-02 6.800000000000000000e+01
-9.505000114440917969e-01 -9.007305502891540527e-01 -2.545391917228698730e-01 5.000000000000000000e+01
-9.257116913795471191e-01 -8.769335150718688965e-01 1.115593537688255033e-01 5.000000000000000000e+01
-9.437764883041381836e-01 -8.937339782714843750e-01 -2.058677524328232089e-01 2.800000000000000000e+01
-1.039396047592163086e+00 -9.839394092559814453e-01 1.757355928421021063e-01 6.300000000000000000e+01
-1.006405472755431907e+00 -9.523760080337524414e-01 -1.701295971870422086e-01 1.000000000000000000e+00
-1.036085724830626997e+00 -9.801201224327087402e-01 2.258913666009902954e-01 4.100000000000000000e+01
-9.393500685691833496e-01 -8.886098265647888184e-01 -1.131281554698943953e-01 1.500000000000000000e+01
-9.086492061614990234e-01 -8.592668771743774414e-01 2.430906593799591064e-01 3.000000000000000000e+00
-9.419568777084350586e-01 -8.904529809951782227e-01 -6.793206930160522461e-02 3.000000000000000000e+01
-8.852328062057495117e-01 -8.365378975868225098e-01 2.811888158321381170e-01 5.900000000000000000e+01
-9.317878484725952148e-01 -8.802242875099182129e-01 -2.237398549914360046e-02 7.100000000000000000e+01
-8.314999938011169434e-01 -7.852115631103515625e-01 3.064417541027069092e-01 6.400000000000000000e+01
-9.393283724784851074e-01 -8.848688006401062012e-01 -3.457822501659392755e-01 5.200000000000000000e+01
-9.069649577140808105e-01 -8.540830016136169434e-01 2.174569852650165905e-02 5.400000000000000000e+01
-9.521084427833557129e-01 -8.962808251380920410e-01 -3.018843233585358221e-01 6.000000000000000000e+01
-9.294297695159912109e-01 -8.746260404586791992e-01 6.688535213470458984e-02 6.300000000000000000e+01
-9.522086381912231445e-01 -8.960617184638977051e-01 -2.541575729846953791e-01 6.000000000000000000e+01
-9.664982557296752930e-01 -9.091907739639282227e-01 1.160914525389671048e-01 5.100000000000000000e+01
-9.368171691894531250e-01 -8.809614181518554688e-01 -2.036776691675185880e-01 4.100000000000000000e+01
-1.026914358139038086e+00 -9.653491377830505371e-01 1.730544716119765958e-01 6.900000000000000000e+01
-9.981509447097778320e-01 -9.379820227622985840e-01 -1.681796908378601074e-01 8.000000000000000000e+00
-1.032132625579833984e+00 -9.699152708053588867e-01 2.243270277976990024e-01 3.700000000000000000e+01
-9.424461722373962402e-01 -8.853254914283752441e-01 -1.131281554698943953e-01 2.500000000000000000e+01
-9.102119207382202148e-01 -8.547459244728088379e-01 2.427090406417846957e-01 3.000000000000000000e+00
-9.348661303520202637e-01 -8.775907754898071289e-01 -6.719936430454254150e-02 3.300000000000000000e+01
-8.810423016548156738e-01 -8.267752528190612793e-01 2.789393067359923761e-01 4.900000000000000000e+01
-9.333963394165039062e-01 -8.755982518196105957e-01 -2.233907952904700886e-02 5.900000000000000000e+01
-8.397350907325744629e-01 -7.877367138862609863e-01 3.085123002529143732e-01 5.600000000000000000e+01
-9.466438293457031250e-01 -8.855437636375427246e-01 -3.473351597785950262e-01 4.700000000000000000e+01
-9.157830476760864258e-01 -8.563752174377441406e-01 2.188531681895256042e-02 5.500000000000000000e+01
-9.552312493324279785e-01 -8.929519057273864746e-01 -3.018843233585358221e-01 6.000000000000000000e+01
-9.266399741172790527e-01 -8.659217357635498047e-01 6.646666675806045532e-02 6.000000000000000000e+01
-9.510273933410644531e-01 -8.887111544609069824e-01 -2.530127167701721191e-01 6.200000000000000000e+01
-1.011888742446898970e+00 -9.452537894248962402e-01 1.211464852094649991e-01 5.900000000000000000e+01
-9.572116732597351074e-01 -8.938645124435424805e-01 -2.074321061372756958e-01 4.000000000000000000e+01
-1.030277848243712935e+00 -9.617586731910705566e-01 1.730544716119765958e-01 6.700000000000000000e+01
-9.840030670166015625e-01 -9.182400703430175781e-01 -1.652548313140868863e-01 2.000000000000000000e+01
-1.019625425338744895e+00 -9.514817595481872559e-01 2.208854705095291138e-01 3.900000000000000000e+01
-9.426169991493225098e-01 -8.793122172355651855e-01 -1.127795279026030939e-01 3.100000000000000000e+01
-9.002674818038940430e-01 -8.395130634307861328e-01 2.392744868993758878e-01 8.000000000000000000e+00
-9.466894865036010742e-01 -8.824933171272277832e-01 -6.782739609479904175e-02 3.800000000000000000e+01
-8.796458840370178223e-01 -8.197091817855834961e-01 2.775895893573760986e-01 4.000000000000000000e+01
-9.291310310363769531e-01 -8.655196428298950195e-01 -2.216455526649951935e-02 5.000000000000000000e+01
-8.424797058105468750e-01 -7.848007082939147949e-01 3.085123002529143732e-01 5.100000000000000000e+01
-9.454829692840576172e-01 -8.782895803451538086e-01 -3.457822501659392755e-01 4.400000000000000000e+01
-9.216974377632141113e-01 -8.558947443962097168e-01 2.195512689650059093e-02 5.500000000000000000e+01
-9.554859399795532227e-01 -8.869605064392089844e-01 -3.009845018386840820e-01 6.000000000000000000e+01
-9.238008856773376465e-01 -8.572477102279663086e-01 6.604797393083572388e-02 5.800000000000000000e+01
-9.498064517974853516e-01 -8.813797235488891602e-01 -2.518678605556488037e-01 6.000000000000000000e+01
-1.019564151763916016e+00 -9.457808136940002441e-01 1.216694191098213057e-01 5.800000000000000000e+01
-9.530837535858154297e-01 -8.838019371032714844e-01 -2.058677524328232089e-01 4.700000000000000000e+01
-1.039451956748961958e+00 -9.635545611381530762e-01 1.740294247865676880e-01 7.700000000000000000e+01
-9.697297215461730957e-01 -8.986085057258605957e-01 -1.623299717903136929e-01 2.500000000000000000e+01
-1.010063529014586958e+00 -9.356566071510314941e-01 2.180696427822113037e-01 5.200000000000000000e+01
-9.383724331855773926e-01 -8.692466616630554199e-01 -1.119079738855361938e-01 4.900000000000000000e+01
-9.276809692382812500e-01 -8.590419888496398926e-01 2.457619905471802035e-01 3.300000000000000000e+01
-9.453670978546142578e-01 -8.751131296157836914e-01 -6.751338392496109009e-02 3.900000000000000000e+01
-8.739199638366699219e-01 -8.086923360824584961e-01 2.748901844024658203e-01 2.200000000000000000e+01
-9.277427792549133301e-01 -8.581973314285278320e-01 -2.205984108150004994e-02 4.200000000000000000e+01
-8.437958955764770508e-01 -7.805432677268981934e-01 3.079946637153624933e-01 5.000000000000000000e+01
-9.457030892372131348e-01 -8.723641633987426758e-01 -3.447469770908356268e-01 4.600000000000000000e+01
-9.202691912651062012e-01 -8.486053943634033203e-01 2.185041271150112152e-02 5.600000000000000000e+01
-9.585762023925781250e-01 -8.836198449134826660e-01 -3.009845018386840820e-01 5.800000000000000000e+01
-9.429439902305603027e-01 -8.689056038856506348e-01 6.719936430454254150e-02 4.900000000000000000e+01
-9.485459923744201660e-01 -8.740677833557128906e-01 -2.507230341434478760e-01 5.800000000000000000e+01
-1.016997694969177024e+00 -9.368166327476501465e-01 1.209721714258193970e-01 5.200000000000000000e+01
-9.430847764015197754e-01 -8.684267997741699219e-01 -2.030519396066665927e-01 5.200000000000000000e+01
-1.045730113983154075e+00 -9.626091718673706055e-01 1.745169013738631925e-01 9.300000000000000000e+01
-9.670175313949584961e-01 -8.898413777351379395e-01 -1.613550037145614902e-01 2.800000000000000000e+01
-1.004600405693053977e+00 -9.241011142730712891e-01 2.161924242973327914e-01 5.800000000000000000e+01
-9.399346113204956055e-01 -8.646169900894165039e-01 -1.117336601018906056e-01 6.700000000000000000e+01
-9.220030307769775391e-01 -8.478252291679382324e-01 2.434722781181334894e-01 7.100000000000000000e+01
-9.469456672668457031e-01 -8.704562187194824219e-01 -6.740871071815490723e-02 4.200000000000000000e+01
-8.738676905632019043e-01 -8.029997348785400391e-01 2.739903926849365234e-01 1.200000000000000000e+01
-9.322054386138916016e-01 -8.563064932823181152e-01 -2.209474705159664154e-02 3.300000000000000000e+01
-8.381133675575256348e-01 -7.696055769920349121e-01 3.048888444900513250e-01 4.600000000000000000e+01
-9.560179710388183594e-01 -8.754153251647949219e-01 -3.473351597785950262e-01 4.700000000000000000e+01
-9.218983054161071777e-01 -8.438765406608581543e-01 2.181550860404967915e-02 6.000000000000000000e+01
-9.531822800636291504e-01 -8.722072243690490723e-01 -2.982850968837738037e-01 6.500000000000000000e+01
-9.726490974426269531e-01 -8.897084593772888184e-01 6.908345967531204224e-02 4.700000000000000000e+01
-9.517432451248168945e-01 -8.705853223800659180e-01 -2.507230341434478760e-01 5.800000000000000000e+01
-1.020424485206604004e+00 -9.330828189849853516e-01 1.209721714258193970e-01 6.200000000000000000e+01
-9.462613463401794434e-01 -8.649643659591674805e-01 -2.030519396066665927e-01 5.000000000000000000e+01
-1.043389439582824929e+00 -9.534136056900024414e-01 1.735419481992722113e-01 9.300000000000000000e+01
-9.732037782669067383e-01 -8.889687061309814453e-01 -1.618424952030181885e-01 3.100000000000000000e+01
-9.992282986640930176e-01 -9.124208092689514160e-01 2.143152207136153897e-01 4.800000000000000000e+01
-9.342695474624633789e-01 -8.531053066253662109e-01 -1.106877923011780063e-01 6.900000000000000000e+01
-8.990041613578796387e-01 -8.206158876419067383e-01 2.366031557321547907e-01 7.300000000000000000e+01
-9.427528977394104004e-01 -8.602483868598937988e-01 -6.688535213470458984e-02 4.600000000000000000e+01
-8.796844482421875000e-01 -8.024179935455322266e-01 2.748901844024658203e-01 8.000000000000000000e+00
-9.382929801940917969e-01 -8.555787801742553711e-01 -2.216455526649951935e-02 2.600000000000000000e+01
-8.350847363471984863e-01 -7.614687085151672363e-01 3.028182685375214178e-01 4.500000000000000000e+01
-9.662144184112548828e-01 -8.785711526870727539e-01 -3.499233424663544256e-01 5.400000000000000000e+01
-9.218788743019104004e-01 -8.379632830619812012e-01 2.174569852650165905e-02 6.100000000000000000e+01
-9.432407021522521973e-01 -8.570800423622131348e-01 -2.942359745502471924e-01 7.000000000000000000e+01
-1.003838658332824929e+00 -9.118227958679199219e-01 7.107222825288772583e-02 5.500000000000000000e+01
-9.576828479766845703e-01 -8.698978424072265625e-01 -2.514862418174744207e-01 5.800000000000000000e+01
-1.026625394821166992e+00 -9.321939349174499512e-01 1.213207915425301014e-01 6.200000000000000000e+01
-9.404988288879394531e-01 -8.536900281906127930e-01 -2.011747211217879971e-01 5.000000000000000000e+01
-1.051121473312377930e+00 -9.537675380706787109e-01 1.742731630802155096e-01 1.000000000000000000e+02
-9.718899726867675781e-01 -8.815651535987854004e-01 -1.611112654209136963e-01 3.600000000000000000e+01
-9.950903058052062988e-01 -9.022927880287170410e-01 2.127508670091629028e-01 4.100000000000000000e+01
-9.401936531066894531e-01 -8.525155782699584961e-01 -1.110364198684691966e-01 6.600000000000000000e+01
-9.033178091049194336e-01 -8.187913298606872559e-01 2.369847744703293124e-01 6.300000000000000000e+01
-9.413098096847534180e-01 -8.529291152954101562e-01 -6.657133996486663818e-02 4.700000000000000000e+01
-8.738141059875488281e-01 -7.914929389953613281e-01 2.721907794475554865e-01 2.000000000000000000e+01
-9.486854076385498047e-01 -8.590093255043029785e-01 -2.233907952904700886e-02 2.500000000000000000e+01
-8.434657454490661621e-01 -7.637357711791992188e-01 3.048888444900513250e-01 5.100000000000000000e+01
-9.719898104667663574e-01 -8.779520988464355469e-01 -3.509586155414580744e-01 5.900000000000000000e+01
-9.335577487945556641e-01 -8.429424166679382324e-01 2.195512689650059093e-02 5.900000000000000000e+01
-9.475243091583251953e-01 -8.552531599998474121e-01 -2.946858704090117853e-01 7.600000000000000000e+01
-1.006698250770569070e+00 -9.086646437644958496e-01 7.107222825288772583e-02 5.800000000000000000e+01
-9.532742500305175781e-01 -8.601412773132324219e-01 -2.495781630277633945e-01 5.700000000000000000e+01
-1.037108421325684038e+00 -9.354566931724548340e-01 1.221923530101775984e-01 6.700000000000000000e+01
-9.491928815841674805e-01 -8.558577895164489746e-01 -2.024261951446532926e-01 4.600000000000000000e+01
-1.042482376098633035e+00 -9.396441578865051270e-01 1.723232567310332974e-01 8.600000000000000000e+01
-9.674342274665832520e-01 -8.716933727264404297e-01 -1.598925739526748935e-01 4.600000000000000000e+01
-9.773746132850646973e-01 -8.806500434875488281e-01 2.083707004785537997e-01 3.600000000000000000e+01
-9.474567174911499023e-01 -8.533933758735656738e-01 -1.115593537688255033e-01 6.300000000000000000e+01
-9.118639230728149414e-01 -8.210459947586059570e-01 2.385112494230270108e-01 7.300000000000000000e+01
-9.530400037765502930e-01 -8.578199148178100586e-01 -6.719936430454254150e-02 5.300000000000000000e+01
-8.691907525062561035e-01 -7.820736169815063477e-01 2.699412703514099121e-01 2.800000000000000000e+01
-9.396346211433410645e-01 -8.451603651046752930e-01 -2.205984108150004994e-02 2.500000000000000000e+01
-8.488664031028747559e-01 -7.635183334350585938e-01 3.059241175651549738e-01 5.000000000000000000e+01
-9.736104011535644531e-01 -8.732639551162719727e-01 -3.504409790039063055e-01 5.900000000000000000e+01
-9.454276561737060547e-01 -8.476881980895996094e-01 2.216455526649951935e-02 5.900000000000000000e+01
-9.461504817008972168e-01 -8.480384349822998047e-01 -2.933361828327178955e-01 7.000000000000000000e+01
-1.020434498786926047e+00 -9.142983555793762207e-01 7.180493324995040894e-02 5.100000000000000000e+01
-9.562708735466003418e-01 -8.568084836006164551e-01 -2.495781630277633945e-01 6.000000000000000000e+01
-1.038883328437804954e+00 -9.305015206336975098e-01 1.220180392265319963e-01 6.700000000000000000e+01
-9.536463022232055664e-01 -8.538569211959838867e-01 -2.027390599250792902e-01 4.700000000000000000e+01
-1.050193428993225098e+00 -9.399712085723876953e-01 1.730544716119765958e-01 9.300000000000000000e+01
-9.675123691558837891e-01 -8.656638264656066895e-01 -1.594050973653793057e-01 5.000000000000000000e+01
-9.585103392601013184e-01 -8.573082089424133301e-01 2.036776691675185880e-01 4.000000000000000000e+01
-9.459747076034545898e-01 -8.460961580276489258e-01 -1.110364198684691966e-01 6.600000000000000000e+01
-9.205785989761352539e-01 -8.230922818183898926e-01 2.400377094745635986e-01 8.200000000000000000e+01
-9.590068459510803223e-01 -8.571498990058898926e-01 -6.740871071815490723e-02 5.300000000000000000e+01
-8.675557971000671387e-01 -7.751396894454956055e-01 2.685915529727935791e-01 9.000000000000000000e+00
-9.470533728599548340e-01 -8.458715677261352539e-01 -2.216455526649951935e-02 2.500000000000000000e+01
-8.401307463645935059e-01 -7.501088380813598633e-01 3.017829954624176025e-01 5.000000000000000000e+01
-9.679970145225524902e-01 -8.621508479118347168e-01 -3.473351597785950262e-01 6.100000000000000000e+01
-9.439003467559814453e-01 -8.403936624526977539e-01 2.205984108150004994e-02 5.600000000000000000e+01
-9.520162940025329590e-01 -8.473218083381652832e-01 -2.942359745502471924e-01 6.300000000000000000e+01
-1.032412290573119895e+00 -9.188765883445739746e-01 7.243296504020690918e-02 4.700000000000000000e+01
-9.577891230583190918e-01 -8.521602749824523926e-01 -2.491965442895889005e-01 5.800000000000000000e+01
-1.037658810615539995e+00 -9.228971600532531738e-01 1.214951053261757036e-01 7.500000000000000000e+01
-9.536684751510620117e-01 -8.478978276252746582e-01 -2.021133303642272949e-01 4.800000000000000000e+01
-1.056435704231261985e+00 -9.389371275901794434e-01 1.735419481992722113e-01 9.000000000000000000e+01
-9.586563110351562500e-01 -8.517335057258605957e-01 -1.574551910161972046e-01 4.100000000000000000e+01
-9.541122913360595703e-01 -8.473983407020568848e-01 2.021133303642272949e-01 4.600000000000000000e+01
-9.370049834251403809e-01 -8.322044610977172852e-01 -1.096419245004653931e-01 6.700000000000000000e+01
-9.219779968261718750e-01 -8.185703754425048828e-01 2.396561056375504095e-01 9.100000000000000000e+01
-9.604992270469665527e-01 -8.524713516235351562e-01 -6.730403751134872437e-02 5.400000000000000000e+01
-8.731716871261596680e-01 -7.746932506561279297e-01 2.694913744926453192e-01 2.600000000000000000e+01
-9.529923796653747559e-01 -8.452143073081970215e-01 -2.223436534404754986e-02 2.500000000000000000e+01
-8.368324041366577148e-01 -7.421913743019104004e-01 2.997124493122100830e-01 5.900000000000000000e+01
-9.796831607818603516e-01 -8.664456605911254883e-01 -3.504409790039063055e-01 5.900000000000000000e+01
-9.648058414459228516e-01 -8.529878854751586914e-01 2.247869968414306988e-02 5.000000000000000000e+01
-9.549681544303894043e-01 -8.439934849739074707e-01 -2.942359745502471924e-01 5.300000000000000000e+01
-1.035613536834717019e+00 -9.152672290802001953e-01 7.243296504020690918e-02 4.600000000000000000e+01
-9.651717543601989746e-01 -8.527113199234008789e-01 -2.503414154052733820e-01 6.100000000000000000e+01
-1.037887215614319070e+00 -9.166316390037536621e-01 1.211464852094649991e-01 8.400000000000000000e+01
-9.432948231697082520e-01 -8.327973484992980957e-01 -1.992975026369095126e-01 5.100000000000000000e+01
-1.047799944877624956e+00 -9.247353672981262207e-01 1.715920418500899991e-01 7.700000000000000000e+01
-9.556692242622375488e-01 -8.431288599967956543e-01 -1.564802378416061124e-01 4.500000000000000000e+01
-9.526198506355285645e-01 -8.401429057121276855e-01 2.011747211217879971e-01 5.500000000000000000e+01
-9.428927898406982422e-01 -8.315643668174743652e-01 -1.099905446171760975e-01 6.900000000000000000e+01
-8.983218669891357422e-01 -7.919772863388061523e-01 2.327869683504104892e-01 8.600000000000000000e+01
-9.604722261428833008e-01 -8.464723229408264160e-01 -6.709469854831695557e-02 5.400000000000000000e+01
-8.817194700241088867e-01 -7.767934203147888184e-01 2.712909579277039129e-01 4.900000000000000000e+01
-9.649410247802734375e-01 -8.498123884201049805e-01 -2.244379557669163097e-02 2.500000000000000000e+01
-8.481166362762451172e-01 -7.469265460968017578e-01 3.028182685375214178e-01 6.500000000000000000e+01
-9.783469438552856445e-01 -8.591963052749633789e-01 -3.488880693912506104e-01 5.700000000000000000e+01
-9.948271512985229492e-01 -8.733618855476379395e-01 2.310698665678501129e-02 4.900000000000000000e+01
-9.579084515571594238e-01 -8.406548500061035156e-01 -2.942359745502471924e-01 4.800000000000000000e+01
-1.038961172103882058e+00 -9.114653468132019043e-01 7.243296504020690918e-02 4.900000000000000000e+01
-9.696182608604431152e-01 -8.506317734718322754e-01 -2.507230341434478760e-01 6.200000000000000000e+01
-1.051566243171691895e+00 -9.221988916397094727e-01 1.223666593432426036e-01 7.800000000000000000e+01
-9.432252645492553711e-01 -8.268951773643493652e-01 -1.986717730760574063e-01 5.100000000000000000e+01
-1.043556809425354004e+00 -9.145305156707763672e-01 1.703733354806900024e-01 7.000000000000000000e+01
-9.600996375083923340e-01 -8.410958647727966309e-01 -1.567239761352539062e-01 5.100000000000000000e+01
-9.613440632820129395e-01 -8.421860337257385254e-01 2.024261951446532926e-01 5.800000000000000000e+01
-9.487875103950500488e-01 -8.308932185173034668e-01 -1.103391721844673018e-01 6.600000000000000000e+01
-9.055124521255493164e-01 -7.927162647247314453e-01 2.339318245649338046e-01 7.300000000000000000e+01
-9.513971805572509766e-01 -8.325920104980468750e-01 -6.625732034444808960e-02 5.600000000000000000e+01
-8.814921975135803223e-01 -7.711446881294250488e-01 2.703911662101746161e-01 5.900000000000000000e+01
-9.754279851913452148e-01 -8.530209064483642578e-01 -2.261831797659397125e-02 2.500000000000000000e+01
-8.508485555648803711e-01 -7.438130378723144531e-01 3.028182685375214178e-01 6.500000000000000000e+01
-9.915321469306945801e-01 -8.646638989448547363e-01 -3.525115251541138250e-01 5.400000000000000000e+01
-1.018972635269165039e+00 -8.882803320884704590e-01 2.359565347433089863e-02 5.100000000000000000e+01
-9.843437671661376953e-01 -8.577905893325805664e-01 -3.014344274997711182e-01 5.500000000000000000e+01
-1.041978001594543013e+00 -9.080150127410888672e-01 7.243296504020690918e-02 5.200000000000000000e+01
-9.711012244224548340e-01 -8.459524512290954590e-01 -2.503414154052733820e-01 6.600000000000000000e+01
-1.053276419639586958e+00 -9.172141551971435547e-01 1.221923530101775984e-01 8.400000000000000000e+01
-9.461058974266052246e-01 -8.235976696014404297e-01 -1.986717730760574063e-01 5.100000000000000000e+01
-1.042250275611876997e+00 -9.069728851318359375e-01 1.696421205997467041e-01 6.200000000000000000e+01
-9.555411934852600098e-01 -8.312250971794128418e-01 -1.555052846670151034e-01 5.000000000000000000e+01
-9.554806947708129883e-01 -8.308795094490051270e-01 2.005489915609360019e-01 5.700000000000000000e+01
-9.607027769088745117e-01 -8.354206085205078125e-01 -1.113850399851799011e-01 6.700000000000000000e+01
-9.127191305160522461e-01 -7.934146523475646973e-01 2.350766807794570923e-01 7.800000000000000000e+01
-9.573128223419189453e-01 -8.318860530853271484e-01 -6.646666675806045532e-02 5.600000000000000000e+01
-8.738803267478942871e-01 -7.591171860694885254e-01 2.672418653964995783e-01 6.500000000000000000e+01
-9.768897891044616699e-01 -8.482996821403503418e-01 -2.258341386914252888e-02 3.400000000000000000e+01
-8.607341051101684570e-01 -7.471704483032226562e-01 3.054064810276030939e-01 6.800000000000000000e+01
-9.872422218322753906e-01 -8.548744916915893555e-01 -3.499233424663544256e-01 5.300000000000000000e+01
-1.031138777732848899e+00 -8.925705552101135254e-01 2.380508184432983051e-02 5.200000000000000000e+01
-9.917529225349426270e-01 -8.581748008728027344e-01 -3.027841150760651190e-01 6.300000000000000000e+01
-1.045141220092772993e+00 -9.043723344802856445e-01 7.243296504020690918e-02 6.300000000000000000e+01
-9.651392698287963867e-01 -8.348512053489685059e-01 -2.480516880750656128e-01 7.700000000000000000e+01
-1.053457498550415039e+00 -9.109255671501159668e-01 1.218437254428863942e-01 8.400000000000000000e+01
-9.564473032951354980e-01 -8.267490863800048828e-01 -2.002361118793488104e-01 4.900000000000000000e+01
-1.049915909767151101e+00 -9.072229266166687012e-01 1.703733354806900024e-01 6.300000000000000000e+01
-9.584369063377380371e-01 -8.278845548629760742e-01 -1.555052846670151034e-01 4.800000000000000000e+01
-9.462715387344360352e-01 -8.173762559890747070e-01 1.980460286140441895e-01 6.000000000000000000e+01
-9.575810432434082031e-01 -8.268535137176513672e-01 -1.106877923011780063e-01 6.600000000000000000e+01
-9.169692397117614746e-01 -7.915066480636596680e-01 2.354582995176315030e-01 7.900000000000000000e+01
-9.677715301513671875e-01 -8.350632786750793457e-01 -6.699002534151077271e-02 5.300000000000000000e+01
-8.780004382133483887e-01 -7.573350071907043457e-01 2.676917612552642822e-01 6.800000000000000000e+01
-9.647005200386047363e-01 -8.318260312080383301e-01 -2.223436534404754986e-02 4.700000000000000000e+01
-8.574838638305664062e-01 -7.391161918640136719e-01 3.033359348773955744e-01 6.800000000000000000e+01
-9.858258366584777832e-01 -8.476446866989135742e-01 -3.483704328536986750e-01 5.100000000000000000e+01
-1.034248113632201926e+00 -8.889657855033874512e-01 2.380508184432983051e-02 5.200000000000000000e+01
-9.917863011360168457e-01 -8.521677255630493164e-01 -3.018843233585358221e-01 6.900000000000000000e+01
-1.057380914688109907e+00 -9.085282683372497559e-01 7.306099683046340942e-02 7.400000000000000000e+01
-9.665582776069641113e-01 -8.301979303359985352e-01 -2.476700693368912021e-01 7.200000000000000000e+01
-1.038491249084473100e+00 -8.916677832603454590e-01 1.197519898414611955e-01 8.400000000000000000e+01
-9.518325924873352051e-01 -8.169725537300109863e-01 -1.986717730760574063e-01 5.200000000000000000e+01
-1.041023969650268999e+00 -8.932114243507385254e-01 1.684234291315079013e-01 5.300000000000000000e+01
-9.718683362007141113e-01 -8.335805535316467285e-01 -1.572114527225494107e-01 4.900000000000000000e+01
-9.461201429367065430e-01 -8.114960789680480957e-01 1.974202990531921109e-01 6.000000000000000000e+01
-9.528988003730773926e-01 -8.170216083526611328e-01 -1.098162382841109952e-01 6.300000000000000000e+01
-9.122733473777770996e-01 -7.819128036499023438e-01 2.335502058267593106e-01 7.100000000000000000e+01
-9.737139344215393066e-01 -8.342790007591247559e-01 -6.719936430454254150e-02 5.200000000000000000e+01
-8.895190954208374023e-01 -7.618716359138488770e-01 2.703911662101746161e-01 7.700000000000000000e+01
-9.721552133560180664e-01 -8.323552012443542480e-01 -2.233907952904700886e-02 5.100000000000000000e+01
-8.541879057884216309e-01 -7.310938239097595215e-01 3.012653589248657227e-01 6.900000000000000000e+01
-9.946554899215698242e-01 -8.492158651351928711e-01 -3.504409790039063055e-01 4.900000000000000000e+01
-1.032781720161437988e+00 -8.814556598663330078e-01 2.370036765933037151e-02 5.000000000000000000e+01
-9.947548508644104004e-01 -8.487005233764648438e-01 -3.018843233585358221e-01 6.300000000000000000e+01
-1.077259302139282005e+00 -9.190913438796997070e-01 7.421238720417022705e-02 7.700000000000000000e+01
-9.664627909660339355e-01 -8.242710232734680176e-01 -2.469068467617034912e-01 6.600000000000000000e+01
-1.047662019729614036e+00 -8.932079076766967773e-01 1.204492375254631042e-01 9.000000000000000000e+01
-9.486648440361022949e-01 -8.085197806358337402e-01 -1.974202990531921109e-01 5.100000000000000000e+01
-1.044135570526123047e+00 -8.895720839500427246e-01 1.684234291315079013e-01 5.300000000000000000e+01
-9.823285341262817383e-01 -8.366185426712036133e-01 -1.584301441907882968e-01 5.800000000000000000e+01
-9.429315328598022461e-01 -8.030653595924377441e-01 1.961688250303267878e-01 6.100000000000000000e+01
-9.572619795799255371e-01 -8.149819374084472656e-01 -1.099905446171760975e-01 6.000000000000000000e+01
-9.105119109153747559e-01 -7.749063372611999512e-01 2.324053496122359952e-01 7.900000000000000000e+01
-9.796625971794128418e-01 -8.334634304046630859e-01 -6.740871071815490723e-02 5.200000000000000000e+01
-8.936575651168823242e-01 -7.600244879722595215e-01 2.708410620689392090e-01 7.100000000000000000e+01
-9.841958880424499512e-01 -8.367281556129455566e-01 -2.254850976169108998e-02 4.300000000000000000e+01
-8.654386401176452637e-01 -7.357649803161621094e-01 3.043712079524993896e-01 6.400000000000000000e+01
-1.003508090972899947e+00 -8.507356643676757812e-01 -3.525115251541138250e-01 4.500000000000000000e+01
-1.046531200408935991e+00 -8.868951797485351562e-01 2.394470199942589153e-02 4.800000000000000000e+01
-9.932506084442138672e-01 -8.414440751075744629e-01 -3.005346059799193781e-01 5.900000000000000000e+01
-1.080461025238037109e+00 -9.153254032135009766e-01 7.421238720417022705e-02 6.400000000000000000e+01
-9.708323478698730469e-01 -8.221611380577087402e-01 -2.472884505987167081e-01 6.800000000000000000e+01
-1.050773501396178977e+00 -8.895454406738281250e-01 1.204492375254631042e-01 8.000000000000000000e+01
-9.544971585273742676e-01 -8.077555298805236816e-01 -1.980460286140441895e-01 5.200000000000000000e+01
-1.030563473701477051e+00 -8.718190193176269531e-01 1.657423079013823908e-01 4.800000000000000000e+01
-9.655380249023437500e-01 -8.165208101272583008e-01 -1.552615463733673096e-01 6.600000000000000000e+01
-9.593040347099304199e-01 -8.112489581108093262e-01 1.989846378564834872e-01 6.200000000000000000e+01
-9.616225361824035645e-01 -8.129217624664306641e-01 -1.101648584008216997e-01 5.700000000000000000e+01
-9.102122187614440918e-01 -7.691889405250549316e-01 2.316421270370483121e-01 8.200000000000000000e+01
-9.734116196632385254e-01 -8.223053812980651855e-01 -6.678067892789840698e-02 5.100000000000000000e+01
-8.918384909629821777e-01 -7.531284689903259277e-01 2.694913744926453192e-01 7.700000000000000000e+01
-1.003919005393981934e+00 -8.474767208099365234e-01 -2.293246239423751831e-02 3.800000000000000000e+01
-8.681295514106750488e-01 -7.325880527496337891e-01 3.043712079524993896e-01 7.000000000000000000e+01
-1.022728800773621050e+00 -8.609126210212707520e-01 -3.582055568695067804e-01 4.400000000000000000e+01
-1.055740952491760032e+00 -8.883867859840393066e-01 2.408432029187678944e-02 4.900000000000000000e+01
-1.002146959304810014e+00 -8.429896831512451172e-01 -3.023342192173004150e-01 5.900000000000000000e+01
-1.079222679138184038e+00 -9.075028896331787109e-01 7.389836758375167847e-02 5.100000000000000000e+01
-9.646806120872497559e-01 -8.111861348152160645e-01 -2.449987530708312988e-01 7.000000000000000000e+01
-1.053872227668761985e+00 -8.858721256256103516e-01 1.204492375254631042e-01 6.600000000000000000e+01
-9.573109149932861328e-01 -8.044188022613525391e-01 -1.980460286140441895e-01 5.200000000000000000e+01
-1.027520418167114036e+00 -8.631092309951782227e-01 1.647673547267914096e-01 4.200000000000000000e+01
-9.729430079460144043e-01 -8.169749975204467773e-01 -1.559927612543106079e-01 6.800000000000000000e+01
-9.500277042388916016e-01 -7.977331876754760742e-01 1.964816898107528964e-01 6.100000000000000000e+01
-9.751365184783935547e-01 -8.185268044471740723e-01 -1.113850399851799011e-01 4.600000000000000000e+01
-9.083797931671142578e-01 -7.622211575508117676e-01 2.304972708225249967e-01 7.800000000000000000e+01
-9.839271306991577148e-01 -8.253203034400939941e-01 -6.730403751134872437e-02 4.900000000000000000e+01
-8.840091824531555176e-01 -7.412460446357727051e-01 2.663420438766478937e-01 7.200000000000000000e+01
-1.031391620635986106e+00 -8.645204305648803711e-01 -2.349093928933143963e-02 4.700000000000000000e+01
-8.794373273849487305e-01 -7.371512055397033691e-01 3.074770271778107245e-01 7.700000000000000000e+01
-1.027209997177124023e+00 -8.585762977600097656e-01 -3.587231934070587158e-01 4.100000000000000000e+01
-1.066508293151855025e+00 -8.911069631576538086e-01 2.425884455442428936e-02 4.200000000000000000e+01
-1.015552997589111106e+00 -8.482310175895690918e-01 -3.054835200309752863e-01 5.600000000000000000e+01
-1.093115687370300071e+00 -9.126906991004943848e-01 7.463107258081436157e-02 4.400000000000000000e+01
-9.659992456436157227e-01 -8.065555691719055176e-01 -2.446171343326568881e-01 6.200000000000000000e+01
-1.058487653732300027e+00 -8.834646940231323242e-01 1.206235513091087064e-01 8.700000000000000000e+01
-9.661800861358642578e-01 -8.061343431472778320e-01 -1.992975026369095126e-01 5.200000000000000000e+01
-1.024429202079772949e+00 -8.544313311576843262e-01 1.637924015522002896e-01 4.300000000000000000e+01
-9.742641448974609375e-01 -8.123026490211486816e-01 -1.557490229606627863e-01 6.600000000000000000e+01
-9.408057332038879395e-01 -7.841280102729797363e-01 1.939787417650223056e-01 6.300000000000000000e+01
-9.779877662658691406e-01 -8.151179552078247070e-01 -1.113850399851799011e-01 3.900000000000000000e+01
-9.185765981674194336e-01 -7.653291821479797363e-01 2.324053496122359952e-01 8.700000000000000000e+01
-9.960101246833801270e-01 -8.295499086380004883e-01 -6.793206930160522461e-02 4.900000000000000000e+01
-8.925817012786865234e-01 -7.431433200836181641e-01 2.681416571140288752e-01 7.200000000000000000e+01
-1.043625116348267046e+00 -8.685902357101440430e-01 -2.370036765933037151e-02 4.900000000000000000e+01
-8.895585536956787109e-01 -7.401007413864135742e-01 3.100652098655701239e-01 1.000000000000000000e+02
-1.030200719833374023e+00 -8.549854159355163574e-01 -3.587231934070587158e-01 3.500000000000000000e+01
-1.081924438476562944e+00 -8.975931406021118164e-01 2.453808300197124134e-02 4.200000000000000000e+01
-1.024507761001586914e+00 -8.496569395065307617e-01 -3.072831332683563232e-01 4.800000000000000000e+01
-1.085531830787658913e+00 -8.999464511871337891e-01 7.389836758375167847e-02 4.600000000000000000e+01
-9.854342341423034668e-01 -8.169617652893066406e-01 -2.488149255514144897e-01 6.100000000000000000e+01
-1.052360773086548074e+00 -8.721364736557006836e-01 1.195776760578155934e-01 9.700000000000000000e+01
-9.659457802772521973e-01 -8.002364039421081543e-01 -1.986717730760574063e-01 5.200000000000000000e+01
-1.025876522064208984e+00 -8.495840430259704590e-01 1.635486632585526068e-01 4.200000000000000000e+01
-9.755645990371704102e-01 -8.076310157775878906e-01 -1.555052846670151034e-01 6.400000000000000000e+01
-9.479656815528869629e-01 -7.847829461097717285e-01 1.949173361063004095e-01 6.300000000000000000e+01
-9.808271527290344238e-01 -8.116991519927978516e-01 -1.113850399851799011e-01 3.700000000000000000e+01
-9.197298288345336914e-01 -7.608666419982910156e-01 2.320237457752228061e-01 1.000000000000000000e+02
-1.001978039741515891e+00 -8.286137580871582031e-01 -6.814141571521759033e-02 4.900000000000000000e+01
-9.026800990104675293e-01 -7.462313771247863770e-01 2.703911662101746161e-01 8.300000000000000000e+01
-1.048192143440247026e+00 -8.662158846855163574e-01 -2.373527362942695965e-02 4.800000000000000000e+01
-8.890296220779418945e-01 -7.346855401992797852e-01 3.090299367904663086e-01 1.000000000000000000e+02
-1.039142489433289018e+00 -8.562983274459838867e-01 -3.607937395572661798e-01 1.300000000000000000e+01
-1.080420613288878950e+00 -8.899967670440673828e-01 2.443336881697177887e-02 4.100000000000000000e+01
-1.019945621490478960e+00 -8.398817777633666992e-01 -3.050336241722106934e-01 3.900000000000000000e+01
-1.084040522575377974e+00 -8.923437595367431641e-01 7.358435541391372681e-02 5.400000000000000000e+01
-1.006469130516052024e+00 -8.284897208213806152e-01 -2.533943355083466131e-01 6.000000000000000000e+01
-1.056937098503113015e+00 -8.697237372398376465e-01 1.197519898414611955e-01 8.800000000000000000e+01
-9.672076702117919922e-01 -7.956048250198364258e-01 -1.983589082956314087e-01 5.300000000000000000e+01
-1.024236083030700906e+00 -8.422154784202575684e-01 1.628174483776093084e-01 4.500000000000000000e+01
-9.891123771667480469e-01 -8.130444288253784180e-01 -1.572114527225494107e-01 5.900000000000000000e+01
-9.432045817375183105e-01 -7.750326991081237793e-01 1.933529973030090054e-01 6.500000000000000000e+01
-9.898119568824768066e-01 -8.133300542831420898e-01 -1.120822876691817960e-01 5.100000000000000000e+01
-9.147947430610656738e-01 -7.514208555221557617e-01 2.301156520843506137e-01 1.000000000000000000e+02
-1.000233650207519975e+00 -8.213088512420654297e-01 -6.782739609479904175e-02 5.100000000000000000e+01
-9.128109216690063477e-01 -7.492578625679016113e-01 2.726406753063201904e-01 1.000000000000000000e+02
-1.066668391227721946e+00 -8.752363324165344238e-01 -2.408432029187678944e-02 4.400000000000000000e+01
-8.902227282524108887e-01 -7.301969528198242188e-01 3.085123002529143732e-01 1.000000000000000000e+02
-1.066047668457031028e+00 -8.722392320632934570e-01 -3.690759539604187012e-01 1.000000000000000000e+00
-1.103643178939818892e+00 -9.026783704757690430e-01 2.488713152706623077e-02 4.200000000000000000e+01
-1.012310504913330078e+00 -8.276818394660949707e-01 -3.018843233585358221e-01 1.300000000000000000e+01
-1.074777245521544966e+00 -8.784427046775817871e-01 7.274697721004486084e-02 3.000000000000000000e+01
-1.021515846252440962e+00 -8.349108099937438965e-01 -2.564472854137421209e-01 5.100000000000000000e+01
-1.063052415847778098e+00 -8.685502409934997559e-01 1.201006099581718028e-01 8.400000000000000000e+01
-9.699789881706237793e-01 -7.922238111495971680e-01 -1.983589082956314087e-01 5.300000000000000000e+01
-1.014868259429932085e+00 -8.285915851593017578e-01 1.608675271272659024e-01 4.700000000000000000e+01
-9.842548966407775879e-01 -8.033109903335571289e-01 -1.559927612543106079e-01 5.700000000000000000e+01
-9.488302469253540039e-01 -7.743987441062927246e-01 1.939787417650223056e-01 6.500000000000000000e+01
-1.011170268058777078e+00 -8.249842524528503418e-01 -1.141740232706069946e-01 7.300000000000000000e+01
-9.234977960586547852e-01 -7.531864047050476074e-01 2.316421270370483121e-01 1.000000000000000000e+02
-1.001546382904052956e+00 -8.165503144264221191e-01 -6.772273033857345581e-02 4.900000000000000000e+01
-9.154207110404968262e-01 -7.460669875144958496e-01 2.726406753063201904e-01 1.000000000000000000e+02
-1.080569148063659890e+00 -8.803489804267883301e-01 -2.432865463197230946e-02 3.900000000000000000e+01
-8.971323966979980469e-01 -7.309014797210693359e-01 3.100652098655701239e-01 1.000000000000000000e+02
-2.115680456161499023e+00 -1.718753814697266069e+00 -7.303873300552368164e-01 2.300000000000000000e+01
-1.116101264953613059e+00 -9.063841700553894043e-01 2.509655989706515919e-02 2.700000000000000000e+01
-2.464605569839477983e+00 -2.000788688659667969e+00 -7.328905463218688965e-01 1.000000000000000000e+01
-1.082489609718322976e+00 -8.784613609313964844e-01 7.306099683046340942e-02 8.000000000000000000e+00
-1.021375179290771040e+00 -8.288657665252685547e-01 -2.556840479373931885e-01 4.800000000000000000e+01
-1.064530372619628906e+00 -8.635789752006530762e-01 1.199263036251067976e-01 7.500000000000000000e+01
-9.804098606109619141e-01 -7.950541973114013672e-01 -1.999232470989227017e-01 5.800000000000000000e+01
-1.019296526908874956e+00 -8.262940645217895508e-01 1.611112654209136963e-01 5.100000000000000000e+01
-9.824261665344238281e-01 -7.961210012435913086e-01 -1.552615463733673096e-01 5.400000000000000000e+01
-9.531971216201782227e-01 -7.721593379974365234e-01 1.942916065454483032e-01 7.100000000000000000e+01
-1.018688321113585982e+00 -8.252119421958923340e-01 -1.146969571709633012e-01 7.000000000000000000e+01
-9.245955348014831543e-01 -7.487226724624633789e-01 2.312605082988739014e-01 1.000000000000000000e+02
-1.010600090026855025e+00 -8.180758357048034668e-01 -6.814141571521759033e-02 4.400000000000000000e+01
-9.119598865509033203e-01 -7.379636168479919434e-01 2.708410620689392090e-01 1.000000000000000000e+02
-1.099182724952697976e+00 -8.891481161117553711e-01 -2.467770315706729889e-02 3.100000000000000000e+01
-9.058139920234680176e-01 -7.324672341346740723e-01 3.121357560157775879e-01 1.000000000000000000e+02
-2.111141443252563032e+00 -1.702868103981018066e+00 -7.267639040946960449e-01 2.200000000000000000e+01
-1.179969072341918945e+00 -9.514351487159729004e-01 2.645784802734851837e-02 8.000000000000000000e+00
-2.473091840744018999e+00 -1.993396401405334029e+00 -7.333404421806335449e-01 1.600000000000000000e+01
-1.074662804603577104e+00 -8.659055233001708984e-01 7.232829183340072632e-02 2.200000000000000000e+01
-1.021204710006714089e+00 -8.228318691253662109e-01 -2.549208104610443115e-01 4.200000000000000000e+01
-1.061331748962401900e+00 -8.548586368560791016e-01 1.192290559411049028e-01 7.800000000000000000e+01
-9.970267415046691895e-01 -8.027767539024353027e-01 -2.027390599250792902e-01 5.200000000000000000e+01
-1.020628213882446067e+00 -8.214863538742065430e-01 1.608675271272659024e-01 4.900000000000000000e+01
-9.882923960685729980e-01 -7.951756715774536133e-01 -1.557490229606627863e-01 5.400000000000000000e+01
-9.542133808135986328e-01 -7.677558064460754395e-01 1.939787417650223056e-01 8.200000000000000000e+01
-1.010694980621337891e+00 -8.129100799560546875e-01 -1.134767755866050998e-01 6.900000000000000000e+01
-9.440338611602783203e-01 -7.590227127075195312e-01 2.354582995176315030e-01 1.000000000000000000e+02
-1.025903701782227007e+00 -8.245529532432556152e-01 -6.897879391908645630e-02 3.500000000000000000e+01
-9.145302772521972656e-01 -7.347757816314697266e-01 2.708410620689392090e-01 9.400000000000000000e+01
