-4.031645774841308594e+00 2.934540987014770952e+00 -6.122716069221496582e-01 1.000000000000000000e+01
-3.299926757812500000e+01 2.401939773559569957e+01 6.464498043060302734e+00 1.400000000000000000e+01
-5.550298690795898438e+00 4.041415214538574219e+00 -6.006773710250854492e-01 2.000000000000000000e+00
-8.663281440734863281e+00 6.312742710113525391e+00 -5.617741346359252930e-01 2.000000000000000000e+00
-1.916411399841309038e+00 1.401574134826659934e+00 -6.361772418022155762e-01 1.900000000000000000e+01
-2.222021579742432085e+00 1.626273989677428977e+00 -6.357116699218750000e-01 1.400000000000000000e+01
-2.620045185089110884e+00 1.918285489082335982e+00 -6.311961412429809570e-01 1.100000000000000000e+01
-3.151823282241820845e+00 2.309321165084838867e+00 -6.188547611236572266e-01 9.000000000000000000e+00
-3.294525527954102273e+01 2.414761924743651988e+01 5.015410900115966797e+00 2.400000000000000000e+01
-4.035785675048828125e+00 2.959160566329956055e+00 -6.144652366638183594e-01 1.000000000000000000e+01
-5.542583942413330078e+00 4.065478324890136719e+00 -6.013746261596679688e-01 2.000000000000000000e+00
-8.602551460266113281e+00 6.314580440521240234e+00 -5.592620372772216797e-01 2.000000000000000000e+00
-1.916173338890075906e+00 1.411692619323730025e+00 -6.377301216125488281e-01 1.800000000000000000e+01
-2.214762687683105025e+00 1.632863879203795943e+00 -6.352617740631103516e-01 1.500000000000000000e+01
-2.608592987060546875e+00 1.923923492431641069e+00 -6.300513148307800293e-01 1.000000000000000000e+01
-3.132617712020874023e+00 2.312097549438477007e+00 -6.166646480560302734e-01 9.000000000000000000e+00
-3.324403381347656250e+01 2.454545974731444957e+01 5.073908329010009766e+00 2.600000000000000000e+01
-4.017447948455811435e+00 2.967333078384398970e+00 -6.132465600967407227e-01 9.000000000000000000e+00
-5.496310234069824219e+00 4.061120510101318359e+00 -5.978884100914001465e-01 2.000000000000000000e+00
-8.593304634094238281e+00 6.354070186614990234e+00 -5.600994229316711426e-01 2.000000000000000000e+00
-1.917439222335814986e+00 1.422977805137634055e+00 -6.398006677627563477e-01 1.700000000000000000e+01
-2.194969177246094194e+00 1.630127906799315962e+00 -6.312126517295837402e-01 1.400000000000000000e+01
-2.603437423706055132e+00 1.934188246726989968e+00 -6.304329037666320801e-01 1.100000000000000000e+01
-3.127698183059691939e+00 2.325375556945800781e+00 -6.172903776168823242e-01 8.000000000000000000e+00
-4.010250568389892578e+00 2.983708381652832031e+00 -6.137340068817138672e-01 9.000000000000000000e+00
-5.469314575195313388e+00 4.070765018463134766e+00 -5.964938998222351074e-01 4.000000000000000000e+00
-8.532629966735839844e+00 6.355394363403320312e+00 -5.575872659683227539e-01 2.000000000000000000e+00
-1.914257407188415971e+00 1.430484890937804954e+00 -6.403183341026306152e-01 1.900000000000000000e+01
-2.194233179092406782e+00 1.640898942947387917e+00 -6.325623393058776855e-01 1.300000000000000000e+01
-2.593864917755126953e+00 1.940458893775939941e+00 -6.296696662902832031e-01 1.200000000000000000e+01
-3.126295089721680132e+00 2.340470075607299805e+00 -6.185418963432312012e-01 8.000000000000000000e+00
-3.993979454040526900e+00 2.992229461669921875e+00 -6.127590537071228027e-01 1.000000000000000000e+01
-5.495643615722656250e+00 4.118751525878906250e+00 -6.008517146110534668e-01 3.000000000000000000e+00
-8.511507987976074219e+00 6.383654594421386719e+00 -5.575872659683227539e-01 2.000000000000000000e+00
-1.904622077941894975e+00 1.433672785758971946e+00 -6.387653946876525879e-01 1.900000000000000000e+01
-2.193161725997924805e+00 1.652065753936768022e+00 -6.339120864868164062e-01 1.300000000000000000e+01
-2.580803871154785156e+00 1.944775342941283958e+00 -6.281431913375854492e-01 1.200000000000000000e+01
-3.114952087402344194e+00 2.348989963531494141e+00 -6.179161071777343750e-01 8.000000000000000000e+00
-3.219715118408203125e+01 2.428873634338378906e+01 4.952038764953613281e+00 2.300000000000000000e+01
-3.977172374725341797e+00 3.001369714736938032e+00 -6.117841005325317383e-01 9.000000000000000000e+00
-5.463741302490234375e+00 4.124704837799072266e+00 -5.989342927932739258e-01 3.000000000000000000e+00
-8.514670372009277344e+00 6.432589530944824219e+00 -5.592620372772216797e-01 2.000000000000000000e+00
-1.898066639900207964e+00 1.439145207405090110e+00 -6.382477879524230957e-01 2.100000000000000000e+01
-2.188933849334716797e+00 1.660889267921447976e+00 -6.343619823455810547e-01 1.200000000000000000e+01
-2.578691005706787109e+00 1.957333087921143022e+00 -6.292880773544311523e-01 1.200000000000000000e+01
-3.103587388992310014e+00 2.357459068298339844e+00 -6.172903776168823242e-01 8.000000000000000000e+00
-3.227022933959960938e+01 2.452107810974121094e+01 4.976412773132324219e+00 2.300000000000000000e+01
-3.963510513305664062e+00 3.012831926345825195e+00 -6.112966537475585938e-01 9.000000000000000000e+00
-5.416005611419677734e+00 4.118426322937011719e+00 -5.952737331390380859e-01 4.000000000000000000e+00
-8.272828102111816406e+00 6.295362949371337891e+00 -5.448173284530639648e-01 1.800000000000000000e+01
-1.885354995727539062e+00 1.439899086952209029e+00 -6.356595754623413086e-01 2.000000000000000000e+01
-2.175381422042847124e+00 1.662603139877318892e+00 -6.321124434471130371e-01 1.400000000000000000e+01
-2.570283412933350053e+00 1.965129971504210982e+00 -6.289064288139343262e-01 1.200000000000000000e+01
-3.092201709747314009e+00 2.365877628326416016e+00 -6.166646480560302734e-01 8.000000000000000000e+00
-3.956121921539307085e+00 3.029062271118164062e+00 -6.117841005325317383e-01 9.000000000000000000e+00
-5.412668704986572266e+00 4.145787239074707031e+00 -5.964938998222351074e-01 5.000000000000000000e+00
-8.330060958862304688e+00 6.384953498840332031e+00 -5.500509142875671387e-01 2.000000000000000000e+00
-1.886442065238953081e+00 1.451183080673217995e+00 -6.377301216125488281e-01 2.000000000000000000e+01
-2.158755302429199219e+00 1.661865353584289995e+00 -6.289631724357604980e-01 1.300000000000000000e+01
-2.572741031646728960e+00 1.981277227401732954e+00 -6.311961412429809570e-01 1.200000000000000000e+01
-3.080795288085937944e+00 2.374245405197143999e+00 -6.160389184951782227e-01 8.000000000000000000e+00
-3.942380666732788086e+00 3.040428876876831055e+00 -6.112966537475585938e-01 9.000000000000000000e+00
-5.401319026947020596e+00 4.167089462280273438e+00 -5.968425273895263672e-01 4.000000000000000000e+00
-8.355150222778320312e+00 6.450608253479003906e+00 -5.531910657882690430e-01 2.000000000000000000e+00
-3.606063079833983664e+01 2.785072135925292969e+01 1.051916122436523082e+01 1.300000000000000000e+01
-1.884419202804564986e+00 1.460125684738158958e+00 -6.387653946876525879e-01 2.000000000000000000e+01
-2.163721323013306108e+00 1.677749514579772949e+00 -6.321124434471130371e-01 1.400000000000000000e+01
-2.558053016662598100e+00 1.984229207038878950e+00 -6.292880773544311523e-01 1.300000000000000000e+01
-3.084972143173218218e+00 2.394675016403197798e+00 -6.185418963432312012e-01 8.000000000000000000e+00
-3.916066646575928178e+00 3.041994094848632812e+00 -6.088592410087585449e-01 8.000000000000000000e+00
-5.391459941864013672e+00 4.189585685729979581e+00 -5.973654389381408691e-01 4.000000000000000000e+00
-8.319969177246093750e+00 6.469925403594970703e+00 -5.523536801338195801e-01 2.000000000000000000e+00
-3.553251647949218750e+01 2.764139556884765980e+01 1.039318847656250000e+01 1.300000000000000000e+01
-1.868904829025268999e+00 1.458048462867737038e+00 -6.351419091224670410e-01 1.900000000000000000e+01
-2.162754058837891069e+00 1.688513159751892090e+00 -6.334621906280517578e-01 1.300000000000000000e+01
-2.539080619812012163e+00 1.983033657073975053e+00 -6.262351274490356445e-01 1.300000000000000000e+01
-3.078570604324340820e+00 2.406108379364014116e+00 -6.188547611236572266e-01 9.000000000000000000e+00
-3.915339469909667969e+00 3.062301158905028853e+00 -6.103217005729675293e-01 9.000000000000000000e+00
-5.347723007202148438e+00 4.184114456176757812e+00 -5.940535664558410645e-01 2.000000000000000000e+00
-8.298468589782714844e+00 6.497479915618895596e+00 -5.523536801338195801e-01 2.000000000000000000e+00
-3.556339263916016336e+01 2.785520362854003906e+01 1.042918109893799006e+01 1.300000000000000000e+01
-1.863803982734679954e+00 1.464563250541687012e+00 -6.351419091224670410e-01 1.900000000000000000e+01
-2.155314922332764116e+00 1.694847702980041948e+00 -6.330122947692871094e-01 1.300000000000000000e+01
-2.535229206085205078e+00 1.994312286376952903e+00 -6.269983649253845215e-01 1.300000000000000000e+01
-3.057735681533813032e+00 2.407065153121947798e+00 -6.163517832756042480e-01 9.000000000000000000e+00
-3.893710613250731978e+00 3.067350625991820845e+00 -6.086155176162719727e-01 9.000000000000000000e+00
-3.515721893310546875e+01 2.770577049255371094e+01 7.089610099792479581e+00 1.500000000000000000e+01
-5.333085060119628906e+00 4.202756404876708984e+00 -5.940535664558410645e-01 4.000000000000000000e+00
-8.228689193725585938e+00 6.489304542541503906e+00 -5.492135286331176758e-01 2.000000000000000000e+00
-3.556385803222656250e+01 2.805642127990723012e+01 1.045797443389892933e+01 1.300000000000000000e+01
-1.858423471450806108e+00 1.471384644508362038e+00 -6.351419091224670410e-01 1.600000000000000000e+01
-2.149088621139525923e+00 1.702736020088196023e+00 -6.330122947692871094e-01 1.300000000000000000e+01
-2.529441356658935991e+00 2.004810571670531782e+00 -6.273799538612365723e-01 1.300000000000000000e+01
-3.045797586441040039e+00 2.415801048278809038e+00 -6.157260537147521973e-01 9.000000000000000000e+00
-3.907319545745850053e+00 3.101347208023070845e+00 -6.125153303146362305e-01 1.000000000000000000e+01
-3.506029510498046875e+01 2.782832336425780895e+01 7.089610099792479581e+00 1.500000000000000000e+01
-5.320765972137451172e+00 4.224752426147460938e+00 -5.944021940231323242e-01 4.000000000000000000e+00
-8.204849243164062500e+00 6.519420623779296875e+00 -5.492135286331176758e-01 2.000000000000000000e+00
-1.857807397842407005e+00 1.481476187705994096e+00 -6.366948485374450684e-01 1.800000000000000000e+01
-2.133992671966553178e+00 1.702934265136718972e+00 -6.303128600120544434e-01 1.300000000000000000e+01
-2.527030706405640093e+00 2.017302274703979048e+00 -6.285248398780822754e-01 1.300000000000000000e+01
-3.031172752380371094e+00 2.421486377716064009e+00 -6.144745945930480957e-01 9.000000000000000000e+00
-3.867010116577147993e+00 3.091416120529174805e+00 -6.078842878341674805e-01 8.000000000000000000e+00
-5.296650409698486328e+00 4.235833644866943359e+00 -5.933563113212585449e-01 4.000000000000000000e+00
-8.182042121887207031e+00 6.548021316528320312e+00 -5.492135286331176758e-01 2.000000000000000000e+00
-1.848106145858765093e+00 1.484322905540466087e+00 -6.351419091224670410e-01 1.500000000000000000e+01
-2.126516342163085938e+00 1.709152102470397949e+00 -6.298629641532897949e-01 1.300000000000000000e+01
-2.510793447494506836e+00 2.018729686737060991e+00 -6.262351274490356445e-01 1.300000000000000000e+01
-3.024240970611571822e+00 2.433290719985961914e+00 -6.147874593734741211e-01 1.000000000000000000e+01
-3.859287738800048828e+00 3.107385635375977007e+00 -6.083717346191406250e-01 8.000000000000000000e+00
-5.294245719909667969e+00 4.264295101165770596e+00 -5.947507619857788086e-01 4.000000000000000000e+00
-8.128035545349121094e+00 6.551474094390869141e+00 -5.471200942993164062e-01 2.000000000000000000e+00
-1.844415545463562012e+00 1.491979956626892090e+00 -6.356595754623413086e-01 1.900000000000000000e+01
-2.125081300735474077e+00 1.720242977142333984e+00 -6.312126517295837402e-01 1.300000000000000000e+01
-2.499154329299927202e+00 2.023775100708007812e+00 -6.250902414321899414e-01 1.300000000000000000e+01
-3.031075954437255859e+00 2.456269264221190962e+00 -6.179161071777343750e-01 1.000000000000000000e+01
-3.845333814620972124e+00 3.118337392807006836e+00 -6.078842878341674805e-01 8.000000000000000000e+00
-5.254571914672851562e+00 4.262666225433349609e+00 -5.919618010520935059e-01 5.000000000000000000e+00
-8.105116844177246094e+00 6.579806327819824219e+00 -5.471200942993164062e-01 2.000000000000000000e+00
-1.830210089683532937e+00 1.491087794303894043e+00 -6.325537562370300293e-01 1.800000000000000000e+01
-2.120573997497559038e+00 1.728881716728210005e+00 -6.316625475883483887e-01 1.400000000000000000e+01
-2.490553379058837891e+00 2.031245708465576172e+00 -6.247086524963378906e-01 1.300000000000000000e+01
-3.014831542968750000e+00 2.460589647293090820e+00 -6.163517832756042480e-01 9.000000000000000000e+00
-3.840575218200684038e+00 3.136764049530028853e+00 -6.088592410087585449e-01 9.000000000000000000e+00
-5.233488559722900391e+00 4.275939464569091797e+00 -5.912645459175109863e-01 4.000000000000000000e+00
-8.044990539550781250e+00 6.577717304229736328e+00 -5.446079373359680176e-01 2.000000000000000000e+00
-1.830967783927917036e+00 1.502369046211242898e+00 -6.346243023872375488e-01 2.000000000000000000e+01
-2.120550394058227983e+00 1.741220116615294966e+00 -6.334621906280517578e-01 1.100000000000000000e+01
-2.487998962402344194e+00 2.043665409088135210e+00 -6.258534789085388184e-01 1.300000000000000000e+01
-2.997068166732788086e+00 2.463572025299071822e+00 -6.144745945930480957e-01 9.000000000000000000e+00
-3.832668542861938032e+00 3.152673006057738814e+00 -6.093466877937316895e-01 9.000000000000000000e+00
-5.216992378234863281e+00 4.292915821075438565e+00 -5.910902619361877441e-01 4.000000000000000000e+00
-8.040482521057128906e+00 6.620994567871093750e+00 -5.458640456199645996e-01 2.000000000000000000e+00
-1.834911942481995073e+00 1.515814781188965066e+00 -6.377301216125488281e-01 1.900000000000000000e+01
-2.093737125396728960e+00 1.730859398841857910e+00 -6.271635293960571289e-01 1.100000000000000000e+01
-2.478182315826416016e+00 2.049402475357056108e+00 -6.250902414321899414e-01 1.200000000000000000e+01
-2.985838413238524947e+00 2.470978260040283203e+00 -6.138488650321960449e-01 9.000000000000000000e+00
-3.448269271850585938e+01 2.854684448242187855e+01 5.496551036834716797e+00 3.700000000000000000e+01
-3.808433055877685991e+00 3.153970003128052202e+00 -6.071530580520629883e-01 9.000000000000000000e+00
-5.185851097106933594e+00 4.296210765838623047e+00 -5.891728401184082031e-01 4.000000000000000000e+00
-7.984655857086181641e+00 6.619577884674072266e+00 -5.435612201690673828e-01 2.000000000000000000e+00
-1.823669314384460005e+00 1.517268300056457964e+00 -6.356595754623413086e-01 1.800000000000000000e+01
-2.098165988922119141e+00 1.746885538101196067e+00 -6.303128600120544434e-01 1.200000000000000000e+01
-2.457436561584473100e+00 2.046732425689696822e+00 -6.216557025909423828e-01 1.200000000000000000e+01
-2.981747388839722124e+00 2.485179901123046875e+00 -6.147874593734741211e-01 8.000000000000000000e+00
-3.791302680969237837e+00 3.162158966064453125e+00 -6.061781048774719238e-01 9.000000000000000000e+00
-5.186120986938476562e+00 4.327050685882568359e+00 -5.909159183502197266e-01 4.000000000000000000e+00
-7.952301502227783203e+00 6.639728546142578125e+00 -5.429332256317138672e-01 2.000000000000000000e+00
-1.819842696189879927e+00 1.524865627288817915e+00 -6.361772418022155762e-01 2.100000000000000000e+01
-2.095041990280150923e+00 1.756703138351439986e+00 -6.312126517295837402e-01 1.200000000000000000e+01
-2.451781272888184038e+00 2.056559801101685014e+00 -6.220373511314392090e-01 1.100000000000000000e+01
-2.971541166305541992e+00 2.494302988052368164e+00 -6.144745945930480957e-01 9.000000000000000000e+00
-3.780241489410399947e+00 3.175373792648314986e+00 -6.061781048774719238e-01 9.000000000000000000e+00
-5.158782482147216797e+00 4.334873199462890625e+00 -5.895214676856994629e-01 5.000000000000000000e+00
-7.913789749145507812e+00 6.654592990875244141e+00 -5.418865084648132324e-01 2.000000000000000000e+00
-1.801221132278441939e+00 1.519995689392090066e+00 -6.315184831619262695e-01 2.300000000000000000e+01
-2.087408304214477983e+00 1.762748122215270996e+00 -6.307627558708190918e-01 1.200000000000000000e+01
-2.444587707519530806e+00 2.065105438232421875e+00 -6.220373511314392090e-01 1.100000000000000000e+01
-2.962816476821898970e+00 2.504660367965697798e+00 -6.144745945930480957e-01 9.000000000000000000e+00
-3.767618894577025923e+00 3.187267780303955078e+00 -6.059343814849853516e-01 9.000000000000000000e+00
-5.125368595123291016e+00 4.337409496307373047e+00 -5.874297022819519043e-01 4.000000000000000000e+00
-7.878319740295410156e+00 6.671850681304931641e+00 -5.410491228103637695e-01 2.000000000000000000e+00
-1.806476712226867898e+00 1.534715890884398970e+00 -6.351419091224670410e-01 2.400000000000000000e+01
-2.081551313400268999e+00 1.769660592079163042e+00 -6.307627558708190918e-01 1.200000000000000000e+01
-2.443708181381226030e+00 2.078288316726685014e+00 -6.235638260841369629e-01 1.100000000000000000e+01
-2.937946796417235884e+00 2.500388622283935991e+00 -6.110330224037170410e-01 9.000000000000000000e+00
-3.757028818130493164e+00 3.199744224548339844e+00 -6.059343814849853516e-01 9.000000000000000000e+00
-5.095791339874267578e+00 4.341461181640625000e+00 -5.856865644454956055e-01 5.000000000000000000e+00
-7.856151580810546875e+00 6.697939395904541016e+00 -5.410491228103637695e-01 2.000000000000000000e+00
-1.795236945152282937e+00 1.535988569259643999e+00 -6.330713629722595215e-01 2.500000000000000000e+01
-2.063519001007080078e+00 1.766776442527770996e+00 -6.271635293960571289e-01 1.300000000000000000e+01
-2.433456659317017046e+00 2.084251642227172852e+00 -6.228005886077880859e-01 1.100000000000000000e+01
-2.929200887680054155e+00 2.510628700256348100e+00 -6.110330224037170410e-01 8.000000000000000000e+00
-3.733782529830933061e+00 3.202500104904174805e+00 -6.039844751358032227e-01 9.000000000000000000e+00
-5.082117557525634766e+00 4.360519409179688388e+00 -5.858609080314636230e-01 4.000000000000000000e+00
-7.793324947357177734e+00 6.691493511199951172e+00 -5.383276343345642090e-01 2.000000000000000000e+00
-1.799186229705810991e+00 1.549184083938599077e+00 -6.361772418022155762e-01 2.200000000000000000e+01
-2.056482076644897017e+00 1.771978378295897993e+00 -6.267136335372924805e-01 1.300000000000000000e+01
-2.423922538757324219e+00 2.089322566986083984e+00 -6.220373511314392090e-01 1.100000000000000000e+01
-2.927282333374022993e+00 2.524979591369628906e+00 -6.122844815254211426e-01 8.000000000000000000e+00
-3.702665328979492188e+00 3.196054935455321822e+00 -6.005721092224121094e-01 9.000000000000000000e+00
-5.080457687377929688e+00 4.386880874633789062e+00 -5.872554183006286621e-01 5.000000000000000000e+00
-7.787376880645751953e+00 6.729001998901367188e+00 -5.393743515014648438e-01 2.000000000000000000e+00
-1.785010457038878950e+00 1.547861218452454057e+00 -6.330713629722595215e-01 2.200000000000000000e+01
-2.053227901458739790e+00 1.781700491905211958e+00 -6.276134252548217773e-01 1.300000000000000000e+01
-2.412167072296143022e+00 2.093909978866577148e+00 -6.208924651145935059e-01 1.200000000000000000e+01
-2.918450593948363814e+00 2.535182476043701172e+00 -6.122844815254211426e-01 9.000000000000000000e+00
-3.710962533950806108e+00 3.225890636444091797e+00 -6.037407517433166504e-01 1.100000000000000000e+01
-5.042562007904052734e+00 4.384977817535400391e+00 -5.846407413482666016e-01 5.000000000000000000e+00
-7.766854286193847656e+00 6.758766651153563565e+00 -5.395836830139160156e-01 2.000000000000000000e+00
-1.769141077995300071e+00 1.545496463775634988e+00 -6.294479370117187500e-01 2.300000000000000000e+01
-2.058421134948730025e+00 1.799474596977234109e+00 -6.312126517295837402e-01 1.300000000000000000e+01
-2.404476165771483931e+00 2.102736949920653853e+00 -6.208924651145935059e-01 1.200000000000000000e+01
-2.904679536819458008e+00 2.541959285736083984e+00 -6.113458871841430664e-01 9.000000000000000000e+00
-3.694633960723876953e+00 3.235546827316284180e+00 -6.030095219612121582e-01 9.000000000000000000e+00
-5.002478122711181641e+00 4.382423877716063565e+00 -5.818517208099365234e-01 4.000000000000000000e+00
-7.745033740997313565e+00 6.789821147918701172e+00 -5.397930741310119629e-01 2.000000000000000000e+00
-1.770987749099731001e+00 1.558042645454406960e+00 -6.320360898971557617e-01 2.200000000000000000e+01
-2.038963317871094194e+00 1.795059561729430930e+00 -6.271635293960571289e-01 1.300000000000000000e+01
-2.392701625823975053e+00 2.107224702835083008e+00 -6.197476387023925781e-01 1.200000000000000000e+01
-2.894306659698485884e+00 2.550776958465576172e+00 -6.110330224037170410e-01 9.000000000000000000e+00
-3.680339813232421875e+00 3.245797634124755859e+00 -6.025220155715942383e-01 9.000000000000000000e+00
-4.978185653686523438e+00 4.391950130462645596e+00 -5.808058977127075195e-01 5.000000000000000000e+00
-7.694335460662841797e+00 6.793021678924561435e+00 -5.379089713096618652e-01 2.000000000000000000e+00
-1.765538334846497026e+00 1.564215064048767090e+00 -6.320360898971557617e-01 2.100000000000000000e+01
-2.029768466949462891e+00 1.799580335617064986e+00 -6.262637376785278320e-01 1.400000000000000000e+01
-2.395612955093383789e+00 2.124682664871215820e+00 -6.224189400672912598e-01 1.200000000000000000e+01
-2.880953073501586914e+00 2.556930780410767046e+00 -6.100944280624389648e-01 9.000000000000000000e+00
-3.671955823898314986e+00 3.261261224746704102e+00 -6.030095219612121582e-01 9.000000000000000000e+00
-4.982187271118164062e+00 4.426503658294677734e+00 -5.830719470977783203e-01 4.000000000000000000e+00
-7.652664661407470703e+00 6.803913593292236328e+00 -5.366529226303100586e-01 2.000000000000000000e+00
-1.771599411964416948e+00 1.580657482147217019e+00 -6.361772418022155762e-01 2.400000000000000000e+01
-2.029289007186890093e+00 1.811846137046813965e+00 -6.280633211135864258e-01 1.400000000000000000e+01
-2.377932310104370117e+00 2.123877525329589844e+00 -6.197476387023925781e-01 1.200000000000000000e+01
-2.877901315689086914e+00 2.572237014770507812e+00 -6.113458871841430664e-01 9.000000000000000000e+00
-3.645753383636475053e+00 3.260824918746947798e+00 -6.005721092224121094e-01 9.000000000000000000e+00
-4.947402954101563388e+00 4.426597118377686435e+00 -5.808058977127075195e-01 5.000000000000000000e+00
-7.628868103027343750e+00 6.830585002899169922e+00 -5.366529226303100586e-01 2.000000000000000000e+00
-1.757449150085448997e+00 1.579084992408751997e+00 -6.330713629722595215e-01 2.200000000000000000e+01
-2.020053863525391069e+00 1.816312789916991965e+00 -6.271635293960571289e-01 1.400000000000000000e+01
-2.366125106811522993e+00 2.128226280212401900e+00 -6.186027526855468750e-01 1.200000000000000000e+01
-2.865968704223632812e+00 2.579624176025391069e+00 -6.107201576232910156e-01 9.000000000000000000e+00
-3.632873773574829102e+00 3.272202491760253906e+00 -6.003283858299255371e-01 8.000000000000000000e+00
-4.933401107788085938e+00 4.445173740386962891e+00 -5.809801816940307617e-01 5.000000000000000000e+00
-7.575312137603759766e+00 6.830423831939697266e+00 -5.345594286918640137e-01 2.000000000000000000e+00
-1.702312660217285156e+01 1.536000061035156072e+01 -4.002185761928557794e-01 3.000000000000000000e+00
-1.749061346054076926e+00 1.582617640495300071e+00 -6.320360898971557617e-01 2.100000000000000000e+01
-2.020924329757689986e+00 1.829892992973328081e+00 -6.294130682945251465e-01 1.500000000000000000e+01
-2.355771541595458984e+00 2.133836746215819868e+00 -6.178395152091979980e-01 1.200000000000000000e+01
-2.855483055114746094e+00 2.588285923004149947e+00 -6.104072928428649902e-01 8.000000000000000000e+00
-3.624370336532593218e+00 3.287531137466431108e+00 -6.008158922195434570e-01 8.000000000000000000e+00
-4.903099536895751953e+00 4.448978900909423828e+00 -5.792370438575744629e-01 5.000000000000000000e+00
-7.595782756805419922e+00 6.897103786468505859e+00 -5.376996397972106934e-01 2.000000000000000000e+00
-1.743803620338439941e+00 1.588409066200255904e+00 -6.320360898971557617e-01 2.200000000000000000e+01
-2.007643938064575195e+00 1.830020666122436968e+00 -6.271635293960571289e-01 1.400000000000000000e+01
-2.347231864929199219e+00 2.140314102172852007e+00 -6.174579262733459473e-01 1.200000000000000000e+01
-2.838129043579102007e+00 2.589751720428466797e+00 -6.085300445556640625e-01 8.000000000000000000e+00
-3.616380214691162109e+00 3.302208900451660156e+00 -6.013033390045166016e-01 9.000000000000000000e+00
-4.892732620239257812e+00 4.469244956970214844e+00 -5.797600150108337402e-01 4.000000000000000000e+00
-7.508005142211914062e+00 6.862963199615479404e+00 -5.330940485000610352e-01 2.000000000000000000e+00
-1.742519259452820046e+00 1.598404049873352051e+00 -6.335890293121337891e-01 2.300000000000000000e+01
-1.998372554779052956e+00 1.834381818771362083e+00 -6.262637376785278320e-01 1.600000000000000000e+01
-2.348422765731811968e+00 2.156461715698242188e+00 -6.197476387023925781e-01 1.100000000000000000e+01
-2.824708223342895952e+00 2.595633268356322798e+00 -6.075914502143859863e-01 9.000000000000000000e+00
-3.603370189666748047e+00 3.313468694686890093e+00 -6.010596156120300293e-01 9.000000000000000000e+00
-4.875635623931884766e+00 4.484947681427001953e+00 -5.795856714248657227e-01 5.000000000000000000e+00
-7.422285556793212891e+00 6.832317352294921875e+00 -5.286978483200073242e-01 2.000000000000000000e+00
-1.741186380386352983e+00 1.608409404754638894e+00 -6.351419091224670410e-01 2.200000000000000000e+01
-1.996250271797179954e+00 1.845314741134643999e+00 -6.276134252548217773e-01 1.600000000000000000e+01
-2.329349756240845171e+00 2.153982877731322798e+00 -6.166946887969970703e-01 1.100000000000000000e+01
-2.822879791259766069e+00 2.612185716629027876e+00 -6.091558337211608887e-01 9.000000000000000000e+00
-3.577216863632202148e+00 3.312539100646973100e+00 -5.986222028732299805e-01 9.000000000000000000e+00
-4.846796035766601562e+00 4.489753723144531250e+00 -5.780168771743774414e-01 5.000000000000000000e+00
-7.436474323272705078e+00 6.893486976623535156e+00 -5.314192771911621094e-01 2.000000000000000000e+00
-1.731317996978759988e+00 1.610530018806457964e+00 -6.335890293121337891e-01 1.900000000000000000e+01
-1.985517621040344016e+00 1.848288297653198020e+00 -6.262637376785278320e-01 1.400000000000000000e+01
-2.327563762664794922e+00 2.167452335357666016e+00 -6.182211637496948242e-01 1.200000000000000000e+01
-2.820970296859741211e+00 2.628756999969481978e+00 -6.107201576232910156e-01 9.000000000000000000e+00
-3.568535804748535156e+00 3.327713489532471147e+00 -5.991097092628479004e-01 9.000000000000000000e+00
-4.828180313110351562e+00 4.503926753997802734e+00 -5.776682496070861816e-01 5.000000000000000000e+00
-7.412366390228270596e+00 6.919403076171875000e+00 -5.314192771911621094e-01 2.000000000000000000e+00
-1.720327258110045943e+00 1.610980510711669922e+00 -6.315184831619262695e-01 1.800000000000000000e+01
-1.982221484184264915e+00 1.857527375221251997e+00 -6.271635293960571289e-01 1.400000000000000000e+01
-2.314634084701538086e+00 2.169788122177124023e+00 -6.166946887969970703e-01 1.100000000000000000e+01
-2.806474685668944868e+00 2.632691383361815962e+00 -6.094686985015869141e-01 9.000000000000000000e+00
-3.556033611297606978e+00 3.338170051574707031e+00 -5.988659262657165527e-01 9.000000000000000000e+00
-4.801599025726318359e+00 4.509001731872558594e+00 -5.762737989425659180e-01 5.000000000000000000e+00
-7.401023387908936435e+00 6.954886913299561435e+00 -5.322566628456115723e-01 2.000000000000000000e+00
-1.711882472038269043e+00 1.614325046539307085e+00 -6.304832100868225098e-01 1.900000000000000000e+01
-1.971473455429076926e+00 1.860422968864440918e+00 -6.258138418197631836e-01 1.500000000000000000e+01
-2.307046175003052202e+00 2.177854537963867188e+00 -6.166946887969970703e-01 1.100000000000000000e+01
-2.785780191421508789e+00 2.631619691848754883e+00 -6.069657206535339355e-01 9.000000000000000000e+00
-3.557342529296875000e+00 3.362835884094237837e+00 -6.010596156120300293e-01 9.000000000000000000e+00
-4.790173530578613281e+00 4.529841899871826172e+00 -5.767967104911804199e-01 5.000000000000000000e+00
-7.341885089874267578e+00 6.947731971740722656e+00 -5.297445654869079590e-01 2.000000000000000000e+00
-1.635787582397460938e+01 1.549052143096924006e+01 -3.932376205921173096e-01 3.000000000000000000e+00
-1.709321975708008035e+00 1.622653007507323997e+00 -6.315184831619262695e-01 1.700000000000000000e+01
-1.956816077232361062e+00 1.858897328376770020e+00 -6.231144070625305176e-01 1.300000000000000000e+01
-2.308350324630736861e+00 2.193607330322266069e+00 -6.189844012260437012e-01 1.200000000000000000e+01
-2.774175167083739790e+00 2.638120651245117188e+00 -6.063399910926818848e-01 9.000000000000000000e+00
-3.531791210174560991e+00 3.360929250717163086e+00 -5.986222028732299805e-01 9.000000000000000000e+00
-4.767910480499267578e+00 4.538833141326904297e+00 -5.759251713752746582e-01 4.000000000000000000e+00
-7.310128688812255859e+00 6.963774681091308594e+00 -5.291165113449096680e-01 2.000000000000000000e+00
-1.709233164787292036e+00 1.633949518203734907e+00 -6.335890293121337891e-01 1.700000000000000000e+01
-1.948907256126404031e+00 1.864369511604309082e+00 -6.226645112037658691e-01 1.100000000000000000e+01
-2.289331674575806108e+00 2.190792798995972124e+00 -6.159314513206481934e-01 1.100000000000000000e+01
-2.769229650497436968e+00 2.651886940002440962e+00 -6.072785854339599609e-01 8.000000000000000000e+00
-3.511438369750977007e+00 3.364996194839477983e+00 -5.971598029136657715e-01 9.000000000000000000e+00
-4.749161243438720703e+00 4.552690982818604404e+00 -5.755765438079833984e-01 5.000000000000000000e+00
-7.256949901580811435e+00 6.961596488952636719e+00 -5.270230770111083984e-01 2.000000000000000000e+00
-1.610779953002930043e+01 1.546302318572998047e+01 -3.897471427917479914e-01 3.000000000000000000e+00
-1.700735688209533913e+00 1.637226343154907005e+00 -6.325537562370300293e-01 1.800000000000000000e+01
-1.953615188598633035e+00 1.881977081298827903e+00 -6.262637376785278320e-01 9.000000000000000000e+00
-2.277429342269897017e+00 2.194683790206909180e+00 -6.147865653038024902e-01 1.200000000000000000e+01
-2.757112026214600053e+00 2.658794879913330078e+00 -6.066528558731079102e-01 8.000000000000000000e+00
-3.503956317901610884e+00 3.381368398666381836e+00 -5.978909730911254883e-01 9.000000000000000000e+00
-4.711738586425781250e+00 4.548484325408936435e+00 -5.729618668556213379e-01 4.000000000000000000e+00
-7.229732036590576172e+00 6.984110355377197266e+00 -5.268137454986572266e-01 2.000000000000000000e+00
-1.681139469146728960e+00 1.629706621170043945e+00 -6.273773908615112305e-01 1.600000000000000000e+01
-1.942837715148926003e+00 1.884714365005492942e+00 -6.249140501022338867e-01 6.000000000000000000e+00
-2.265527963638306108e+00 2.198518276214600053e+00 -6.136417388916015625e-01 1.100000000000000000e+01
-2.753482818603516069e+00 2.673907518386840820e+00 -6.079043149948120117e-01 8.000000000000000000e+00
-3.487860918045043945e+00 3.389428615570067915e+00 -5.971598029136657715e-01 9.000000000000000000e+00
-4.701547145843505859e+00 4.570458889007568359e+00 -5.736591219902038574e-01 5.000000000000000000e+00
-7.219624996185302734e+00 7.023231029510498047e+00 -5.278604626655578613e-01 2.000000000000000000e+00
-1.585616874694824041e+01 1.543561267852783025e+01 -3.862566649913787842e-01 3.000000000000000000e+00
-1.678205251693726030e+00 1.638263821601867898e+00 -6.284126639366149902e-01 1.800000000000000000e+01
-1.944610953330994096e+00 1.899655103683471902e+00 -6.276134252548217773e-01 6.000000000000000000e+00
-2.262052297592163086e+00 2.210529565811156782e+00 -6.147865653038024902e-01 1.200000000000000000e+01
-2.731421470642089844e+00 2.671072483062744141e+00 -6.050885319709777832e-01 9.000000000000000000e+00
-3.484521150588988814e+00 3.409913301467895952e+00 -5.986222028732299805e-01 9.000000000000000000e+00
-4.664208412170410156e+00 4.565936088562011719e+00 -5.710444450378417969e-01 4.000000000000000000e+00
-7.172237873077392578e+00 7.026026725769042969e+00 -5.261856913566589355e-01 2.000000000000000000e+00
-1.676609396934509055e+00 1.648174762725830078e+00 -6.299655437469482422e-01 1.900000000000000000e+01
-1.928243517875670943e+00 1.896865248680114968e+00 -6.244641542434692383e-01 8.000000000000000000e+00
-2.257121086120605025e+00 2.221166133880614790e+00 -6.155498027801513672e-01 1.200000000000000000e+01
-2.722081184387207031e+00 2.680590629577637163e+00 -6.050885319709777832e-01 9.000000000000000000e+00
-3.452802181243896040e+00 3.402548789978026900e+00 -5.952098965644836426e-01 9.000000000000000000e+00
-4.656755447387695312e+00 4.590581417083740234e+00 -5.720902681350708008e-01 6.000000000000000000e+00
-7.133450031280517578e+00 7.036993503570556641e+00 -5.251389741897583008e-01 2.000000000000000000e+00
-1.681829333305359109e+00 1.664889931678771973e+00 -6.341066360473632812e-01 1.900000000000000000e+01
-1.927148222923279031e+00 1.909070372581481934e+00 -6.262637376785278320e-01 1.000000000000000000e+01
-2.245170354843140093e+00 2.224885702133179155e+00 -6.144049763679504395e-01 1.200000000000000000e+01
-2.718317985534667969e+00 2.695640087127685991e+00 -6.063399910926818848e-01 1.000000000000000000e+01
-3.442312955856322798e+00 3.415978908538817915e+00 -5.954536199569702148e-01 1.100000000000000000e+01
-4.646358489990234375e+00 4.612423419952392578e+00 -5.727875232696533203e-01 5.000000000000000000e+00
-7.094673156738281250e+00 7.047775268554688388e+00 -5.240922570228576660e-01 2.000000000000000000e+00
-1.555184268951416016e+01 1.545982837677001953e+01 -3.827661871910095215e-01 3.000000000000000000e+00
-1.665062189102173074e+00 1.659839510917664018e+00 -6.299655437469482422e-01 1.900000000000000000e+01
-1.917713284492492898e+00 1.913033127784729004e+00 -6.253639459609985352e-01 1.400000000000000000e+01
-2.226272821426392046e+00 2.221615076065063032e+00 -6.113520264625549316e-01 1.100000000000000000e+01
-2.703300714492797852e+00 2.699528932571411133e+00 -6.050885319709777832e-01 9.000000000000000000e+00
-3.426155567169189009e+00 3.423764467239379883e+00 -5.947223901748657227e-01 9.000000000000000000e+00
-4.638684272766113281e+00 4.637065410614013672e+00 -5.738334059715270996e-01 2.000000000000000000e+00
-7.055908679962158203e+00 7.058372020721436435e+00 -5.230455398559570312e-01 2.000000000000000000e+00
-1.655457973480225053e+00 1.661246657371520996e+00 -6.284126639366149902e-01 1.800000000000000000e+01
-1.916859149932861106e+00 1.924905419349669966e+00 -6.271635293960571289e-01 1.400000000000000000e+01
-2.218893527984619141e+00 2.228985548019409180e+00 -6.113520264625549316e-01 1.200000000000000000e+01
-2.694334030151367188e+00 2.708478450775146040e+00 -6.050885319709777832e-01 9.000000000000000000e+00
-3.409185171127318892e+00 3.429475784301757812e+00 -5.937474370002746582e-01 9.000000000000000000e+00
-4.600811481475830078e+00 4.629810333251953125e+00 -5.710444450378417969e-01 3.000000000000000000e+00
-7.052165985107421875e+00 7.101572036743164062e+00 -5.245109796524047852e-01 2.000000000000000000e+00
-1.646931290626526101e+00 1.664268851280211958e+00 -6.273773908615112305e-01 1.900000000000000000e+01
-1.904647350311279075e+00 1.926042199134827104e+00 -6.253639459609985352e-01 1.400000000000000000e+01
-2.216620206832886186e+00 2.242302179336547852e+00 -6.128785014152526855e-01 1.200000000000000000e+01
-2.676533699035644975e+00 2.709435224533081055e+00 -6.032112836837768555e-01 9.000000000000000000e+00
-3.405560731887816939e+00 3.449831485748291016e+00 -5.952098965644836426e-01 9.000000000000000000e+00
-4.570627689361572266e+00 4.631660461425781250e+00 -5.693013072013854980e-01 4.000000000000000000e+00
-7.016114711761474609e+00 7.114768505096436435e+00 -5.236735939979553223e-01 2.000000000000000000e+00
-1.649236202239990012e+00 1.678274989128113015e+00 -6.304832100868225098e-01 1.900000000000000000e+01
-1.889720201492310014e+00 1.924336433410644975e+00 -6.226645112037658691e-01 1.300000000000000000e+01
-2.218406915664672852e+00 2.259832859039307085e+00 -6.155498027801513672e-01 1.200000000000000000e+01
-2.667059659957886186e+00 2.718761444091796875e+00 -6.032112836837768555e-01 9.000000000000000000e+00
-3.379601478576660156e+00 3.447522401809691939e+00 -5.927724838256835938e-01 9.000000000000000000e+00
-4.562799453735351562e+00 4.656125068664550781e+00 -5.703471899032592773e-01 6.000000000000000000e+00
-6.966083526611328125e+00 7.113530158996582031e+00 -5.217894911766052246e-01 2.000000000000000000e+00
-1.640669465065001997e+00 1.681256413459778054e+00 -6.294479370117187500e-01 1.800000000000000000e+01
-1.882991433143615945e+00 1.930921077728271040e+00 -6.226645112037658691e-01 1.300000000000000000e+01
-2.207764387130736861e+00 2.264751195907593218e+00 -6.147865653038024902e-01 1.200000000000000000e+01
-2.660310029983520952e+00 2.730884790420531782e+00 -6.038370132446289062e-01 9.000000000000000000e+00
-3.364777326583861861e+00 3.456453561782836914e+00 -5.922850370407104492e-01 9.000000000000000000e+00
-4.543739795684813565e+00 4.669167995452880859e+00 -5.699985623359680176e-01 6.000000000000000000e+00
-6.910577297210693359e+00 7.106302261352539062e+00 -5.194867253303527832e-01 2.000000000000000000e+00
-1.632689714431762917e+00 1.683628797531127930e+00 -6.284126639366149902e-01 1.700000000000000000e+01
-1.885052919387816939e+00 1.945223689079284890e+00 -6.253639459609985352e-01 1.400000000000000000e+01
-2.182880401611328125e+00 2.253344535827637163e+00 -6.098255515098571777e-01 1.100000000000000000e+01
-2.655839443206787109e+00 2.743486642837523970e+00 -6.047756671905517578e-01 8.000000000000000000e+00
-3.369084358215332031e+00 3.482701539993286133e+00 -5.949661135673522949e-01 9.000000000000000000e+00
-4.517968654632568359e+00 4.671961784362792969e+00 -5.686040520668029785e-01 7.000000000000000000e+00
-6.899321079254150391e+00 7.139467239379882812e+00 -5.203240513801574707e-01 2.000000000000000000e+00
-1.621442675590514915e+00 1.683751463890075906e+00 -6.263421177864074707e-01 1.800000000000000000e+01
-1.878251314163208008e+00 1.951792001724242942e+00 -6.253639459609985352e-01 1.400000000000000000e+01
-2.185889959335327148e+00 2.272269487380981001e+00 -6.128785014152526855e-01 1.200000000000000000e+01
-2.646246671676636186e+00 2.752740621566772017e+00 -6.047756671905517578e-01 8.000000000000000000e+00
-3.345905065536499023e+00 3.482988119125366211e+00 -5.930162072181701660e-01 8.000000000000000000e+00
-4.491972446441650391e+00 4.677644252777099609e+00 -5.673838853836059570e-01 6.000000000000000000e+00
-6.871592044830322266e+00 7.160624980926513672e+00 -5.201147198677062988e-01 2.000000000000000000e+00
-1.618225812911987083e+00 1.692193508148192915e+00 -6.273773908615112305e-01 1.800000000000000000e+01
-1.871426939964293990e+00 1.958336353302001953e+00 -6.253639459609985352e-01 1.300000000000000000e+01
-2.175232887268065962e+00 2.277046680450439009e+00 -6.121152639389038086e-01 1.200000000000000000e+01
-2.618889808654785156e+00 2.743385791778564009e+00 -6.007083654403686523e-01 9.000000000000000000e+00
-3.344688415527344194e+00 3.506137132644652876e+00 -5.949661135673522949e-01 8.000000000000000000e+00
-4.471492290496826172e+00 4.688970088958740234e+00 -5.668609738349914551e-01 6.000000000000000000e+00
-6.805219173431395596e+00 7.141191005706787109e+00 -5.169745683670043945e-01 2.000000000000000000e+00
-1.617630243301392046e+00 1.703435301780700906e+00 -6.294479370117187500e-01 1.900000000000000000e+01
-5.851336288452147727e+01 6.163866806030272727e+01 1.483489394187927024e+00 2.000000000000000000e+00
-1.855189681053162065e+00 1.954962015151977983e+00 -6.222146153450012207e-01 1.200000000000000000e+01
-2.175378084182738814e+00 2.293171644210814986e+00 -6.144049763679504395e-01 1.200000000000000000e+01
-2.605220556259154829e+00 2.748209953308105025e+00 -5.997697114944458008e-01 8.000000000000000000e+00
-3.322873115539550781e+00 3.507703065872191939e+00 -5.932599902153015137e-01 8.000000000000000000e+00
-4.459207534790039062e+00 4.708889961242675781e+00 -5.673838853836059570e-01 6.000000000000000000e+00
-6.796723842620849609e+00 7.182310581207275391e+00 -5.182306170463562012e-01 2.000000000000000000e+00
-1.615351319313049094e+00 1.713569879531859907e+00 -6.310008168220520020e-01 2.100000000000000000e+01
-1.850684404373168945e+00 1.964585423469543013e+00 -6.231144070625305176e-01 1.200000000000000000e+01
-2.158883094787598100e+00 2.292553901672362837e+00 -6.121152639389038086e-01 1.200000000000000000e+01
-2.607314109802246094e+00 2.770687341690063032e+00 -6.025855541229248047e-01 9.000000000000000000e+00
-3.296395540237427202e+00 3.505397319793701172e+00 -5.908225774765014648e-01 8.000000000000000000e+00
-4.441918373107910156e+00 4.725202083587645596e+00 -5.673838853836059570e-01 6.000000000000000000e+00
-6.751209259033203125e+00 7.186793804168701172e+00 -5.167652368545532227e-01 2.000000000000000000e+00
-1.600118398666382058e+00 1.709325790405272993e+00 -6.273773908615112305e-01 1.800000000000000000e+01
-1.843815445899962935e+00 1.971033573150634988e+00 -6.231144070625305176e-01 1.200000000000000000e+01
-2.145503520965576172e+00 2.294339895248413086e+00 -6.105887889862060547e-01 1.100000000000000000e+01
-2.607067584991455078e+00 2.789874792098999023e+00 -6.047756671905517578e-01 8.000000000000000000e+00
-3.289558649063109907e+00 3.522686004638671875e+00 -5.917975306510925293e-01 9.000000000000000000e+00
-4.418599605560302734e+00 4.733396530151367188e+00 -5.665123462677001953e-01 6.000000000000000000e+00
-6.712457656860351562e+00 7.195711135864257812e+00 -5.157185196876525879e-01 2.000000000000000000e+00
-1.591810226440429910e+00 1.711793184280395952e+00 -6.263421177864074707e-01 1.800000000000000000e+01
-1.839922189712523970e+00 1.979992032051085982e+00 -6.240141987800598145e-01 1.300000000000000000e+01
-2.135211229324340820e+00 2.298565149307250977e+00 -6.098255515098571777e-01 1.100000000000000000e+01
-2.583018541336060014e+00 2.782579421997069868e+00 -6.013340950012207031e-01 9.000000000000000000e+00
-3.276508808135985884e+00 3.532119750976562944e+00 -5.915538072586059570e-01 9.000000000000000000e+00
-4.400169372558593750e+00 4.745100975036621094e+00 -5.661637187004089355e-01 6.000000000000000000e+00
-6.688559055328369141e+00 7.217931270599365234e+00 -5.157185196876525879e-01 2.000000000000000000e+00
-1.591067671775818093e+00 1.723016381263732910e+00 -6.284126639366149902e-01 1.800000000000000000e+01
-1.830356359481811968e+00 1.983538269996643066e+00 -6.231144070625305176e-01 1.300000000000000000e+01
-2.124512434005736861e+00 2.303118467330933061e+00 -6.090623140335083008e-01 1.100000000000000000e+01
-2.567934513092041016e+00 2.785769224166870117e+00 -6.000826358795166016e-01 9.000000000000000000e+00
-3.266849279403686968e+00 3.546455383300780806e+00 -5.920412540435791016e-01 9.000000000000000000e+00
-4.370082855224609375e+00 4.745775222778320312e+00 -5.644205808639526367e-01 4.000000000000000000e+00
-6.663322925567626953e+00 7.241234302520751953e+00 -5.157185196876525879e-01 2.000000000000000000e+00
-1.403085517883300959e+01 1.525844097137450994e+01 -3.618232905864716131e-01 3.000000000000000000e+00
-1.588657975196837935e+00 1.733108520507812944e+00 -6.299655437469482422e-01 1.900000000000000000e+01
-1.819125175476073997e+00 1.985922574996948020e+00 -6.217647194862365723e-01 1.400000000000000000e+01
-2.124011754989624023e+00 2.319577217102050781e+00 -6.113520264625549316e-01 1.300000000000000000e+01
-2.563040971755981001e+00 2.800991773605347124e+00 -6.013340950012207031e-01 9.000000000000000000e+00
-3.251149892807006836e+00 3.555475234985352007e+00 -5.915538072586059570e-01 9.000000000000000000e+00
-4.362068653106688565e+00 4.772054672241210938e+00 -5.656407475471496582e-01 6.000000000000000000e+00
-6.636737823486328125e+00 7.265608310699462891e+00 -5.157185196876525879e-01 2.000000000000000000e+00
-1.397483634948729936e+01 1.530976390838623047e+01 -3.618232905864716131e-01 3.000000000000000000e+00
-1.581298232078552024e+00 1.737214803695678933e+00 -6.294479370117187500e-01 1.900000000000000000e+01
-1.812181949615478960e+00 1.992260336875915971e+00 -6.217647194862365723e-01 1.400000000000000000e+01
-2.113260507583618164e+00 2.324072122573852983e+00 -6.105887889862060547e-01 1.300000000000000000e+01
-2.555904865264893022e+00 2.812845230102539062e+00 -6.019598245620727539e-01 9.000000000000000000e+00
-3.228043556213378906e+00 3.555045127868651900e+00 -5.896039009094238281e-01 9.000000000000000000e+00
-4.345384597778320312e+00 4.787251949310302734e+00 -5.656407475471496582e-01 6.000000000000000000e+00
-6.579131126403808594e+00 7.253226280212402344e+00 -5.132063627243041992e-01 2.000000000000000000e+00
-1.392130947113036932e+01 1.535845184326172053e+01 -3.618232905864716131e-01 3.000000000000000000e+00
-1.581016421318053977e+00 1.747904896736145020e+00 -6.315184831619262695e-01 1.900000000000000000e+01
-1.807220816612244096e+00 1.999389290809630904e+00 -6.222146153450012207e-01 1.600000000000000000e+01
-2.100683927536011186e+00 2.324872970581055132e+00 -6.090623140335083008e-01 1.200000000000000000e+01
-2.549703121185303178e+00 2.823793172836304155e+00 -6.025855541229248047e-01 9.000000000000000000e+00
-3.212869644165039062e+00 3.560747385025023970e+00 -5.888726711273193359e-01 8.000000000000000000e+00
-4.318313598632813388e+00 4.787564754486083984e+00 -5.640719532966613770e-01 6.000000000000000000e+00
-6.521544456481933594e+00 7.235286712646484375e+00 -5.104849338531494141e-01 2.000000000000000000e+00
-1.561996459960937944e+00 1.739040732383728027e+00 -6.263421177864074707e-01 1.800000000000000000e+01
-1.800230622291564941e+00 2.005685567855834961e+00 -6.222146153450012207e-01 1.200000000000000000e+01
-2.092555761337279829e+00 2.332191467285155806e+00 -6.090623140335083008e-01 1.200000000000000000e+01
-2.537193298339844194e+00 2.829734802246094194e+00 -6.019598245620727539e-01 9.000000000000000000e+00
-3.204394817352294922e+00 3.576375961303710938e+00 -5.896039009094238281e-01 9.000000000000000000e+00
-4.286953449249267578e+00 4.786283969879150391e+00 -5.621545314788818359e-01 7.000000000000000000e+00
-6.541537761688232422e+00 7.308606624603270596e+00 -5.140437483787536621e-01 2.000000000000000000e+00
-1.548880577087401900e+00 1.737814664840698020e+00 -6.237539052963256836e-01 1.600000000000000000e+01
-1.788627862930298074e+00 2.008217334747314009e+00 -6.208649277687072754e-01 1.100000000000000000e+01
-2.078363418579102007e+00 2.334343910217285156e+00 -6.075358390808105469e-01 1.100000000000000000e+01
-2.510552644729613814e+00 2.821746110916138139e+00 -5.982053875923156738e-01 9.000000000000000000e+00
-3.191957712173461914e+00 3.590137243270874023e+00 -5.898476243019104004e-01 8.000000000000000000e+00
-4.273838043212890625e+00 4.808666229248046875e+00 -5.628517866134643555e-01 6.000000000000000000e+00
-6.513426303863525391e+00 7.333670139312744141e+00 -5.140437483787536621e-01 2.000000000000000000e+00
-1.551767349243164062e+00 1.753337264060973899e+00 -6.273773908615112305e-01 1.800000000000000000e+01
-1.780315876007080078e+00 2.012989044189453125e+00 -6.204150319099426270e-01 1.200000000000000000e+01
-2.079304933547974077e+00 2.351880550384521040e+00 -6.102071404457092285e-01 1.200000000000000000e+01
-2.508534908294678178e+00 2.839374780654906782e+00 -6.000826358795166016e-01 9.000000000000000000e+00
-3.178092718124390093e+00 3.599769115447998047e+00 -5.896039009094238281e-01 9.000000000000000000e+00
-4.247797966003417969e+00 4.813098430633544922e+00 -5.616316199302673340e-01 6.000000000000000000e+00
-6.432302474975585938e+00 7.293448448181152344e+00 -5.096475481986999512e-01 2.000000000000000000e+00
-1.548803091049193892e+00 1.761104941368103027e+00 -6.284126639366149902e-01 1.800000000000000000e+01
-1.772696733474731001e+00 2.017108201980590820e+00 -6.199650764465332031e-01 1.300000000000000000e+01
-2.066723108291625977e+00 2.352501630783081055e+00 -6.086806654930114746e-01 1.100000000000000000e+01
-2.502208948135375977e+00 2.850210428237915039e+00 -6.007083654403686523e-01 9.000000000000000000e+00
-3.152367591857910156e+00 3.593321084976195845e+00 -5.869227647781372070e-01 8.000000000000000000e+00
