3.535523605346679688e+01 4.422527790069580078e+00 8.226010322570800781e+00 1.000000000000000000e+01
1.629883575439453125e+01 2.035905361175537109e+00 -2.867081463336945135e-01 2.000000000000000000e+00
3.668476104736328125e+01 4.582333087921142578e+00 9.906040191650390625e+00 7.000000000000000000e+00
2.296910047531127930e+00 2.836529314517974854e-01 -6.201304197311401367e-01 1.600000000000000000e+01
5.948826217651367188e+01 7.335859775543212891e+00 1.046236872673034890e+00 6.300000000000000000e+01
2.088861942291260210e+00 2.572201788425446112e-01 -4.858942627906798761e-01 5.400000000000000000e+01
3.111880302429199219e+00 3.826421797275543213e-01 -6.094439029693603516e-01 1.000000000000000000e+01
3.742965936660767046e+00 4.589153230190277100e-01 -5.972667932510375977e-01 1.000000000000000000e+01
3.727761840820313211e+01 4.563908100128173828e+00 4.611292362213134766e+00 1.900000000000000000e+01
4.774333000183104581e+00 5.836769938468933105e-01 -5.905788540840148926e-01 8.000000000000000000e+00
6.164514064788818359e+00 7.525390386581420898e-01 -5.433288812637329102e-01 9.000000000000000000e+00
9.173608779907226562e+00 1.116627335548401101e+00 -4.843169450759888250e-01 1.000000000000000000e+00
3.598949813842772727e+01 4.374329090118408203e+00 8.369978904724121094e+00 1.000000000000000000e+01
1.632569503784180043e+01 1.981408596038817915e+00 -2.870571911334990900e-01 5.000000000000000000e+00
3.680025863647460938e+01 4.466354846954345703e+00 9.932957649230957031e+00 8.000000000000000000e+00
2.084976673126221147e+00 2.500948309898375910e-01 -5.626726150512695312e-01 2.900000000000000000e+01
2.118771314620972124e+00 2.533983290195465088e-01 -4.926428198814392090e-01 2.600000000000000000e+01
3.113197088241577148e+00 3.717773556709290106e-01 -6.094439029693603516e-01 1.100000000000000000e+01
3.738660335540771040e+00 4.451464712619780939e-01 -5.963281989097595215e-01 9.000000000000000000e+00
3.768756484985352273e+01 4.480628013610839844e+00 4.660039901733398438e+00 2.000000000000000000e+01
4.786197185516357422e+00 5.681779384613037109e-01 -5.917975306510925293e-01 9.000000000000000000e+00
6.155232429504395419e+00 7.296091318130493164e-01 -5.422830581665039062e-01 8.000000000000000000e+00
9.113980293273925781e+00 1.077097654342650923e+00 -4.809674322605133057e-01 1.000000000000000000e+00
3.596584320068358664e+01 4.244108200073242188e+00 8.360980987548828125e+00 1.000000000000000000e+01
1.645961380004883168e+01 1.939385175704956055e+00 -2.892910838127136230e-01 2.000000000000000000e+00
3.675423049926757812e+01 4.330636978149414062e+00 9.916393280029296875e+00 7.000000000000000000e+00
2.041702508926392046e+00 2.376776188611983975e-01 -5.507669448852539062e-01 5.200000000000000000e+01
2.113835811614989790e+00 2.453269213438034058e-01 -4.912931025028228760e-01 1.000000000000000000e+02
3.940189743041992188e+01 4.565924167633056641e+00 2.078784227371215820e+00 2.200000000000000000e+01
3.118376255035399947e+00 3.613599836826323908e-01 -6.102071404457092285e-01 1.200000000000000000e+01
3.738229036331177202e+00 4.318667054176331122e-01 -5.960153341293334961e-01 1.000000000000000000e+01
4.065705871582031250e+01 4.689800739288330078e+00 5.025160312652587891e+00 2.500000000000000000e+01
4.805900096893311435e+00 5.535117387771606445e-01 -5.939911603927612305e-01 1.100000000000000000e+01
6.169617652893066406e+00 7.094845771789550781e-01 -5.433288812637329102e-01 9.000000000000000000e+00
9.121652603149414062e+00 1.045732378959655984e+00 -4.811767935752869207e-01 1.200000000000000000e+01
3.656126785278320312e+01 4.185023307800292969e+00 8.495951652526855469e+00 1.100000000000000000e+01
1.654972648620605113e+01 1.891455411911010964e+00 -2.907570898532866877e-01 2.000000000000000000e+00
3.617484283447266336e+01 4.127998352050781250e+00 9.755925178527832031e+00 7.000000000000000000e+00
2.055957317352294922e+00 2.320660650730133057e-01 -5.543903708457946777e-01 2.000000000000000000e+01
5.956182098388671875e+01 6.712509155273438388e+00 1.046236872673034890e+00 6.300000000000000000e+01
2.108869791030883789e+00 2.372930645942687988e-01 -4.899433851242064875e-01 1.000000000000000000e+02
3.941682052612304688e+01 4.435237407684326172e+00 2.078784227371215820e+00 2.200000000000000000e+01
3.119618654251099077e+00 3.504726290702819824e-01 -6.102071404457092285e-01 1.200000000000000000e+01
3.747566223144530806e+00 4.196946024894713800e-01 -5.972667932510375977e-01 1.000000000000000000e+01
4.797938823699951172e+00 5.356314182281494141e-01 -5.927724838256835938e-01 9.000000000000000000e+00
6.185917377471923828e+00 6.894892454147338867e-01 -5.445491075515747070e-01 9.000000000000000000e+00
9.145097732543945312e+00 1.016090989112854004e+00 -4.822235107421875000e-01 1.000000000000000000e+00
1.651647758483887074e+01 1.829271912574768066e+00 -2.900590002536774237e-01 2.000000000000000000e+00
3.622289276123046875e+01 4.011843681335449219e+00 9.765242576599121094e+00 7.000000000000000000e+00
2.125889539718627930e+00 2.324472814798355103e-01 -5.730253458023071289e-01 3.000000000000000000e+00
5.951332473754882812e+01 6.496746540069580078e+00 1.044980287551880105e+00 6.300000000000000000e+01
2.099998950958251953e+00 2.288745939731597900e-01 -4.876938760280609131e-01 1.000000000000000000e+02
3.118871212005614790e+00 3.393686115741729736e-01 -6.098255515098571777e-01 1.300000000000000000e+01
3.764719247817993164e+00 4.083145856857299805e-01 -5.997697114944458008e-01 1.000000000000000000e+01
4.795832157135009766e+00 5.184534788131713867e-01 -5.922850370407104492e-01 9.000000000000000000e+00
6.194229125976563388e+00 6.685335636138916016e-01 -5.450720191001892090e-01 8.000000000000000000e+00
9.200220108032226562e+00 9.897166490554809570e-01 -4.849449694156646729e-01 1.000000000000000000e+00
3.587655639648438211e+01 3.853098392486571822e+00 8.330387115478515625e+00 1.000000000000000000e+01
1.661024665832519887e+01 1.780987858772278054e+00 -2.915948033332825262e-01 2.000000000000000000e+00
3.601770019531250000e+01 3.861898422241210938e+00 9.706232070922851562e+00 1.500000000000000000e+01
2.165110588073730025e+00 2.290906310081481934e-01 -5.833781361579895020e-01 1.000000000000000000e+01
2.108536958694458008e+00 2.223603427410126010e-01 -4.894934892654418945e-01 1.000000000000000000e+02
3.865303802490233664e+01 4.069418907165527344e+00 2.036915302276610884e+00 2.200000000000000000e+01
3.120036840438843218e+00 3.284796476364135742e-01 -6.098255515098571777e-01 1.300000000000000000e+01
3.764157056808472124e+00 3.949646353721619207e-01 -5.994568467140197754e-01 1.200000000000000000e+01
3.893102645874022727e+01 4.078076362609863281e+00 4.806282997131347656e+00 2.000000000000000000e+01
4.825253009796142578e+00 5.046002864837646484e-01 -5.956973433494567871e-01 1.100000000000000000e+01
6.196525096893311435e+00 6.469075679779052734e-01 -5.450720191001892090e-01 9.000000000000000000e+00
9.203619003295898438e+00 9.575958847999572754e-01 -4.849449694156646729e-01 3.000000000000000000e+00
3.578124237060546875e+01 3.716567754745482954e+00 8.305192947387695312e+00 1.000000000000000000e+01
1.664420890808105113e+01 1.725883960723876953e+00 -2.920834720134735107e-01 2.000000000000000000e+00
3.613730239868164062e+01 3.740801334381103960e+00 9.734702110290527344e+00 1.500000000000000000e+01
2.148600578308105025e+00 2.197624742984772006e-01 -5.787193775177001953e-01 8.000000000000000000e+00
2.115116357803345171e+00 2.155916392803192139e-01 -4.908432066440582275e-01 1.000000000000000000e+02
3.946110534667968750e+01 4.022229671478270596e+00 2.078784227371215820e+00 2.200000000000000000e+01
3.123117685317993164e+00 3.177854418754578192e-01 -6.102071404457092285e-01 1.300000000000000000e+01
3.761582136154174805e+00 3.814243078231812079e-01 -5.988311171531677246e-01 1.100000000000000000e+01
4.826984882354736328e+00 4.877539277076721191e-01 -5.956973433494567871e-01 1.100000000000000000e+01
6.192798614501953125e+00 6.246738433837890625e-01 -5.445491075515747070e-01 9.000000000000000000e+00
9.278446197509765625e+00 9.326546192169189453e-01 -4.887131452560424805e-01 1.000000000000000000e+00
3.581726455688477273e+01 3.593980073928833008e+00 8.310591697692871094e+00 1.000000000000000000e+01
1.668196868896484020e+01 1.670963168144226074e+00 -2.926419377326964777e-01 2.000000000000000000e+00
3.645578002929688211e+01 3.645196676254272017e+00 9.817006111145019531e+00 7.000000000000000000e+00
2.120480537414550781e+00 2.097833454608916959e-01 -5.709547996520996094e-01 5.000000000000000000e+00
5.944970703125000000e+01 5.871000289916992188e+00 1.042746424674988015e+00 6.300000000000000000e+01
2.104183673858643022e+00 2.074294090270996094e-01 -4.881438016891478937e-01 1.000000000000000000e+02
3.133923292160034180e+00 3.083883821964263916e-01 -6.121152639389038086e-01 1.200000000000000000e+01
3.745132923126221147e+00 3.672134876251221258e-01 -5.960153341293334961e-01 1.000000000000000000e+01
4.848332881927490234e+00 4.736745953559874933e-01 -5.981347560882568359e-01 1.100000000000000000e+01
6.198801994323729581e+00 6.045210957527160645e-01 -5.448976755142211914e-01 9.000000000000000000e+00
9.277511596679687500e+00 9.014946818351745605e-01 -4.885038137435913086e-01 1.000000000000000000e+00
1.673518753051758168e+01 1.620259404182434082e+00 -2.934796810150145929e-01 2.000000000000000000e+00
3.645997619628906250e+01 3.523541688919066939e+00 9.814935684204101562e+00 7.000000000000000000e+00
2.132738590240478960e+00 2.034811079502105990e-01 -5.740606188774108887e-01 3.000000000000000000e+00
5.946983718872070312e+01 5.663446426391601562e+00 1.042746424674988015e+00 6.300000000000000000e+01
2.099074840545653853e+00 1.995299458503722867e-01 -4.867940843105316162e-01 8.300000000000000000e+01
3.152570962905883789e+00 2.991160154342650812e-01 -6.155498027801513672e-01 1.300000000000000000e+01
3.752291679382324219e+00 3.546960055828093927e-01 -5.969539284706115723e-01 1.200000000000000000e+01
4.842051506042479581e+00 4.560033679008483887e-01 -5.971598029136657715e-01 9.000000000000000000e+00
6.204841613769531250e+00 5.832524895668029785e-01 -5.452463030815124512e-01 9.000000000000000000e+00
9.328327178955078125e+00 8.735740184783935547e-01 -4.910159409046173096e-01 1.000000000000000000e+00
1.678852653503417969e+01 1.566290974617003950e+00 -2.943173944950103760e-01 2.000000000000000000e+00
3.712220382690429688e+01 3.456792831420897993e+00 9.989897727966308594e+00 8.000000000000000000e+00
2.139207124710083008e+00 1.965655237436295111e-01 -5.756135582923889160e-01 6.000000000000000000e+00
5.948924255371093750e+01 5.455823421478270596e+00 1.042746424674988015e+00 6.300000000000000000e+01
3.134044885635375977e+00 2.863235175609589178e-01 -6.117336153984069824e-01 1.300000000000000000e+01
3.769244909286499023e+00 3.430281579494475763e-01 -5.994568467140197754e-01 1.100000000000000000e+01
4.853498458862304688e+00 4.399948120117188055e-01 -5.983784794807434082e-01 1.100000000000000000e+01
6.214776992797851562e+00 5.623081326484680176e-01 -5.459435582160949707e-01 8.000000000000000000e+00
9.303471565246582031e+00 8.384968042373657227e-01 -4.895505309104918878e-01 1.000000000000000000e+00
1.681380844116210938e+01 1.509466648101807085e+00 -2.946664392948151190e-01 2.000000000000000000e+00
3.735666275024414062e+01 3.353709936141968218e+00 1.004994392395020064e+01 8.000000000000000000e+00
2.114863634109497070e+00 1.868864297866821012e-01 -5.688842535018920898e-01 7.000000000000000000e+00
2.125652790069580078e+00 1.870920807123183927e-01 -4.926428198814392090e-01 1.000000000000000000e+00
3.131113767623900923e+00 2.750383317470551092e-01 -6.109703779220581055e-01 1.300000000000000000e+01
3.776322841644287109e+00 3.303854465484619141e-01 -6.003955006599426270e-01 1.100000000000000000e+01
4.862915039062500000e+00 4.237395226955413818e-01 -5.993534326553344727e-01 1.100000000000000000e+01
6.216701984405517578e+00 5.406110882759094238e-01 -5.459435582160949707e-01 6.000000000000000000e+00
9.290423393249511719e+00 8.046378493309020996e-01 -4.887131452560424805e-01 1.000000000000000000e+00
3.910377883911132812e+01 3.379878282546997070e+00 9.061478614807128906e+00 1.200000000000000000e+01
1.690265083312987926e+01 1.457983970642090066e+00 -2.961324453353881836e-01 2.000000000000000000e+00
3.957829666137695312e+01 3.406974315643310991e+00 1.064419174194335938e+01 9.000000000000000000e+00
2.084704160690308061e+00 1.768897026777266901e-01 -5.606020689010620117e-01 1.200000000000000000e+01
5.952588272094727273e+01 5.040380477905273438e+00 1.042746424674988015e+00 6.300000000000000000e+01
2.153478384017943892e+00 1.819681823253631869e-01 -4.989414513111115057e-01 1.000000000000000000e+00
3.135967254638671875e+00 2.644369304180145264e-01 -6.117336153984069824e-01 1.200000000000000000e+01
3.767611026763916016e+00 3.163751363754271906e-01 -5.988311171531677246e-01 1.100000000000000000e+01
4.872277259826660156e+00 4.074238836765288752e-01 -6.003283858299255371e-01 1.100000000000000000e+01
6.234435081481933594e+00 5.202329158782958984e-01 -5.473380684852600098e-01 8.000000000000000000e+00
9.293174743652343750e+00 7.722033262252807617e-01 -4.887131452560424805e-01 1.000000000000000000e+00
3.887452316284179688e+01 3.223392009735106978e+00 9.005690574645996094e+00 1.200000000000000000e+01
1.690763664245605113e+01 1.398973822593688965e+00 -2.961324453353881836e-01 2.000000000000000000e+00
3.853240203857421875e+01 3.188252925872803178e+00 1.036000919342041016e+01 8.000000000000000000e+00
2.093010902404785156e+00 1.702381074428558072e-01 -5.626726150512695312e-01 1.800000000000000000e+01
2.154100418090819868e+00 1.744500398635863980e-01 -4.989414513111115057e-01 1.000000000000000000e+00
3.136871337890625000e+00 2.534887790679932196e-01 -6.117336153984069824e-01 1.200000000000000000e+01
3.776568412780762163e+00 3.038554787635803223e-01 -6.000826358795166016e-01 1.100000000000000000e+01
4.887521266937255859e+00 3.915235698223114014e-01 -6.020345687866210938e-01 1.100000000000000000e+01
3.872031402587891336e+01 3.094958066940308061e+00 6.152254581451416016e+00 1.400000000000000000e+01
6.238198757171630859e+00 4.986262619495391846e-01 -5.475123524665832520e-01 8.000000000000000000e+00
9.279886245727539062e+00 7.384918332099914551e-01 -4.878757894039154053e-01 1.000000000000000000e+00
3.921189880371093750e+01 3.113589525222777876e+00 9.081274032592773438e+00 1.200000000000000000e+01
1.698019409179687855e+01 1.345316529273987038e+00 -2.973192036151885986e-01 2.000000000000000000e+00
3.844753646850585938e+01 3.039391040802001953e+00 1.033412647247313920e+01 1.700000000000000000e+01
2.066599845886230025e+00 1.611933261156081876e-01 -5.554256439208984375e-01 1.500000000000000000e+01
5.956080627441406250e+01 4.635241985321044922e+00 1.042781233787537065e+00 6.300000000000000000e+01
2.127466678619385210e+00 1.651937514543533048e-01 -4.926428198814392090e-01 1.000000000000000000e+00
3.145524263381958008e+00 2.436917126178740900e-01 -6.132600903511047363e-01 1.700000000000000000e+01
3.771646738052368164e+00 2.908745706081389826e-01 -5.991439819335937500e-01 1.200000000000000000e+01
3.962244033813477273e+01 3.048780679702758789e+00 4.879404544830322266e+00 2.100000000000000000e+01
4.892751216888427734e+00 3.756177127361298163e-01 -6.025220155715942383e-01 9.000000000000000000e+00
3.876923751831054688e+01 2.976323604583739790e+00 6.158512115478515625e+00 1.400000000000000000e+01
6.233858585357666016e+00 4.774804115295410156e-01 -5.469894409179687500e-01 8.000000000000000000e+00
9.302199363708496094e+00 7.092329263687133789e-01 -4.889225065708159845e-01 1.000000000000000000e+00
1.702444267272948863e+01 1.292027354240417036e+00 -2.980172932147979736e-01 2.000000000000000000e+00
3.858403396606445312e+01 2.928238391876221147e+00 1.036829090118408025e+01 8.000000000000000000e+00
2.042105197906494141e+00 1.521130204200744906e-01 -5.486963987350463867e-01 2.200000000000000000e+01
2.104709386825561968e+00 1.560375541448592862e-01 -4.872439801692963202e-01 1.000000000000000000e+00
4.074862289428710938e+01 3.013843774795531782e+00 2.141377925872803178e+00 2.500000000000000000e+01
3.144397735595703125e+00 2.325654774904251099e-01 -6.128785014152526855e-01 2.000000000000000000e+01
3.778549194335937944e+00 2.781423628330231268e-01 -6.000826358795166016e-01 1.200000000000000000e+01
4.878194332122802734e+00 3.573762178421021063e-01 -6.005721092224121094e-01 1.100000000000000000e+01
3.874048233032227273e+01 2.831327676773070845e+00 6.152254581451416016e+00 1.400000000000000000e+01
6.239461421966552734e+00 4.560077190399169922e-01 -5.473380684852600098e-01 6.000000000000000000e+00
9.316570281982421875e+00 6.776272058486938477e-01 -4.895505309104918878e-01 1.000000000000000000e+00
4.388912200927733664e+01 3.184510946273804155e+00 1.015923976898193004e+01 1.300000000000000000e+01
1.708868217468262074e+01 1.236924052238463911e+00 -2.990644276142119806e-01 2.000000000000000000e+00
2.079210996627808061e+00 1.479454785585402887e-01 -5.585315227508544922e-01 1.000000000000000000e+01
2.147980451583861861e+00 1.520851701498031894e-01 -4.971418380737305243e-01 1.000000000000000000e+00
3.137318134307860884e+00 2.215837389230727872e-01 -6.113520264625549316e-01 1.900000000000000000e+01
3.791273832321166992e+00 2.664416134357451837e-01 -6.019598245620727539e-01 1.100000000000000000e+01
4.903115749359130859e+00 3.428592383861541748e-01 -6.034969687461853027e-01 9.000000000000000000e+00
6.256839752197265625e+00 4.364235103130341131e-01 -5.487325787544250488e-01 7.000000000000000000e+00
9.358614921569824219e+00 6.494941711425781250e-01 -4.916439652442932129e-01 1.000000000000000000e+00
1.709269142150878906e+01 1.180249094963073953e+00 -2.990644276142119806e-01 2.000000000000000000e+00
3.889601516723632812e+01 2.685767173767089844e+00 1.044697189331055043e+01 8.000000000000000000e+00
2.097061872482299805e+00 1.418602466583251953e-01 -5.631902217864990234e-01 5.200000000000000000e+01
5.960537719726563211e+01 4.021683216094970703e+00 1.042781233787537065e+00 6.300000000000000000e+01
2.113500118255614790e+00 1.422311365604400912e-01 -4.890435934066771906e-01 1.000000000000000000e+00
3.153743267059326172e+00 2.116829454898833951e-01 -6.144049763679504395e-01 2.000000000000000000e+01
3.792180776596068892e+00 2.532059550285338800e-01 -6.019598245620727539e-01 1.600000000000000000e+01
4.904282569885253906e+00 3.257420957088469904e-01 -6.034969687461853027e-01 9.000000000000000000e+00
6.270253181457520419e+00 4.153705835342407227e-01 -5.497784018516540527e-01 6.000000000000000000e+00
9.388726234436035156e+00 6.186611056327819824e-01 -4.931093752384185791e-01 1.000000000000000000e+00
1.713661384582519887e+01 1.123193025588989036e+00 -2.997625470161437988e-01 2.000000000000000000e+00
3.896728515625000000e+01 2.547220468521118164e+00 1.046353626251221058e+01 9.000000000000000000e+00
2.099472045898437944e+00 1.346629261970520020e-01 -5.637078881263732910e-01 6.400000000000000000e+01
2.141210794448852983e+00 1.365896165370940885e-01 -4.953422248363494873e-01 1.000000000000000000e+00
3.154463052749633789e+00 2.006730288267135898e-01 -6.144049763679504395e-01 2.000000000000000000e+01
3.789098739624022993e+00 2.397177964448929111e-01 -6.013340950012207031e-01 1.900000000000000000e+01
4.889540195465087891e+00 3.076238036155701239e-01 -6.015470623970031738e-01 9.000000000000000000e+00
3.909836578369141336e+01 2.459860801696776900e+00 6.204816818237304688e+00 1.400000000000000000e+01
6.271665096282958984e+00 3.934807777404785156e-01 -5.497784018516540527e-01 6.000000000000000000e+00
9.390829086303710938e+00 5.858845710754394531e-01 -4.931093752384185791e-01 1.000000000000000000e+00
3.913493728637695312e+01 2.434733152389525923e+00 9.052480697631835938e+00 1.200000000000000000e+01
1.720030593872069957e+01 1.067082881927490012e+00 -3.008096814155579168e-01 2.000000000000000000e+00
2.113427639007567915e+00 1.281520724296570102e-01 -5.673313736915588379e-01 6.400000000000000000e+01
5.953219985961914062e+01 3.599430322647095171e+00 1.041036009788512962e+00 6.300000000000000000e+01
2.122222423553466797e+00 1.279418617486954013e-01 -4.908432066440582275e-01 1.000000000000000000e+00
3.161023378372191939e+00 1.900140941143035889e-01 -6.155498027801513672e-01 2.000000000000000000e+01
3.791884183883666992e+00 2.266077548265456876e-01 -6.016469597816467285e-01 1.700000000000000000e+01
4.906436920166015625e+00 2.914960682392119806e-01 -6.034969687461853027e-01 9.000000000000000000e+00
3.917021942138671875e+01 2.320279359817504883e+00 6.214828491210938388e+00 1.400000000000000000e+01
6.298855781555175781e+00 3.731177747249603271e-01 -5.520444512367248535e-01 7.000000000000000000e+00
9.424717903137207031e+00 5.549793839454650879e-01 -4.947841167449951172e-01 2.000000000000000000e+00
3.936108016967772727e+01 2.310904026031494141e+00 9.102869033813476562e+00 1.200000000000000000e+01
1.725183677673339844e+01 1.009840607643126997e+00 -3.016473948955535889e-01 2.000000000000000000e+00
4.107083129882813211e+01 2.396898508071898970e+00 1.102362060546875000e+01 1.000000000000000000e+01
2.108096837997436968e+00 1.200755387544631958e-01 -5.657784342765808105e-01 5.200000000000000000e+01
5.964481735229492188e+01 3.386878252029418945e+00 1.042781233787537065e+00 6.300000000000000000e+01
2.111003398895264116e+00 1.195018291473388949e-01 -4.881438016891478937e-01 1.000000000000000000e+00
5.952347183227539062e+01 3.359143495559691939e+00 3.124456644058227983e+00 6.300000000000000000e+01
3.151897907257080078e+00 1.778739839792251864e-01 -6.136417388916015625e-01 2.000000000000000000e+01
3.800578355789185014e+00 2.131507247686386108e-01 -6.028984189033508301e-01 1.600000000000000000e+01
4.901526451110839844e+00 2.731797397136688232e-01 -6.027657985687255859e-01 1.100000000000000000e+01
6.306149005889892578e+00 3.503603637218474787e-01 -5.525674223899841309e-01 9.000000000000000000e+00
9.426688194274902344e+00 5.204322934150695801e-01 -4.947841167449951172e-01 2.000000000000000000e+00
1.730733680725098012e+01 9.494505524635314941e-01 -3.025549054145812988e-01 2.000000000000000000e+00
2.102715969085692915e+00 1.124067977070807994e-01 -5.642254948616027832e-01 3.900000000000000000e+01
2.068595647811890093e+00 1.098586767911911011e-01 -4.782459437847136896e-01 1.000000000000000000e+00
3.158381223678588867e+00 1.671820580959320068e-01 -6.147865653038024902e-01 2.200000000000000000e+01
3.809189796447753906e+00 2.002978473901748935e-01 -6.041498780250549316e-01 1.700000000000000000e+01
4.910379886627197266e+00 2.564827203750609796e-01 -6.037407517433166504e-01 1.100000000000000000e+01
3.918546295166016336e+01 2.046765327453612837e+00 6.214828491210938388e+00 1.400000000000000000e+01
6.289426326751708984e+00 3.274134695529937744e-01 -5.509986281394958496e-01 9.000000000000000000e+00
9.428447723388671875e+00 4.875238537788391113e-01 -4.947841167449951172e-01 2.000000000000000000e+00
1.739042854309082031e+01 8.931334614753723145e-01 -3.039511144161223810e-01 2.000000000000000000e+00
2.097288846969604048e+00 1.051431447267531932e-01 -5.626726150512695312e-01 3.000000000000000000e+01
5.953866577148438211e+01 2.974427700042725053e+00 1.040547370910644975e+00 6.300000000000000000e+01
2.022236585617064986e+00 1.006729006767272949e-01 -4.674482941627501886e-01 2.000000000000000000e+00
3.160879135131835938e+00 1.568048447370528897e-01 -6.151682138442993164e-01 1.700000000000000000e+01
3.805887222290039062e+00 1.874706447124480924e-01 -6.035241484642028809e-01 1.800000000000000000e+01
4.923099517822265625e+00 2.407797425985336026e-01 -6.052031517028808594e-01 1.100000000000000000e+01
6.290477752685546875e+00 3.065551817417144775e-01 -5.509986281394958496e-01 9.000000000000000000e+00
9.430012702941894531e+00 4.562553167343140204e-01 -4.947841167449951172e-01 2.000000000000000000e+00
1.746120452880859020e+01 8.387218117713928223e-01 -3.051378726959229071e-01 2.000000000000000000e+00
2.099572896957397017e+00 9.791158884763717651e-02 -5.631902217864990234e-01 1.400000000000000000e+01
1.987535953521728960e+00 9.199157357215881348e-02 -4.593500494956970215e-01 2.000000000000000000e+00
5.955490875244141336e+01 2.746036767959595171e+00 3.124456644058227983e+00 6.300000000000000000e+01
3.161407232284545898e+00 1.457703560590744019e-01 -6.151682138442993164e-01 1.400000000000000000e+01
3.802571773529053178e+00 1.740038841962814053e-01 -6.028984189033508301e-01 1.600000000000000000e+01
4.923910140991210938e+00 2.235934585332869928e-01 -6.052031517028808594e-01 1.100000000000000000e+01
4.225158309936522727e+01 1.911243796348571999e+00 6.698836803436279297e+00 1.400000000000000000e+01
6.283547878265380859e+00 2.842352986335753839e-01 -5.503013730049133301e-01 9.000000000000000000e+00
9.431548118591308594e+00 4.233356714248657227e-01 -4.947841167449951172e-01 2.000000000000000000e+00
1.748400306701660156e+01 7.786554098129272461e-01 -3.054869174957274836e-01 2.000000000000000000e+00
2.136589050292969194e+00 9.179107099771499634e-02 -5.730253458023071289e-01 1.000000000000000000e+00
5.948650360107421875e+01 2.545228004455565962e+00 1.039290785789489968e+00 6.300000000000000000e+01
2.046268939971923828e+00 8.719519525766372681e-02 -4.728471040725708008e-01 1.000000000000000000e+00
5.956457138061522727e+01 2.527738571166992188e+00 3.124456644058227983e+00 6.300000000000000000e+01
3.169766187667847124e+00 1.345151960849761963e-01 -6.166946887969970703e-01 1.300000000000000000e+01
3.801210403442382812e+00 1.599825173616409024e-01 -6.025855541229248047e-01 1.600000000000000000e+01
4.920729637145996094e+00 2.053793519735336026e-01 -6.047157049179077148e-01 1.100000000000000000e+01
4.215962219238281250e+01 1.752269625663757102e+00 6.683193206787109375e+00 1.400000000000000000e+01
6.310426235198974609e+00 2.622786164283751886e-01 -5.525674223899841309e-01 9.000000000000000000e+00
9.433035850524902344e+00 3.887644708156586248e-01 -4.947841167449951172e-01 2.000000000000000000e+00
1.749473190307616832e+01 7.148947119712829590e-01 -3.056265413761138916e-01 2.000000000000000000e+00
5.959493255615233664e+01 2.341491222381591797e+00 1.041036009788512962e+00 6.300000000000000000e+01
2.182868480682373047e+00 8.538356423377990723e-02 -5.043402910232543945e-01 1.000000000000000000e+00
5.957303237915039062e+01 2.319804191589355025e+00 3.124456644058227983e+00 6.300000000000000000e+01
3.158445835113524947e+00 1.229914799332618991e-01 -6.144049763679504395e-01 1.300000000000000000e+01
3.817536830902100053e+00 1.473222523927688876e-01 -6.050885319709777832e-01 1.400000000000000000e+01
4.905547618865966797e+00 1.875946968793869019e-01 -6.027657985687255859e-01 1.100000000000000000e+01
6.317276000976563388e+00 2.404769062995910922e-01 -5.530903339385986328e-01 9.000000000000000000e+00
9.434335708618164062e+00 3.558346629142761230e-01 -4.947841167449951172e-01 2.000000000000000000e+00
1.756106758117676137e+01 6.562118530273437500e-01 -3.067435026168823242e-01 2.000000000000000000e+00
2.094704389572143999e+00 7.534501701593399048e-02 -5.616373419761657715e-01 1.000000000000000000e+00
2.192890644073485884e+00 7.811026275157928467e-02 -5.065897703170776367e-01 3.500000000000000000e+01
3.158855915069580078e+00 1.119656935334206044e-01 -6.144049763679504395e-01 1.300000000000000000e+01
3.820002079010010210e+00 1.340649425983428955e-01 -6.054013967514038086e-01 1.000000000000000000e+01
4.922043800354003906e+00 1.710214465856552124e-01 -6.047157049179077148e-01 1.100000000000000000e+01
6.328032970428466797e+00 2.187682241201401034e-01 -5.539618730545043945e-01 9.000000000000000000e+00
9.443504333496093750e+00 3.231737613677979071e-01 -4.952028095722197931e-01 4.000000000000000000e+00
1.756324958801269887e+01 5.949082970619201660e-01 -3.067435026168823242e-01 2.000000000000000000e+00
2.056338071823120117e+00 6.677861511707305908e-02 -5.512845516204833984e-01 9.000000000000000000e+00
2.232104778289794922e+00 7.170659303665161133e-02 -5.155878067016601562e-01 4.800000000000000000e+01
5.958777618408203125e+01 1.903852701187134011e+00 3.124456644058227983e+00 6.300000000000000000e+01
3.163151979446411133e+00 1.010639369487762035e-01 -6.151682138442993164e-01 1.300000000000000000e+01
3.814523696899414062e+00 1.205426529049872936e-01 -6.044628024101257324e-01 1.000000000000000000e+01
4.918642520904541016e+00 1.537152528762817105e-01 -6.042281985282897949e-01 1.100000000000000000e+01
6.334732532501220703e+00 1.968635916709899902e-01 -5.544848442077636719e-01 9.000000000000000000e+00
9.444575309753417969e+00 2.902078032493590753e-01 -4.952028095722197931e-01 4.000000000000000000e+00
1.762518310546875000e+01 5.354190468788146973e-01 -3.077906370162963867e-01 3.000000000000000000e+00
2.068144798278809038e+00 5.993602424860001304e-02 -5.543903708457946777e-01 4.400000000000000000e+01
2.411551952362060991e+00 6.904567778110504150e-02 -5.569788217544555664e-01 8.000000000000000000e+00
3.169372797012329102e+00 9.018939733505249023e-02 -6.163130402565002441e-01 1.300000000000000000e+01
3.808997392654418945e+00 1.070602461695670943e-01 -6.035241484642028809e-01 1.000000000000000000e+01
4.923117637634277344e+00 1.366552114486694058e-01 -6.047157049179077148e-01 1.100000000000000000e+01
6.333389282226563388e+00 1.746951043605803888e-01 -5.543105006217956543e-01 9.000000000000000000e+00
9.477475166320800781e+00 2.581082880496978760e-01 -4.968775808811187744e-01 4.000000000000000000e+00
1.765892791748046875e+01 4.747522473335266113e-01 -3.083491027355194092e-01 3.000000000000000000e+00
2.145590305328369141e+00 5.468535795807837746e-02 -5.750958919525146484e-01 7.300000000000000000e+01
2.462429523468018022e+00 6.190064176917076111e-02 -5.686762928962707520e-01 2.000000000000000000e+00
5.959935379028320312e+01 1.498210668563842995e+00 3.124456644058227983e+00 6.300000000000000000e+01
3.179481506347655806e+00 7.937064021825790405e-02 -6.182211637496948242e-01 1.300000000000000000e+01
3.817246913909912109e+00 9.395813941955566406e-02 -6.047756671905517578e-01 1.000000000000000000e+01
4.923564910888671875e+00 1.194694936275482039e-01 -6.047157049179077148e-01 1.100000000000000000e+01
6.365829467773438388e+00 1.533541232347488126e-01 -5.570995211601257324e-01 7.000000000000000000e+00
9.506271362304687500e+00 2.256878018379210871e-01 -4.983429610729218084e-01 2.000000000000000000e+00
1.769646263122558949e+01 4.139499366283416748e-01 -3.089773952960968018e-01 3.000000000000000000e+00
2.315712213516234907e+00 5.174211412668228149e-02 -6.206480860710144043e-01 6.400000000000000000e+01
2.450922250747681108e+00 5.390728637576103210e-02 -5.659768581390380859e-01 4.000000000000000000e+00
3.179715156555175781e+00 6.938163191080093384e-02 -6.182211637496948242e-01 1.300000000000000000e+01
3.817523241043090820e+00 8.196546137332916260e-02 -6.047756671905517578e-01 1.000000000000000000e+01
4.904069423675537109e+00 1.035819053649902066e-01 -6.022782921791076660e-01 1.100000000000000000e+01
6.370264053344726562e+00 1.334380060434340876e-01 -5.574481487274169922e-01 7.000000000000000000e+00
9.506934165954589844e+00 1.958218961954117099e-01 -4.983429610729218084e-01 2.000000000000000000e+00
1.776964950561523082e+01 3.598102927207946777e-01 -3.102339804172515869e-01 3.000000000000000000e+00
2.352577209472655806e+00 4.435028880834578774e-02 -6.304832100868225098e-01 5.100000000000000000e+01
2.458889245986938032e+00 4.549584537744522095e-02 -5.677764415740966797e-01 5.000000000000000000e+00
3.158345937728881836e+00 5.788619071245192788e-02 -6.140233278274536133e-01 1.300000000000000000e+01
3.837536811828612837e+00 6.899441033601760864e-02 -6.079043149948120117e-01 1.300000000000000000e+01
4.906385898590087891e+00 8.649787306785583496e-02 -6.025220155715942383e-01 9.000000000000000000e+00
6.392603874206542969e+00 1.115833148360251964e-01 -5.593655705451965332e-01 7.000000000000000000e+00
9.519541740417480469e+00 1.628402769565581998e-01 -4.989710152149199884e-01 4.000000000000000000e+00
1.783078002929687855e+01 2.987855672836304266e-01 -3.112811148166655939e-01 3.000000000000000000e+00
2.352717876434326172e+00 3.613799437880516052e-02 -6.304832100868225098e-01 4.700000000000000000e+01
2.470724105834960938e+00 3.708793967962265015e-02 -5.704758763313293457e-01 7.000000000000000000e+00
3.172269821166992188e+00 4.706502333283423684e-02 -6.166946887969970703e-01 1.200000000000000000e+01
3.829853534698485884e+00 5.548403039574623108e-02 -6.066528558731079102e-01 1.400000000000000000e+01
4.932461261749267578e+00 6.973567605018615723e-02 -6.056906580924987793e-01 1.100000000000000000e+01
6.371040344238281250e+00 8.896228671073913574e-02 -5.574481487274169922e-01 9.000000000000000000e+00
9.540022850036621094e+00 1.298817694187164029e-01 -5.000177025794982910e-01 4.000000000000000000e+00
1.781171989440917969e+01 2.362774461507796964e-01 -3.109320700168610174e-01 3.000000000000000000e+00
2.362488269805908203e+00 2.803989127278327942e-02 -6.330713629722595215e-01 5.400000000000000000e+01
2.470838546752930132e+00 2.846327610313892018e-02 -5.704758763313293457e-01 5.000000000000000000e+00
5.961422729492188211e+01 6.867370009422302246e-01 3.124456644058227983e+00 6.300000000000000000e+01
3.176341056823730025e+00 3.603599220514296791e-02 -6.174579262733459473e-01 1.300000000000000000e+01
3.826073408126831055e+00 4.207156971096991799e-02 -6.060271263122558594e-01 1.100000000000000000e+01
4.930689811706542969e+00 5.249661579728127220e-02 -6.054468750953674316e-01 1.100000000000000000e+01
6.383265495300292969e+00 6.684784591197967529e-02 -5.584939718246459961e-01 7.000000000000000000e+00
9.532428741455078125e+00 9.649921208620071411e-02 -4.995990395545958918e-01 4.000000000000000000e+00
1.788042259216308949e+01 1.747660189867019931e-01 -3.121188282966613770e-01 3.000000000000000000e+00
2.354847908020019975e+00 1.931736245751380920e-02 -6.310008168220520020e-01 5.400000000000000000e+01
2.468977689743041992e+00 1.939170248806476940e-02 -5.700259804725646973e-01 2.000000000000000000e+00
3.190194368362427202e+00 2.449941448867321014e-02 -6.201292276382446289e-01 1.300000000000000000e+01
3.832127809524536133e+00 2.809146791696548115e-02 -6.069657206535339355e-01 1.100000000000000000e+01
4.930849075317382812e+00 3.442437946796417236e-02 -6.054468750953674316e-01 1.100000000000000000e+01
6.403391361236572266e+00 4.358717426657676697e-02 -5.602371096611022949e-01 9.000000000000000000e+00
9.568668365478515625e+00 6.179262697696685791e-02 -5.014831423759460449e-01 4.000000000000000000e+00
1.793293380737305043e+01 1.095474213361739974e-01 -3.130263686180114746e-01 3.000000000000000000e+00
2.360696554183959961e+00 1.112460251897572951e-02 -6.325537562370300293e-01 6.400000000000000000e+01
2.500209808349608931e+00 1.090929284691810955e-02 -5.772244334220886230e-01 1.000000000000000000e+00
3.182407379150391069e+00 1.333051454275845961e-02 -6.186027526855468750e-01 1.200000000000000000e+01
3.844054698944091797e+00 1.476018317043780934e-02 -6.088429093360900879e-01 1.100000000000000000e+01
4.922998905181884766e+00 1.718457788228988994e-02 -6.044719219207763672e-01 1.100000000000000000e+01
6.409481525421142578e+00 2.125472389161587108e-02 -5.607600212097167969e-01 7.000000000000000000e+00
9.584804534912109375e+00 2.843876928091048847e-02 -5.023205280303955078e-01 4.000000000000000000e+00
1.803319168090819957e+01 4.721089079976081848e-02 -3.147715926170349121e-01 3.000000000000000000e+00
2.352993488311768022e+00 2.874725265428423882e-03 -6.304832100868225098e-01 4.900000000000000000e+01
2.476847648620605025e+00 2.161457901820539994e-03 -5.718255639076232910e-01 1.000000000000000000e+00
3.176544904708861861e+00 2.217646921053528786e-03 -6.174579262733459473e-01 1.300000000000000000e+01
3.850008964538574219e+00 1.343906740657984994e-03 -6.097815632820129395e-01 1.000000000000000000e+01
4.926999092102050781e+00 3.016916952905044063e-16 -6.049594283103942871e-01 9.000000000000000000e+00
6.423463344573974609e+00 -1.121105859056114934e-03 -5.619802474975585938e-01 9.000000000000000000e+00
9.608812332153320312e+00 -5.031162872910499573e-03 -5.035765767097473145e-01 4.000000000000000000e+00
1.813323020935058949e+01 -1.582423225045204163e-02 -3.165168464183806818e-01 3.000000000000000000e+00
2.343329906463623047e+00 -5.316856317222118378e-03 -6.278949975967407227e-01 4.200000000000000000e+01
2.535302162170410156e+00 -6.637420970946550369e-03 -5.853226184844970703e-01 1.000000000000000000e+00
3.182422876358031782e+00 -8.887024596333503723e-03 -6.186027526855468750e-01 1.300000000000000000e+01
3.844063997268677202e+00 -1.207652315497398030e-02 -6.088429093360900879e-01 1.100000000000000000e+01
4.934909343719482422e+00 -1.722615398466587067e-02 -6.059343814849853516e-01 9.000000000000000000e+00
6.405488967895507812e+00 -2.347744815051555980e-02 -5.604114532470703125e-01 7.000000000000000000e+00
9.612730026245117188e+00 -3.858818113803864219e-02 -5.037859082221984863e-01 4.000000000000000000e+00
1.813306427001953125e+01 -7.912092655897140503e-02 -3.165168464183806818e-01 3.000000000000000000e+00
2.347163200378417969e+00 -1.310916803777218038e-02 -6.289302706718444824e-01 3.200000000000000000e+01
4.079910659790039062e+01 -2.349886000156402865e-01 7.121629118919372559e-01 3.600000000000000000e+01
2.546958446502685991e+00 -1.511413324624300003e-02 -5.880220532417297363e-01 1.000000000000000000e+00
4.045972061157227273e+01 -2.471574395895003995e-01 2.120443582534790039e+00 2.400000000000000000e+01
3.188265562057495117e+00 -1.947624795138835907e-02 -6.197476387023925781e-01 1.300000000000000000e+01
3.838076829910277876e+00 -2.478556334972381939e-02 -6.079043149948120117e-01 1.000000000000000000e+01
4.938795089721679688e+00 -3.361783176660537720e-02 -6.064218282699584961e-01 9.000000000000000000e+00
6.427291393280029297e+00 -4.487168788909912109e-02 -5.623288750648498535e-01 7.000000000000000000e+00
9.652493476867675781e+00 -7.075773924589157104e-02 -5.058793425559997559e-01 2.000000000000000000e+00
1.820469093322753906e+01 -1.398047357797622958e-01 -3.177734017372130793e-01 3.000000000000000000e+00
2.358693838119506836e+00 -2.140741236507892956e-02 -6.320360898971557617e-01 2.500000000000000000e+01
2.546890258789062944e+00 -2.400458604097365986e-02 -5.880220532417297363e-01 1.000000000000000000e+00
3.186214923858643022e+00 -3.058640845119953156e-02 -6.193659901618957520e-01 1.300000000000000000e+01
3.847843408584595171e+00 -3.828105702996253967e-02 -6.094686985015869141e-01 1.000000000000000000e+01
4.946587562561035156e+00 -5.093900486826896667e-02 -6.073967814445495605e-01 9.000000000000000000e+00
6.439049243927001953e+00 -6.743203103542327881e-02 -5.633746981620788574e-01 6.000000000000000000e+00
9.652188301086425781e+00 -1.044507995247841020e-01 -5.058793425559997559e-01 2.000000000000000000e+00
1.833206367492676137e+01 -2.047796398401260098e-01 -3.200073242187500000e-01 3.000000000000000000e+00
2.366331338882445845e+00 -2.973776310682297100e-02 -6.341066360473632812e-01 2.100000000000000000e+01
2.574070930480957031e+00 -3.324709832668303749e-02 -5.943207144737243652e-01 1.000000000000000000e+00
4.040508270263671875e+01 -5.289314985275268555e-01 2.117722034454346147e+00 2.400000000000000000e+01
3.188051939010620117e+00 -4.173388704657555320e-02 -6.197476387023925781e-01 1.300000000000000000e+01
3.853611946105957031e+00 -5.179194360971450806e-02 -6.104072928428649902e-01 1.000000000000000000e+01
4.924545764923095703e+00 -6.790444254875183105e-02 -6.047157049179077148e-01 1.100000000000000000e+01
6.440766811370849609e+00 -8.993592113256454468e-02 -5.635490417480468750e-01 7.000000000000000000e+00
9.711676597595214844e+00 -1.390000879764556885e-01 -5.090194940567016602e-01 2.000000000000000000e+00
1.840721702575683949e+01 -2.698832452297211248e-01 -3.213337063789368231e-01 3.000000000000000000e+00
2.360418319702147993e+00 -3.790456429123877785e-02 -6.325537562370300293e-01 1.700000000000000000e+01
2.573939323425292969e+00 -4.223208129405975342e-02 -5.943207144737243652e-01 1.000000000000000000e+00
4.040299224853516336e+01 -6.699683666229248047e-01 2.117722034454346147e+00 2.400000000000000000e+01
3.189849853515625000e+00 -5.289455875754355690e-02 -6.201292276382446289e-01 1.300000000000000000e+01
3.861308097839355025e+00 -6.537700444459915161e-02 -6.116587519645690918e-01 1.000000000000000000e+01
4.940157413482666016e+00 -8.536828309297561646e-02 -6.066656112670898438e-01 1.100000000000000000e+01
6.460334777832031250e+00 -1.127655655145645003e-01 -5.652921199798583984e-01 9.000000000000000000e+00
9.695156097412109375e+00 -1.726148873567580899e-01 -5.081821084022521973e-01 2.000000000000000000e+00
1.837017440795898082e+01 -3.334814608097075861e-01 -3.207054138183593750e-01 3.000000000000000000e+00
2.348682880401610884e+00 -4.591716825962067344e-02 -6.294479370117187500e-01 1.500000000000000000e+01
2.684832334518433061e+00 -5.342649668455123901e-02 -6.199650764465332031e-01 4.000000000000000000e+00
4.015679168701171875e+01 -8.061066865921020508e-01 2.104952096939086914e+00 2.300000000000000000e+01
3.183757066726685014e+00 -6.391068547964096069e-02 -6.189844012260437012e-01 1.300000000000000000e+01
3.859081268310546875e+00 -7.881475239992141724e-02 -6.113458871841430664e-01 9.000000000000000000e+00
4.941813945770263672e+00 -1.026533544063567976e-01 -6.069093346595764160e-01 1.100000000000000000e+01
6.435998439788818359e+00 -1.348149478435516080e-01 -5.632004141807556152e-01 7.000000000000000000e+00
9.706475257873535156e+00 -2.067113816738128940e-01 -5.088101625442504883e-01 2.000000000000000000e+00
1.840088653564453125e+01 -3.982957005500792902e-01 -3.212639093399047852e-01 3.000000000000000000e+00
2.356233596801757812e+00 -5.429333075881004333e-02 -6.315184831619262695e-01 1.600000000000000000e+01
2.702163457870482954e+00 -6.320813298225402832e-02 -6.240141987800598145e-01 8.000000000000000000e+00
4.010581207275391336e+01 -9.451457858085632324e-01 2.102440118789672852e+00 2.300000000000000000e+01
3.185477495193481001e+00 -7.506993412971496582e-02 -6.193659901618957520e-01 1.300000000000000000e+01
3.854833126068114790e+00 -9.219052642583847046e-02 -6.107201576232910156e-01 9.000000000000000000e+00
4.957301616668701172e+00 -1.202881112694740018e-01 -6.088592410087585449e-01 9.000000000000000000e+00
6.429512977600097656e+00 -1.571339219808577936e-01 -5.626775026321411133e-01 9.000000000000000000e+00
9.721668243408203125e+00 -2.409880012273787897e-01 -5.096475481986999512e-01 2.000000000000000000e+00
1.840338134765625000e+01 -4.626248478889464777e-01 -3.213337063789368231e-01 3.000000000000000000e+00
2.359902858734130859e+00 -6.220839917659760215e-02 -6.325537562370300293e-01 1.800000000000000000e+01
2.684406518936156782e+00 -7.170019298791885376e-02 -6.199650764465332031e-01 8.000000000000000000e+00
3.985089111328125000e+01 -1.071373105049133079e+00 2.089251279830933061e+00 2.300000000000000000e+01
3.191098690032958984e+00 -8.579123020172119141e-02 -6.205108761787414551e-01 1.200000000000000000e+01
3.860430002212523970e+00 -1.051344349980354032e-01 -6.116587519645690918e-01 1.000000000000000000e+01
4.954890727996826172e+00 -1.366717219352721890e-01 -6.086155176162719727e-01 1.100000000000000000e+01
6.452856063842773438e+00 -1.791174858808516901e-01 -5.647692084312438965e-01 9.000000000000000000e+00
9.756752014160156250e+00 -2.742349803447722834e-01 -5.115316510200500488e-01 2.000000000000000000e+00
1.845371818542480113e+01 -5.251290202140808105e-01 -3.222412467002869207e-01 3.000000000000000000e+00
2.375119447708129883e+00 -7.090680301189422607e-02 -6.366948485374450684e-01 2.300000000000000000e+01
2.703618288040161133e+00 -8.165840059518814087e-02 -6.244641542434692383e-01 8.000000000000000000e+00
3.186855077743529829e+00 -9.681049734354019165e-02 -6.197476387023925781e-01 1.300000000000000000e+01
3.865962982177733931e+00 -1.187912225723267018e-01 -6.125973463058471680e-01 1.000000000000000000e+01
4.944462776184082031e+00 -1.536583751440047940e-01 -6.073967814445495605e-01 9.000000000000000000e+00
6.464139938354492188e+00 -2.020144760608673096e-01 -5.658150911331176758e-01 9.000000000000000000e+00
9.787674903869628906e+00 -3.093000650405883789e-01 -5.132063627243041992e-01 2.000000000000000000e+00
1.859567642211914062e+01 -5.941391587257385254e-01 -3.247543871402739923e-01 3.000000000000000000e+00
2.363272666931151900e+00 -7.881075143814086914e-02 -6.335890293121337891e-01 2.000000000000000000e+01
2.736426591873168945e+00 -9.221101552248001099e-02 -6.321124434471130371e-01 9.000000000000000000e+00
3.949511718750000000e+01 -1.337791800498961958e+00 2.071038484573363814e+00 2.200000000000000000e+01
3.180611133575439009e+00 -1.077347248792648038e-01 -6.186027526855468750e-01 1.300000000000000000e+01
3.871447324752808061e+00 -1.324879080057143887e-01 -6.135360002517700195e-01 1.000000000000000000e+01
4.947864532470703125e+00 -1.710540205240249911e-01 -6.078842878341674805e-01 9.000000000000000000e+00
3.743647766113281250e+01 -1.300768733024596946e+00 5.932933330535888672e+00 1.300000000000000000e+01
6.471360206604003906e+00 -2.248540520668030063e-01 -5.665123462677001953e-01 9.000000000000000000e+00
9.774559974670410156e+00 -3.430432379245758057e-01 -5.125783681869506836e-01 2.000000000000000000e+00
1.868142127990723012e+01 -6.621632575988769531e-01 -3.262901902198792059e-01 3.000000000000000000e+00
2.359122037887572798e+00 -8.691737800836563110e-02 -6.325537562370300293e-01 1.900000000000000000e+01
2.749719858169556108e+00 -1.022693663835526068e-01 -6.352617740631103516e-01 1.100000000000000000e+01
3.943831634521483664e+01 -1.473708152770996094e+00 2.068316936492919922e+00 2.200000000000000000e+01
3.193948984146118164e+00 -1.193496435880661011e-01 -6.212741136550903320e-01 1.200000000000000000e+01
3.870961189270019975e+00 -1.460009813308716098e-01 -6.135360002517700195e-01 1.100000000000000000e+01
4.959138870239257812e+00 -1.887773126363753995e-01 -6.093466877937316895e-01 9.000000000000000000e+00
3.743170928955078125e+01 -1.431438565254210982e+00 5.932933330535888672e+00 1.300000000000000000e+01
6.458590507507324219e+00 -2.469851225614548007e-01 -5.654664635658264160e-01 9.000000000000000000e+00
9.833175659179687500e+00 -3.794712722301483154e-01 -5.157185196876525879e-01 2.000000000000000000e+00
1.871895980834960938e+01 -7.289257645606994629e-01 -3.269882798194885254e-01 3.000000000000000000e+00
2.370386123657227007e+00 -9.561891853809356689e-02 -6.356595754623413086e-01 1.700000000000000000e+01
2.747399091720581055e+00 -1.117878258228302002e-01 -6.348118782043457031e-01 1.300000000000000000e+01
3.887416458129882812e+01 -1.588531494140625000e+00 2.039008855819702148e+00 2.200000000000000000e+01
3.203320980072021040e+00 -1.308986693620682040e-01 -6.231821775436401367e-01 1.300000000000000000e+01
3.854638576507567915e+00 -1.588615179061889926e-01 -6.110330224037170410e-01 1.100000000000000000e+01
4.950516223907470703e+00 -2.057570368051528931e-01 -6.083717346191406250e-01 9.000000000000000000e+00
3.729227447509766336e+01 -1.556489229202270952e+00 5.911658287048339844e+00 1.300000000000000000e+01
6.449726104736328125e+00 -2.691959738731384277e-01 -5.647692084312438965e-01 7.000000000000000000e+00
9.831791877746582031e+00 -4.137931466102600098e-01 -5.157185196876525879e-01 2.000000000000000000e+00
1.878822517395019887e+01 -7.973149418830871582e-01 -3.282448649406433105e-01 3.000000000000000000e+00
2.375827789306641069e+00 -1.041463389992714067e-01 -6.372125148773193359e-01 1.600000000000000000e+01
2.739204645156859907e+00 -1.210332736372947970e-01 -6.330122947692871094e-01 1.200000000000000000e+01
3.890030670166016336e+01 -1.725634217262268066e+00 2.040683507919311968e+00 2.200000000000000000e+01
3.208728551864624023e+00 -1.423405706882477084e-01 -6.243270039558410645e-01 1.300000000000000000e+01
3.858007192611693892e+00 -1.724922209978103915e-01 -6.116587519645690918e-01 1.000000000000000000e+01
4.945801734924316406e+00 -2.228575944900512973e-01 -6.078842878341674805e-01 9.000000000000000000e+00
6.488554477691650391e+00 -2.935087382793427069e-01 -5.682554244995117188e-01 9.000000000000000000e+00
9.830286979675292969e+00 -4.481099843978881836e-01 -5.157185196876525879e-01 2.000000000000000000e+00
