9.086862206459045410e-01 2.794988632202147993e+00 -5.712821483612060547e-01 1.000000000000000000e+01
1.083415985107422097e+00 3.328480482101439986e+00 -5.544037222862243652e-01 9.000000000000000000e+00
1.340862512588500977e+00 4.114529609680175781e+00 -5.313503146171569824e-01 9.000000000000000000e+00
1.734406590461730957e+00 5.318995475769042969e+00 -4.894666373729705811e-01 9.000000000000000000e+00
2.520883560180664062e+00 7.721779823303222656e+00 -4.257006645202637274e-01 1.000000000000000000e+00
4.538912773132324219e+00 1.388682079315186080e+01 -2.550145685672760010e-01 2.000000000000000000e+00
6.985803842544555664e-01 2.127246618270874023e+00 -5.999425649642944336e-01 1.600000000000000000e+01
7.912574410438537598e-01 2.406623363494873047e+00 -5.848727226257324219e-01 1.000000000000000000e+01
9.202775955200195312e-01 2.797394514083861861e+00 -5.724269747734069824e-01 9.000000000000000000e+00
1.097499728202820046e+00 3.332183361053466797e+00 -5.556552410125732422e-01 9.000000000000000000e+00
1.353351831436157005e+00 4.104168415069580078e+00 -5.306191444396972656e-01 9.000000000000000000e+00
1.755459904670715110e+00 5.320477008819580078e+00 -4.901638925075531006e-01 9.000000000000000000e+00
2.544063568115233931e+00 7.701554298400878906e+00 -4.250726401805878241e-01 1.000000000000000000e+00
4.658938407897949219e+00 1.408732795715332031e+01 -2.589937150478363037e-01 2.000000000000000000e+00
7.096564769744873047e-01 2.135795116424560991e+00 -6.030483841896057129e-01 1.800000000000000000e+01
7.996533513069152832e-01 2.403846502304077148e+00 -5.848727226257324219e-01 1.100000000000000000e+01
9.269365668296813965e-01 2.784851312637329102e+00 -5.705189108848571777e-01 9.000000000000000000e+00
1.107875585556030051e+00 3.324583768844604048e+00 -5.550295114517211914e-01 9.000000000000000000e+00
1.366413235664367898e+00 4.095653057098388672e+00 -5.301316380500793457e-01 9.000000000000000000e+00
1.777806282043457031e+00 5.325655937194824219e+00 -4.912097752094268799e-01 9.000000000000000000e+00
2.572197675704956055e+00 7.696415424346923828e+00 -4.252819716930388849e-01 1.000000000000000000e+00
4.699200630187988281e+00 1.404443073272705078e+01 -2.585050463676453192e-01 2.000000000000000000e+00
7.115675806999206543e-01 2.116824388504027876e+00 -5.983896255493164062e-01 1.500000000000000000e+01
8.117688894271850586e-01 2.412122249603271040e+00 -5.875721573829650879e-01 1.100000000000000000e+01
9.347723126411437988e-01 2.776016950607299805e+00 -5.693740248680114746e-01 9.000000000000000000e+00
1.115687489509582964e+00 3.309465169906616211e+00 -5.531522631645202637e-01 1.000000000000000000e+01
1.381971120834351030e+00 4.094620227813720703e+00 -5.306191444396972656e-01 9.000000000000000000e+00
1.791923284530640093e+00 5.306204319000244141e+00 -4.899895787239075262e-01 9.000000000000000000e+00
2.593930006027222124e+00 7.672253608703613281e+00 -4.244446158409119207e-01 2.000000000000000000e+00
4.725115776062011719e+00 1.395975303649901988e+01 -2.572484612464904785e-01 2.000000000000000000e+00
7.183304429054260254e-01 2.112498521804810014e+00 -5.978720188140869141e-01 1.500000000000000000e+01
8.214398026466369629e-01 2.412963628768920898e+00 -5.884719491004943848e-01 1.100000000000000000e+01
9.450897574424743652e-01 2.774595499038695845e+00 -5.697556734085083008e-01 1.000000000000000000e+01
1.132333517074584961e+00 3.320507764816284180e+00 -5.556552410125732422e-01 9.000000000000000000e+00
1.398820996284485085e+00 4.097285747528076172e+00 -5.315940976142883301e-01 9.000000000000000000e+00
1.810434460639954057e+00 5.299917221069335938e+00 -4.899895787239075262e-01 8.000000000000000000e+00
2.628450870513916016e+00 7.685830116271972656e+00 -4.257006645202637274e-01 2.000000000000000000e+00
4.793247699737548828e+00 1.399993038177490057e+01 -2.582956254482268732e-01 2.000000000000000000e+00
7.257000803947448730e-01 2.109978437423706055e+00 -5.978720188140869141e-01 1.600000000000000000e+01
8.285887241363525391e-01 2.406396389007567915e+00 -5.875721573829650879e-01 1.100000000000000000e+01
9.573271274566650391e-01 2.778704166412353960e+00 -5.712821483612060547e-01 1.100000000000000000e+01
1.140052795410156028e+00 3.305330514907836914e+00 -5.537779927253723145e-01 9.000000000000000000e+00
1.414410471916198953e+00 4.096130847930908203e+00 -5.320815443992614746e-01 1.000000000000000000e+01
1.834779262542725053e+00 5.310513496398925781e+00 -4.915584027767180841e-01 9.000000000000000000e+00
2.642205715179442915e+00 7.638857364654541016e+00 -4.236072301864624023e-01 1.000000000000000000e+00
4.811987876892089844e+00 1.389619159698485973e+01 -2.566899955272675116e-01 2.000000000000000000e+00
7.345960736274719238e-01 2.113034486770629883e+00 -5.994248986244201660e-01 1.600000000000000000e+01
8.314396142959594727e-01 2.388911724090576172e+00 -5.839729309082031250e-01 1.100000000000000000e+01
9.704102873802185059e-01 2.786638736724853960e+00 -5.735718607902526855e-01 1.000000000000000000e+01
1.151007413864135964e+00 3.301531791687012163e+00 -5.537779927253723145e-01 9.000000000000000000e+00
1.425369501113892046e+00 4.083920955657958984e+00 -5.311065912246704102e-01 9.000000000000000000e+00
1.846467614173888938e+00 5.287471294403076172e+00 -4.899895787239075262e-01 8.000000000000000000e+00
2.671477317810059038e+00 7.641365528106688565e+00 -4.242352545261383057e-01 2.000000000000000000e+00
4.868612289428710938e+00 1.391035747528075994e+01 -2.572484612464904785e-01 2.000000000000000000e+00
7.426082491874694824e-01 2.112279891967772993e+00 -5.999425649642944336e-01 1.600000000000000000e+01
8.410673737525939941e-01 2.389671325683594194e+00 -5.848727226257324219e-01 1.200000000000000000e+01
9.755667448043823242e-01 2.770271778106689009e+00 -5.709004998207092285e-01 1.100000000000000000e+01
1.163838386535644975e+00 3.301219940185546875e+00 -5.544037222862243652e-01 9.000000000000000000e+00
1.436973571777343972e+00 4.071433067321777344e+00 -5.301316380500793457e-01 9.000000000000000000e+00
1.873537659645081010e+00 5.305416584014892578e+00 -4.922556281089783270e-01 9.000000000000000000e+00
2.692808628082274947e+00 7.616929531097412109e+00 -4.233978986740111750e-01 1.000000000000000000e+00
4.917139053344726562e+00 1.389327812194824041e+01 -2.572484612464904785e-01 2.000000000000000000e+00
7.509925365447998047e-01 2.111363887786864790e+00 -6.004601716995239258e-01 1.400000000000000000e+01
8.550499677658081055e-01 2.401259422302246094e+00 -5.884719491004943848e-01 1.100000000000000000e+01
9.850548505783081055e-01 2.764828205108643022e+00 -5.705189108848571777e-01 1.000000000000000000e+01
1.178584694862365945e+00 3.304374217987060991e+00 -5.556552410125732422e-01 9.000000000000000000e+00
1.450551390647887962e+00 4.062399864196777344e+00 -5.296441912651062012e-01 9.000000000000000000e+00
1.888278245925903098e+00 5.285380363464354581e+00 -4.910354614257813055e-01 8.000000000000000000e+00
2.732815027236938032e+00 7.640859603881835938e+00 -4.252819716930388849e-01 1.000000000000000000e+00
4.941063880920410156e+00 1.379985618591308949e+01 -2.558522820472716730e-01 2.000000000000000000e+00
7.537816762924194336e-01 2.096004486083983931e+00 -5.968367457389831543e-01 1.600000000000000000e+01
8.654070496559143066e-01 2.403760671615601030e+00 -5.898216366767883301e-01 9.000000000000000000e+00
9.940345287322998047e-01 2.759525775909423828e+00 -5.701372623443603516e-01 1.000000000000000000e+01
1.184751033782958984e+00 3.285374164581298828e+00 -5.531522631645202637e-01 9.000000000000000000e+00
1.467419266700745073e+00 4.064780235290527344e+00 -5.306191444396972656e-01 9.000000000000000000e+00
1.902655005455017090e+00 5.267513275146484375e+00 -4.899895787239075262e-01 8.000000000000000000e+00
2.751319885253905806e+00 7.608734607696533203e+00 -4.240259230136870783e-01 1.000000000000000000e+00
4.982397556304931641e+00 1.376372146606444957e+01 -2.555032372474669855e-01 2.000000000000000000e+00
7.600683569908142090e-01 2.091677665710449219e+00 -5.963190793991088867e-01 1.500000000000000000e+01
8.700425028800964355e-01 2.391721010208129883e+00 -5.875721573829650879e-01 1.100000000000000000e+01
1.005194425582885964e+00 2.761748790740966797e+00 -5.712821483612060547e-01 1.000000000000000000e+01
1.192934155464171919e+00 3.274003267288208008e+00 -5.519008040428161621e-01 9.000000000000000000e+00
1.484971880912780984e+00 4.071081161499023438e+00 -5.320815443992614746e-01 9.000000000000000000e+00
1.920112252235413042e+00 5.261175155639648438e+00 -4.899895787239075262e-01 8.000000000000000000e+00
2.782019376754761186e+00 7.614576816558837891e+00 -4.248632788658142090e-01 2.000000000000000000e+00
5.010153293609619141e+00 1.369829463958740057e+01 -2.545956969261168878e-01 2.000000000000000000e+00
7.713617682456970215e-01 2.099892139434814009e+00 -5.994248986244201660e-01 1.600000000000000000e+01
8.756955862045288086e-01 2.381353378295897993e+00 -5.857725739479064941e-01 1.100000000000000000e+01
1.016184329986572044e+00 2.761908292770386186e+00 -5.720453858375549316e-01 1.000000000000000000e+01
1.205038070678710938e+00 3.271672964096068892e+00 -5.522136688232421875e-01 9.000000000000000000e+00
1.496426582336426003e+00 4.058423042297363281e+00 -5.311065912246704102e-01 1.000000000000000000e+01
1.939155101776123047e+00 5.256309986114501953e+00 -4.901638925075531006e-01 9.000000000000000000e+00
2.803046703338623047e+00 7.589830875396729404e+00 -4.240259230136870783e-01 1.000000000000000000e+00
5.045456886291503906e+00 1.364696216583251953e+01 -2.539674043655396063e-01 5.000000000000000000e+00
7.813768386840820312e-01 2.104430913925170898e+00 -6.014954447746276855e-01 1.600000000000000000e+01
8.867185711860656738e-01 2.385588645935059038e+00 -5.875721573829650879e-01 1.000000000000000000e+01
1.024450421333312988e+00 2.754664182662963867e+00 -5.712821483612060547e-01 1.000000000000000000e+01
1.224032282829284890e+00 3.287810325622559038e+00 -5.556552410125732422e-01 9.000000000000000000e+00
1.505038022994994895e+00 4.038293838500976562e+00 -5.291566848754882812e-01 9.000000000000000000e+00
1.958187341690063032e+00 5.251375675201416016e+00 -4.903382062911986750e-01 9.000000000000000000e+00
2.833714008331298828e+00 7.591227054595947266e+00 -4.246539473533629816e-01 1.000000000000000000e+00
5.074863433837890625e+00 1.358056449890137074e+01 -2.530598938465117853e-01 5.000000000000000000e+00
7.853240966796875000e-01 2.092647075653076172e+00 -5.989072918891906738e-01 1.800000000000000000e+01
8.964110612869262695e-01 2.386127471923828125e+00 -5.884719491004943848e-01 1.100000000000000000e+01
1.033368945121764915e+00 2.749233484268188032e+00 -5.709004998207092285e-01 1.000000000000000000e+01
1.232718706130981001e+00 3.276122331619263139e+00 -5.544037222862243652e-01 9.000000000000000000e+00
1.520524621009827104e+00 4.036731243133544922e+00 -5.296441912651062012e-01 9.000000000000000000e+00
1.979316592216491921e+00 5.251965999603270596e+00 -4.910354614257813055e-01 8.000000000000000000e+00
2.860195159912108931e+00 7.581289291381835938e+00 -4.246539473533629816e-01 1.000000000000000000e+00
5.103868007659912109e+00 1.351412773132324041e+01 -2.521523535251616877e-01 5.000000000000000000e+00
7.919389605522155762e-01 2.088086843490601030e+00 -5.983896255493164062e-01 1.900000000000000000e+01
9.061181545257568359e-01 2.386627435684204102e+00 -5.893717408180236816e-01 1.100000000000000000e+01
1.042262077331542969e+00 2.743774414062500000e+00 -5.705189108848571777e-01 1.000000000000000000e+01
1.244849085807800071e+00 3.273645639419556108e+00 -5.547165870666503906e-01 9.000000000000000000e+00
1.537431001663208008e+00 4.038819789886474609e+00 -5.306191444396972656e-01 1.000000000000000000e+01
1.995509982109070046e+00 5.239439010620117188e+00 -4.905125200748444159e-01 8.000000000000000000e+00
2.882372140884398970e+00 7.560061931610107422e+00 -4.240259230136870783e-01 1.000000000000000000e+00
5.148158073425292969e+00 1.348875713348389027e+01 -2.520127594470977783e-01 2.000000000000000000e+00
8.006056547164916992e-01 2.088917493820189986e+00 -5.994248986244201660e-01 1.900000000000000000e+01
9.116513133049011230e-01 2.376172304153441939e+00 -5.875721573829650879e-01 1.000000000000000000e+01
1.052536845207213911e+00 2.741952419281005859e+00 -5.709004998207092285e-01 9.000000000000000000e+00
1.253434419631958008e+00 3.261904716491699219e+00 -5.534651279449462891e-01 8.000000000000000000e+00
1.553657889366149902e+00 4.038986682891845703e+00 -5.313503146171569824e-01 9.000000000000000000e+00
2.009493112564086914e+00 5.221284866333007812e+00 -4.894666373729705811e-01 8.000000000000000000e+00
2.917360544204711914e+00 7.572319030761718750e+00 -4.252819716930388849e-01 2.000000000000000000e+00
5.208163261413574219e+00 1.350428771972656072e+01 -2.526410222053527832e-01 2.000000000000000000e+00
8.099853992462158203e-01 2.091514587402344194e+00 -6.009778380393981934e-01 1.700000000000000000e+01
9.157137870788574219e-01 2.362073659896851030e+00 -5.848727226257324219e-01 1.200000000000000000e+01
1.062101721763611062e+00 2.738261699676514116e+00 -5.709004998207092285e-01 1.000000000000000000e+01
1.268387913703918013e+00 3.266716718673706055e+00 -5.550295114517211914e-01 9.000000000000000000e+00
1.568466186523437944e+00 4.035388946533203125e+00 -5.315940976142883301e-01 1.000000000000000000e+01
2.030595064163208008e+00 5.221666336059570312e+00 -4.901638925075531006e-01 9.000000000000000000e+00
2.939427852630614790e+00 7.550922393798828125e+00 -4.246539473533629816e-01 2.000000000000000000e+00
5.259626865386962891e+00 1.349720478057860973e+01 -2.528504729270935059e-01 2.000000000000000000e+00
8.193930983543395996e-01 2.094071626663208008e+00 -6.025307178497314453e-01 1.400000000000000000e+01
9.253748059272766113e-01 2.362491846084595171e+00 -5.857725739479064941e-01 1.100000000000000000e+01
1.071653485298156960e+00 2.734537601470946822e+00 -5.709004998207092285e-01 9.000000000000000000e+00
1.279783248901366965e+00 3.262269258499145952e+00 -5.550295114517211914e-01 9.000000000000000000e+00
1.574561119079590066e+00 4.009564399719238281e+00 -5.289129614830017090e-01 1.000000000000000000e+01
2.056095600128173828e+00 5.233090400695800781e+00 -4.919070005416870117e-01 8.000000000000000000e+00
2.961381435394287109e+00 7.529463768005371094e+00 -4.240259230136870783e-01 2.000000000000000000e+00
5.306708812713623047e+00 1.347876262664794922e+01 -2.528504729270935059e-01 2.000000000000000000e+00
8.238389492034912109e-01 2.086096525192261186e+00 -6.009778380393981934e-01 1.500000000000000000e+01
9.356579780578613281e-01 2.366822242736815962e+00 -5.875721573829650879e-01 1.000000000000000000e+01
1.078794836997986062e+00 2.727505922317504883e+00 -5.701372623443603516e-01 1.000000000000000000e+01
1.288571238517761008e+00 3.254559278488159180e+00 -5.544037222862243652e-01 9.000000000000000000e+00
1.591538190841675027e+00 4.015670776367188388e+00 -5.303753614425659180e-01 1.000000000000000000e+01
2.065915822982788086e+00 5.209936141967773438e+00 -4.903382062911986750e-01 9.000000000000000000e+00
2.980600118637084961e+00 7.508985042572020596e+00 -4.233978986740111750e-01 2.000000000000000000e+00
5.316537380218505859e+00 1.338025665283202947e+01 -2.513146400451660156e-01 2.000000000000000000e+00
8.282523155212402344e-01 2.076030969619750977e+00 -5.989072918891906738e-01 1.700000000000000000e+01
9.468050003051757812e-01 2.370780706405640093e+00 -5.893717408180236816e-01 1.000000000000000000e+01
1.091951370239258035e+00 2.732839345932006836e+00 -5.720453858375549316e-01 1.000000000000000000e+01
1.298456668853759988e+00 3.246373414993286133e+00 -5.537779927253723145e-01 9.000000000000000000e+00
1.610710740089416948e+00 4.022990703582763672e+00 -5.320815443992614746e-01 1.000000000000000000e+01
2.078162431716918945e+00 5.187897205352783203e+00 -4.889437258243560791e-01 9.000000000000000000e+00
3.017199993133544922e+00 7.524487972259520596e+00 -4.248632788658142090e-01 2.000000000000000000e+00
5.384067535400390625e+00 1.341357898712158025e+01 -2.522919774055480957e-01 2.000000000000000000e+00
8.383824825286865234e-01 2.080294370651245117e+00 -6.009778380393981934e-01 1.700000000000000000e+01
9.536166787147521973e-01 2.363846778869628906e+00 -5.884719491004943848e-01 1.000000000000000000e+01
1.098544836044311968e+00 2.721728801727294922e+00 -5.705189108848571777e-01 1.000000000000000000e+01
1.307560801506042036e+00 3.236326456069945845e+00 -5.528393983840942383e-01 1.000000000000000000e+01
1.623255252838134988e+00 4.013663291931152344e+00 -5.315940976142883301e-01 9.000000000000000000e+00
2.099995374679564986e+00 5.189846038818359375e+00 -4.898152649402617853e-01 9.000000000000000000e+00
3.037448644638061968e+00 7.499100685119628906e+00 -4.240259230136870783e-01 2.000000000000000000e+00
5.409818649291992188e+00 1.334281444549561080e+01 -2.513146400451660156e-01 2.000000000000000000e+00
8.427254557609558105e-01 2.070198059082030806e+00 -5.989072918891906738e-01 1.700000000000000000e+01
9.574500322341918945e-01 2.349675655364989790e+00 -5.857725739479064941e-01 1.100000000000000000e+01
1.111744523048401101e+00 2.726967334747314009e+00 -5.724269747734069824e-01 1.000000000000000000e+01
1.322581648826598899e+00 3.240887403488159180e+00 -5.544037222862243652e-01 9.000000000000000000e+00
1.632751464843750000e+00 3.996946811676024947e+00 -5.301316380500793457e-01 1.000000000000000000e+01
2.130158901214600053e+00 5.211992740631104404e+00 -4.926042556762694757e-01 9.000000000000000000e+00
3.051506519317626953e+00 7.458875656127929688e+00 -4.223511815071105957e-01 2.000000000000000000e+00
5.463939189910888672e+00 1.334235477447509943e+01 -2.516637146472930908e-01 2.000000000000000000e+00
8.572927713394165039e-01 2.085111141204833984e+00 -6.040836572647094727e-01 1.800000000000000000e+01
9.641627669334411621e-01 2.342715024948120117e+00 -5.848727226257324219e-01 1.000000000000000000e+01
1.119014143943787065e+00 2.717623949050902876e+00 -5.712821483612060547e-01 1.000000000000000000e+01
1.330875277519226074e+00 3.228945493698120117e+00 -5.531522631645202637e-01 9.000000000000000000e+00
1.643665075302124023e+00 3.983882904052733931e+00 -5.291566848754882812e-01 1.000000000000000000e+01
2.143778085708618164e+00 5.193475246429443359e+00 -4.915584027767180841e-01 9.000000000000000000e+00
3.089727640151977983e+00 7.477712631225585938e+00 -4.240259230136870783e-01 2.000000000000000000e+00
5.498250961303710938e+00 1.329363441467284979e+01 -2.511052191257476807e-01 2.000000000000000000e+00
8.616026043891906738e-01 2.074969291687012163e+00 -6.020131111145019531e-01 2.000000000000000000e+01
9.738304018974304199e-01 2.342934131622314009e+00 -5.857725739479064941e-01 1.100000000000000000e+01
1.123970627784729004e+00 2.702824831008911133e+00 -5.689924359321594238e-01 1.000000000000000000e+01
1.346693158149719016e+00 3.235222339630126953e+00 -5.550295114517211914e-01 9.000000000000000000e+00
1.659088492393494096e+00 3.981785774230957031e+00 -5.296441912651062012e-01 9.000000000000000000e+00
2.158827066421508789e+00 5.178604602813720703e+00 -4.908611476421356201e-01 9.000000000000000000e+00
3.115810871124268022e+00 7.466882228851318359e+00 -4.240259230136870783e-01 2.000000000000000000e+00
5.541537761688232422e+00 1.326698017120360973e+01 -2.509655952453612726e-01 2.000000000000000000e+00
8.628637790679931641e-01 2.057696580886840820e+00 -5.978720188140869141e-01 2.000000000000000000e+01
9.880366325378417969e-01 2.353895664215087891e+00 -5.893717408180236816e-01 1.100000000000000000e+01
1.137199163436890093e+00 2.707935571670531782e+00 -5.709004998207092285e-01 9.000000000000000000e+00
1.361039876937865989e+00 3.237786054611206055e+00 -5.562809705734252930e-01 9.000000000000000000e+00
1.674517154693603960e+00 3.979629755020142046e+00 -5.301316380500793457e-01 9.000000000000000000e+00
2.173025369644165039e+00 5.161855697631835938e+00 -4.899895787239075262e-01 8.000000000000000000e+00
3.148060798645019975e+00 7.470684528350830078e+00 -4.248632788658142090e-01 2.000000000000000000e+00
5.595586299896240234e+00 1.326598072052001953e+01 -2.513146400451660156e-01 2.000000000000000000e+00
8.707945346832275391e-01 2.056451082229613814e+00 -5.983896255493164062e-01 1.900000000000000000e+01
9.947262406349182129e-01 2.346843957901000977e+00 -5.884719491004943848e-01 1.100000000000000000e+01
1.146644711494446023e+00 2.703949451446533203e+00 -5.709004998207092285e-01 1.000000000000000000e+01
1.363843321800231934e+00 3.213013648986815962e+00 -5.528393983840942383e-01 8.000000000000000000e+00
1.693056106567383035e+00 3.984722375869750977e+00 -5.315940976142883301e-01 9.000000000000000000e+00
2.190250873565673828e+00 5.152405261993408203e+00 -4.898152649402617853e-01 9.000000000000000000e+00
3.174119234085083008e+00 7.459650516510009766e+00 -4.248632788658142090e-01 2.000000000000000000e+00
5.618351459503173828e+00 1.319117450714110973e+01 -2.502675056457520086e-01 2.000000000000000000e+00
8.802862167358398438e-01 2.060811519622803178e+00 -6.004601716995239258e-01 1.600000000000000000e+01
9.929006695747375488e-01 2.322205543518065962e+00 -5.830731391906738281e-01 1.200000000000000000e+01
1.158994436264038086e+00 2.709358930587768999e+00 -5.728086233139038086e-01 1.000000000000000000e+01
1.376263260841370073e+00 3.214160680770874023e+00 -5.537779927253723145e-01 9.000000000000000000e+00
1.705566048622130904e+00 3.979383945465087891e+00 -5.315940976142883301e-01 1.000000000000000000e+01
2.211138010025023970e+00 5.156486034393311435e+00 -4.908611476421356201e-01 9.000000000000000000e+00
3.188085556030272993e+00 7.427617549896240234e+00 -4.236072301864624023e-01 1.000000000000000000e+00
5.659764766693115234e+00 1.317345905303955078e+01 -2.502675056457520086e-01 2.000000000000000000e+00
8.890045285224914551e-01 2.061273813247681108e+00 -6.014954447746276855e-01 1.600000000000000000e+01
1.008724331855773926e+00 2.336616754531859907e+00 -5.875721573829650879e-01 1.000000000000000000e+01
1.165331006050110085e+00 2.698087453842163086e+00 -5.712821483612060547e-01 1.000000000000000000e+01
1.395313143730164018e+00 3.227468967437744141e+00 -5.569067001342773438e-01 9.000000000000000000e+00
1.714716076850890891e+00 3.962475061416625977e+00 -5.301316380500793457e-01 9.000000000000000000e+00
2.237831592559814009e+00 5.168848514556884766e+00 -4.927785694599152166e-01 9.000000000000000000e+00
3.226700067520142046e+00 7.445765018463134766e+00 -4.252819716930388849e-01 2.000000000000000000e+00
5.685024261474609375e+00 1.310592460632324041e+01 -2.493599802255629938e-01 2.000000000000000000e+00
8.980966210365295410e-01 2.061543941497803178e+00 -6.025307178497314453e-01 1.900000000000000000e+01
1.018839597702025923e+00 2.336476564407349077e+00 -5.884719491004943848e-01 1.000000000000000000e+01
1.172072052955626997e+00 2.686600446701049805e+00 -5.697556734085083008e-01 1.000000000000000000e+01
1.407133102416991965e+00 3.222333192825316939e+00 -5.569067001342773438e-01 9.000000000000000000e+00
1.729227781295775923e+00 3.956163644790648970e+00 -5.301316380500793457e-01 9.000000000000000000e+00
2.247181892395019975e+00 5.138706207275390625e+00 -4.906868338584899902e-01 8.000000000000000000e+00
3.241154432296752930e+00 7.404613971710205078e+00 -4.236072301864624023e-01 1.000000000000000000e+00
5.272389411926270419e+00 1.203365802764892933e+01 -2.293246239423752109e-01 2.000000000000000000e+00
8.998431563377380371e-01 2.046017646789550781e+00 -5.989072918891906738e-01 1.600000000000000000e+01
1.025418877601623979e+00 2.329338788986206055e+00 -5.875721573829650879e-01 1.100000000000000000e+01
1.180651545524596946e+00 2.680696010589600053e+00 -5.693740248680114746e-01 1.100000000000000000e+01
1.414388298988342063e+00 3.208364248275756836e+00 -5.553423762321472168e-01 8.000000000000000000e+00
1.746232390403748003e+00 3.957368135452270952e+00 -5.311065912246704102e-01 9.000000000000000000e+00
2.259473085403441939e+00 5.118072032928466797e+00 -4.894666373729705811e-01 9.000000000000000000e+00
3.275054216384888139e+00 7.411523818969726562e+00 -4.246539473533629816e-01 2.000000000000000000e+00
5.783514976501464844e+00 1.307588100433349965e+01 -2.495694160461426059e-01 2.000000000000000000e+00
9.078330397605895996e-01 2.046712636947631836e+00 -5.999425649642944336e-01 1.700000000000000000e+01
1.035894632339477983e+00 2.333230257034302202e+00 -5.893717408180236816e-01 1.000000000000000000e+01
1.189864277839661089e+00 2.678767919540404829e+00 -5.697556734085083008e-01 9.000000000000000000e+00
1.417238116264343040e+00 3.187659740447998047e+00 -5.525265336036682129e-01 9.000000000000000000e+00
1.755427837371825950e+00 3.944608211517333984e+00 -5.301316380500793457e-01 9.000000000000000000e+00
2.279592752456665039e+00 5.120048999786376953e+00 -4.903382062911986750e-01 9.000000000000000000e+00
3.295069932937622070e+00 7.393901348114013672e+00 -4.242352545261383057e-01 2.000000000000000000e+00
5.819677829742431641e+00 1.304668998718262074e+01 -2.493599802255629938e-01 2.000000000000000000e+00
9.141823649406433105e-01 2.041767835617064986e+00 -5.994248986244201660e-01 1.500000000000000000e+01
1.036860108375549094e+00 2.313595056533813032e+00 -5.853226184844970703e-01 1.000000000000000000e+01
1.201617360115051047e+00 2.679972410202025923e+00 -5.709004998207092285e-01 9.000000000000000000e+00
1.428356528282165971e+00 3.182693243026732954e+00 -5.525265336036682129e-01 9.000000000000000000e+00
1.774880290031433105e+00 3.951132059097290039e+00 -5.318378210067749023e-01 9.000000000000000000e+00
2.295817613601685014e+00 5.108426094055175781e+00 -4.899895787239075262e-01 8.000000000000000000e+00
3.307749748229980025e+00 7.353210926055908203e+00 -4.225605130195618231e-01 2.000000000000000000e+00
5.845479965209960938e+00 1.298253440856933949e+01 -2.485222667455672940e-01 2.000000000000000000e+00
9.272310733795166016e-01 2.050725460052489790e+00 -6.030483841896057129e-01 1.500000000000000000e+01
1.047743320465087891e+00 2.315105438232421875e+00 -5.866723656654357910e-01 1.000000000000000000e+01
1.209002614021301047e+00 2.670184850692749023e+00 -5.697556734085083008e-01 1.000000000000000000e+01
1.445719957351685014e+00 3.190031290054320845e+00 -5.547165870666503906e-01 8.000000000000000000e+00
1.781969547271728960e+00 3.928330183029174805e+00 -5.296441912651062012e-01 1.000000000000000000e+01
2.315348863601685014e+00 5.101791381835938388e+00 -4.901638925075531006e-01 9.000000000000000000e+00
3.337982416152954102e+00 7.348311901092529297e+00 -4.229792058467864990e-01 2.000000000000000000e+00
5.899645328521729404e+00 1.297558593750000000e+01 -2.488014996051788053e-01 2.000000000000000000e+00
9.319776296615600586e-01 2.042203903198242188e+00 -6.014954447746276855e-01 1.600000000000000000e+01
1.055818200111388938e+00 2.311434030532836914e+00 -5.866723656654357910e-01 1.100000000000000000e+01
1.219131946563720925e+00 2.667734146118164062e+00 -5.701372623443603516e-01 1.000000000000000000e+01
1.459311485290526900e+00 3.190354347229003906e+00 -5.556552410125732422e-01 9.000000000000000000e+00
1.793192028999329057e+00 3.916671276092528853e+00 -5.289129614830017090e-01 9.000000000000000000e+00
2.335632562637329102e+00 5.099112510681152344e+00 -4.906868338584899902e-01 9.000000000000000000e+00
3.368606805801392046e+00 7.347508430480957031e+00 -4.236072301864624023e-01 2.000000000000000000e+00
5.958247184753417969e+00 1.298399257659911932e+01 -2.493599802255629938e-01 2.000000000000000000e+00
9.358678460121154785e-01 2.031919479370117188e+00 -5.994248986244201660e-01 1.600000000000000000e+01
1.067143559455872026e+00 2.314813375473022017e+00 -5.884719491004943848e-01 1.000000000000000000e+01
1.225969910621643066e+00 2.658113956451416016e+00 -5.689924359321594238e-01 1.000000000000000000e+01
1.468783020973206010e+00 3.181653976440430132e+00 -5.550295114517211914e-01 9.000000000000000000e+00
1.816844701766967995e+00 3.932012081146239790e+00 -5.318378210067749023e-01 9.000000000000000000e+00
2.349237442016602007e+00 5.081885814666748047e+00 -4.898152649402617853e-01 9.000000000000000000e+00
3.389201641082764116e+00 7.324829578399658203e+00 -4.229792058467864990e-01 2.000000000000000000e+00
5.958153724670410156e+00 1.286512947082520064e+01 -2.474751174449920932e-01 2.000000000000000000e+00
9.396976828575134277e-01 2.021632909774779829e+00 -5.973543524742126465e-01 1.500000000000000000e+01
1.078505396842956987e+00 2.318141698837279829e+00 -5.902715921401977539e-01 1.000000000000000000e+01
1.238554835319519043e+00 2.660937786102294922e+00 -5.705189108848571777e-01 1.000000000000000000e+01
1.472372293472290039e+00 3.160392284393310991e+00 -5.522136688232421875e-01 8.000000000000000000e+00
1.830558896064758079e+00 3.925646305084228960e+00 -5.318378210067749023e-01 9.000000000000000000e+00
2.370331525802611861e+00 5.080876827239990234e+00 -4.905125200748444159e-01 9.000000000000000000e+00
3.424889564514160156e+00 7.334670543670654297e+00 -4.242352545261383057e-01 2.000000000000000000e+00
6.019958972930908203e+00 1.288048553466797053e+01 -2.481732219457626065e-01 2.000000000000000000e+00
9.533120393753051758e-01 2.032332420349121094e+00 -6.014954447746276855e-01 1.900000000000000000e+01
1.078308701515197976e+00 2.296723127365111861e+00 -5.857725739479064941e-01 1.100000000000000000e+01
1.251174330711364968e+00 2.663706302642821822e+00 -5.720453858375549316e-01 1.000000000000000000e+01
1.488437891006469949e+00 3.165959596633911133e+00 -5.540908575057983398e-01 8.000000000000000000e+00
1.834108233451843040e+00 3.897678613662720171e+00 -5.289129614830017090e-01 9.000000000000000000e+00
2.386355400085449219e+00 5.068966865539550781e+00 -4.901638925075531006e-01 9.000000000000000000e+00
3.431742191314696822e+00 7.282922744750976562e+00 -4.219324886798859198e-01 2.000000000000000000e+00
6.040999412536621094e+00 1.280875110626221058e+01 -2.471958845853806097e-01 2.000000000000000000e+00
9.645329117774963379e-01 2.037723064422606978e+00 -6.040836572647094727e-01 1.800000000000000000e+01
1.086319208145142046e+00 2.292945146560668945e+00 -5.857725739479064941e-01 1.100000000000000000e+01
1.254578709602355957e+00 2.646904230117797852e+00 -5.693740248680114746e-01 9.000000000000000000e+00
1.500326752662658913e+00 3.162529468536376953e+00 -5.544037222862243652e-01 9.000000000000000000e+00
1.845999598503113015e+00 3.887666225433350053e+00 -5.284254550933837891e-01 9.000000000000000000e+00
2.410874128341674805e+00 5.075003147125244141e+00 -4.915584027767180841e-01 9.000000000000000000e+00
3.474296092987060991e+00 7.306974411010742188e+00 -4.240259230136870783e-01 2.000000000000000000e+00
6.075361728668212891e+00 1.276591873168944957e+01 -2.467770278453826904e-01 2.000000000000000000e+00
9.641466736793518066e-01 2.018654823303223100e+00 -5.994248986244201660e-01 1.600000000000000000e+01
1.095997452735901101e+00 2.292655467987060991e+00 -5.866723656654357910e-01 1.100000000000000000e+01
1.261269330978393999e+00 2.637195348739624023e+00 -5.682291984558105469e-01 1.000000000000000000e+01
1.511356949806212935e+00 3.157273054122924805e+00 -5.544037222862243652e-01 9.000000000000000000e+00
1.864705204963684082e+00 3.891940116882324219e+00 -5.298879146575927734e-01 9.000000000000000000e+00
2.430296897888184038e+00 5.070149898529052734e+00 -4.919070005416870117e-01 9.000000000000000000e+00
3.503236770629882812e+00 7.302005290985107422e+00 -4.244446158409119207e-01 2.000000000000000000e+00
6.137198448181152344e+00 1.278068637847900035e+01 -2.474751174449920932e-01 2.000000000000000000e+00
9.703485369682312012e-01 2.013536691665648970e+00 -5.989072918891906738e-01 1.800000000000000000e+01
1.112459897994994895e+00 2.306368112564086914e+00 -5.911713838577270508e-01 1.100000000000000000e+01
1.277293086051940918e+00 2.646921873092650923e+00 -5.712821483612060547e-01 1.000000000000000000e+01
1.522368669509887917e+00 3.151978254318236861e+00 -5.544037222862243652e-01 9.000000000000000000e+00
1.877415299415587935e+00 3.883620023727416992e+00 -5.296441912651062012e-01 1.000000000000000000e+01
2.439305543899536133e+00 5.043699264526367188e+00 -4.901638925075531006e-01 9.000000000000000000e+00
3.521742582321166992e+00 7.275350093841552734e+00 -4.236072301864624023e-01 2.000000000000000000e+00
6.164335727691650391e+00 1.272319412231444957e+01 -2.467770278453826904e-01 2.000000000000000000e+00
9.790607094764709473e-01 2.013612031936645952e+00 -5.999425649642944336e-01 1.600000000000000000e+01
1.113681912422179954e+00 2.288452625274658203e+00 -5.875721573829650879e-01 1.000000000000000000e+01
1.283946514129638894e+00 2.637151718139647993e+00 -5.701372623443603516e-01 1.000000000000000000e+01
1.528169870376586914e+00 3.135990381240845171e+00 -5.525265336036682129e-01 9.000000000000000000e+00
1.894441008567810059e+00 3.884179830551147017e+00 -5.306191444396972656e-01 1.000000000000000000e+01
2.453401803970336914e+00 5.027991294860839844e+00 -4.894666373729705811e-01 9.000000000000000000e+00
3.534846067428588867e+00 7.237887382507324219e+00 -4.221418201923369806e-01 2.000000000000000000e+00
6.226274013519287109e+00 1.273752975463867010e+01 -2.474751174449920932e-01 2.000000000000000000e+00
9.894867539405822754e-01 2.017119884490966797e+00 -6.020131111145019531e-01 1.700000000000000000e+01
1.119945526123047097e+00 2.281052589416503906e+00 -5.866723656654357910e-01 1.100000000000000000e+01
1.300934076309204102e+00 2.648513078689575195e+00 -5.735718607902526855e-01 1.000000000000000000e+01
1.543464779853821023e+00 3.139500617980957031e+00 -5.540908575057983398e-01 9.000000000000000000e+00
1.910617113113403098e+00 3.882886648178101030e+00 -5.313503146171569824e-01 9.000000000000000000e+00
2.474457502365111861e+00 5.026546955108642578e+00 -4.901638925075531006e-01 9.000000000000000000e+00
3.565385818481444868e+00 7.236254215240479404e+00 -4.227698445320128839e-01 1.000000000000000000e+00
6.253009796142578125e+00 1.267984867095947088e+01 -2.467770278453826904e-01 2.000000000000000000e+00
9.978834390640258789e-01 2.017290592193603960e+00 -6.030483841896057129e-01 1.700000000000000000e+01
1.127503633499145952e+00 2.277326345443726030e+00 -5.866723656654357910e-01 1.100000000000000000e+01
1.305352807044982910e+00 2.635388135910034180e+00 -5.716637372970581055e-01 9.000000000000000000e+00
1.556499481201172097e+00 3.139674425125122070e+00 -5.550295114517211914e-01 9.000000000000000000e+00
1.916424036026000977e+00 3.862303733825684038e+00 -5.294004082679748535e-01 9.000000000000000000e+00
2.490226745605469194e+00 5.016529083251953125e+00 -4.899895787239075262e-01 9.000000000000000000e+00
3.589362621307373047e+00 7.224390983581542969e+00 -4.227698445320128839e-01 1.000000000000000000e+00
6.277215480804443359e+00 1.262323284149169922e+01 -2.460789233446120938e-01 2.000000000000000000e+00
1.001468658447266069e+00 2.006880760192871094e+00 -6.009778380393981934e-01 1.600000000000000000e+01
1.137187600135803001e+00 2.276863574981689009e+00 -5.875721573829650879e-01 1.100000000000000000e+01
1.310156345367432085e+00 2.622034549713135210e+00 -5.697556734085083008e-01 1.000000000000000000e+01
1.569216609001159890e+00 3.137755632400513139e+00 -5.556552410125732422e-01 9.000000000000000000e+00
1.929894328117371050e+00 3.855590581893920898e+00 -5.294004082679748535e-01 1.000000000000000000e+01
2.511291027069091797e+00 5.014932155609130859e+00 -4.906868338584899902e-01 8.000000000000000000e+00
3.618138313293457031e+00 7.218959808349609375e+00 -4.231885373592377264e-01 2.000000000000000000e+00
6.308687686920166016e+00 1.257622051239014027e+01 -2.455902695655823031e-01 2.000000000000000000e+00
1.001518845558166948e+00 1.989568233489990012e+00 -5.968367457389831543e-01 1.500000000000000000e+01
1.146882057189940962e+00 2.276360750198363814e+00 -5.884719491004943848e-01 1.100000000000000000e+01
1.319301009178162065e+00 2.617445230484008789e+00 -5.697556734085083008e-01 1.000000000000000000e+01
1.577490687370300071e+00 3.126967906951903853e+00 -5.547165870666503906e-01 9.000000000000000000e+00
1.947814702987670898e+00 3.857690572738647017e+00 -5.306191444396972656e-01 1.000000000000000000e+01
2.527882814407349077e+00 5.004357337951660156e+00 -4.905125200748444159e-01 9.000000000000000000e+00
3.645117282867432085e+00 7.209851264953613281e+00 -4.233978986740111750e-01 2.000000000000000000e+00
6.345325469970703125e+00 1.253984832763672053e+01 -2.453110218048095981e-01 2.000000000000000000e+00
1.013705492019653098e+00 1.996395230293273926e+00 -5.999425649642944336e-01 1.700000000000000000e+01
1.151289463043212891e+00 2.265394449234008789e+00 -5.866723656654357910e-01 1.100000000000000000e+01
1.331098914146422896e+00 2.618074178695679155e+00 -5.709004998207092285e-01 9.000000000000000000e+00
1.585708618164062944e+00 3.116160869598389116e+00 -5.537779927253723145e-01 9.000000000000000000e+00
1.960367798805237038e+00 3.849099159240723100e+00 -5.303753614425659180e-01 1.000000000000000000e+01
2.547144889831542969e+00 4.999053001403808594e+00 -4.908611476421356201e-01 9.000000000000000000e+00
3.664818048477172852e+00 7.186408042907714844e+00 -4.227698445320128839e-01 2.000000000000000000e+00
6.389059066772460938e+00 1.251762294769286932e+01 -2.453110218048095981e-01 2.000000000000000000e+00
1.020320177078247070e+00 1.993022680282592995e+00 -5.999425649642944336e-01 1.800000000000000000e+01
1.162350058555603027e+00 2.268501520156859907e+00 -5.884719491004943848e-01 1.000000000000000000e+01
1.340668916702270952e+00 2.615392684936522993e+00 -5.712821483612060547e-01 1.000000000000000000e+01
1.595131754875183105e+00 3.109127759933472124e+00 -5.534651279449462891e-01 8.000000000000000000e+00
1.978561758995055930e+00 3.853172540664672852e+00 -5.318378210067749023e-01 9.000000000000000000e+00
2.565529108047484907e+00 4.994123458862304688e+00 -4.912097752094268799e-01 9.000000000000000000e+00
3.683149337768555132e+00 7.163558006286621094e+00 -4.221418201923369806e-01 2.000000000000000000e+00
6.450663566589354581e+00 1.253548526763916016e+01 -2.460789233446120938e-01 2.000000000000000000e+00
1.034361720085144043e+00 2.003181219100952148e+00 -6.040836572647094727e-01 2.000000000000000000e+01
1.164893388748168945e+00 2.254043102264403853e+00 -5.857725739479064941e-01 1.100000000000000000e+01
1.345281839370727983e+00 2.601977348327637163e+00 -5.693740248680114746e-01 9.000000000000000000e+00
1.610514044761657937e+00 3.112312793731689009e+00 -5.550295114517211914e-01 9.000000000000000000e+00
1.982870459556580034e+00 3.828615427017211914e+00 -5.294004082679748535e-01 9.000000000000000000e+00
2.582029581069945845e+00 4.983368873596191406e+00 -4.910354614257813055e-01 9.000000000000000000e+00
3.715487957000731978e+00 7.164842128753662109e+00 -4.229792058467864990e-01 2.000000000000000000e+00
6.494381427764892578e+00 1.251289176940917969e+01 -2.460789233446120938e-01 2.000000000000000000e+00
1.040455460548401101e+00 1.997844934463500977e+00 -6.035659909248352051e-01 2.100000000000000000e+01
1.177258014678955078e+00 2.258603572845458984e+00 -5.880220532417297363e-01 9.000000000000000000e+00
1.356171727180480957e+00 2.600747108459473100e+00 -5.701372623443603516e-01 9.000000000000000000e+00
1.619540333747863992e+00 3.103169679641724077e+00 -5.544037222862243652e-01 9.000000000000000000e+00
1.998060941696166992e+00 3.825189590454102007e+00 -5.298879146575927734e-01 1.000000000000000000e+01
2.595718145370482954e+00 4.967262268066406250e+00 -4.903382062911986750e-01 9.000000000000000000e+00
3.736772775650023970e+00 7.144749641418457031e+00 -4.225605130195618231e-01 2.000000000000000000e+00
6.519472122192382812e+00 1.245471286773681996e+01 -2.453808337450026911e-01 2.000000000000000000e+00
1.039338231086730957e+00 1.978808283805846946e+00 -5.989072918891906738e-01 1.900000000000000000e+01
1.186041593551635964e+00 2.256205320358275923e+00 -5.884719491004943848e-01 1.100000000000000000e+01
1.366155624389647993e+00 2.597734928131103960e+00 -5.705189108848571777e-01 1.000000000000000000e+01
1.630362510681151900e+00 3.097497463226317915e+00 -5.544037222862243652e-01 9.000000000000000000e+00
2.020653247833251953e+00 3.835754632949829102e+00 -5.323252677917480469e-01 9.000000000000000000e+00
2.609325647354125977e+00 4.951120853424072266e+00 -4.896409511566162109e-01 9.000000000000000000e+00
3.769144296646118164e+00 7.145794868469238281e+00 -4.233978986740111750e-01 2.000000000000000000e+00
6.534901142120361328e+00 1.237882709503174006e+01 -2.443336844444274902e-01 2.000000000000000000e+00
1.049856305122375044e+00 1.981996893882751021e+00 -6.009778380393981934e-01 1.900000000000000000e+01
1.195735573768615945e+00 2.255494832992554155e+00 -5.893717408180236816e-01 1.100000000000000000e+01
1.372455477714539018e+00 2.587747097015380859e+00 -5.693740248680114746e-01 9.000000000000000000e+00
1.639312624931335005e+00 3.088297843933105025e+00 -5.537779927253723145e-01 9.000000000000000000e+00
2.034030199050902876e+00 3.828677892684936968e+00 -5.323252677917480469e-01 1.000000000000000000e+01
2.633137702941894975e+00 4.954297542572020596e+00 -4.908611476421356201e-01 9.000000000000000000e+00
3.777181386947631836e+00 7.100854873657226562e+00 -4.215137958526610773e-01 2.000000000000000000e+00
6.578071117401123047e+00 1.235594081878661932e+01 -2.443336844444274902e-01 2.000000000000000000e+00
1.058588743209839089e+00 1.981728076934814009e+00 -6.020131111145019531e-01 2.000000000000000000e+01
1.196251153945923074e+00 2.237558841705321822e+00 -5.857725739479064941e-01 1.100000000000000000e+01
1.389813423156738059e+00 2.598521232604980025e+00 -5.728086233139038086e-01 9.000000000000000000e+00
1.644489288330077903e+00 3.072107553482056108e+00 -5.519008040428161621e-01 9.000000000000000000e+00
2.046444892883300781e+00 3.819804668426514116e+00 -5.320815443992614746e-01 1.000000000000000000e+01
2.649474143981934038e+00 4.943319797515869141e+00 -4.906868338584899902e-01 9.000000000000000000e+00
3.807609796524047852e+00 7.098186969757080078e+00 -4.221418201923369806e-01 2.000000000000000000e+00
6.611702919006347656e+00 1.231528568267822088e+01 -2.439846396446228027e-01 2.000000000000000000e+00
1.068818092346190962e+00 1.985010504722594993e+00 -6.040836572647094727e-01 2.000000000000000000e+01
1.203664660453795943e+00 2.233579635620117188e+00 -5.857725739479064941e-01 1.100000000000000000e+01
1.391901135444640891e+00 2.581801414489746094e+00 -5.701372623443603516e-01 9.000000000000000000e+00
1.661233901977539062e+00 3.078806400299071822e+00 -5.540908575057983398e-01 9.000000000000000000e+00
2.052497863769530806e+00 3.800770759582519975e+00 -5.303753614425659180e-01 9.000000000000000000e+00
2.666799306869506836e+00 4.936259746551513672e+00 -4.908611476421356201e-01 9.000000000000000000e+00
3.838726758956909180e+00 7.099576473236083984e+00 -4.229792058467864990e-01 2.000000000000000000e+00
6.644891738891601562e+00 1.227922344207764027e+01 -2.437054067850112915e-01 2.000000000000000000e+00
1.072053313255310059e+00 1.974476575851439986e+00 -6.020131111145019531e-01 2.000000000000000000e+01
1.215175747871398926e+00 2.236213445663452148e+00 -5.875721573829650879e-01 1.100000000000000000e+01
1.397154092788696067e+00 2.570027589797974077e+00 -5.686107873916625977e-01 1.000000000000000000e+01
1.674803018569946067e+00 3.078194379806518999e+00 -5.550295114517211914e-01 9.000000000000000000e+00
2.063853979110718218e+00 3.790096282958983931e+00 -5.298879146575927734e-01 1.000000000000000000e+01
2.685920000076293945e+00 4.930419921875000000e+00 -4.912097752094268799e-01 9.000000000000000000e+00
3.861573457717895952e+00 7.082626819610595703e+00 -4.227698445320128839e-01 2.000000000000000000e+00
6.699207782745361328e+00 1.227701759338379084e+01 -2.441242635250092108e-01 2.000000000000000000e+00
1.072444915771483931e+00 1.958860754966736062e+00 -5.983896255493164062e-01 1.900000000000000000e+01
1.228592753410338911e+00 2.242212057113647017e+00 -5.902715921401977539e-01 1.200000000000000000e+01
1.409891366958617942e+00 2.572021245956420898e+00 -5.701372623443603516e-01 1.100000000000000000e+01
1.682687282562256081e+00 3.067133903503417969e+00 -5.540908575057983398e-01 8.000000000000000000e+00
2.084714651107788086e+00 3.796789407730102983e+00 -5.318378210067749023e-01 9.000000000000000000e+00
2.684888601303101030e+00 4.887835025787354404e+00 -4.878978431224822998e-01 7.000000000000000000e+00
3.888197183609008789e+00 7.072604656219482422e+00 -4.229792058467864990e-01 2.000000000000000000e+00
6.728526115417479581e+00 1.222902965545653942e+01 -2.436355948448180875e-01 2.000000000000000000e+00
1.083010673522948997e+00 1.961870431900023970e+00 -6.004601716995239258e-01 1.900000000000000000e+01
1.228873014450073020e+00 2.224264144897460938e+00 -5.866723656654357910e-01 1.100000000000000000e+01
1.417911171913146973e+00 2.565366029739379883e+00 -5.697556734085083008e-01 1.000000000000000000e+01
1.695295691490172896e+00 3.064698696136475053e+00 -5.547165870666503906e-01 8.000000000000000000e+00
2.099878072738647017e+00 3.792962551116942915e+00 -5.323252677917480469e-01 9.000000000000000000e+00
2.709656715393065962e+00 4.892376899719238281e+00 -4.892923533916472834e-01 9.000000000000000000e+00
3.910924911499022993e+00 7.055495262145996094e+00 -4.227698445320128839e-01 2.000000000000000000e+00
6.780873298645020419e+00 1.222295475006104049e+01 -2.439846396446228027e-01 2.000000000000000000e+00
1.091731309890747070e+00 1.961454033851623979e+00 -6.014954447746276855e-01 1.600000000000000000e+01
1.236629605293273926e+00 2.219960927963256836e+00 -5.866723656654357910e-01 1.300000000000000000e+01
1.432591438293457031e+00 2.570690393447875977e+00 -5.720453858375549316e-01 1.000000000000000000e+01
1.705021023750304954e+00 3.057037115097045898e+00 -5.544037222862243652e-01 9.000000000000000000e+00
2.116975307464600053e+00 3.792542934417725053e+00 -5.333002209663391113e-01 9.000000000000000000e+00
2.731574773788452148e+00 4.891586303710938388e+00 -4.901638925075531006e-01 9.000000000000000000e+00
3.919939279556273970e+00 7.013905525207520419e+00 -4.210951030254364014e-01 2.000000000000000000e+00
6.803974628448486328e+00 1.216430568695068004e+01 -2.432865500450134000e-01 2.000000000000000000e+00
1.105189323425292969e+00 1.969424247741698997e+00 -6.051189303398132324e-01 2.000000000000000000e+01
1.244371175765990989e+00 2.215630769729613814e+00 -5.866723656654357910e-01 1.200000000000000000e+01
1.438671112060547097e+00 2.560539484024047852e+00 -5.709004998207092285e-01 1.100000000000000000e+01
1.711808800697327104e+00 3.044179677963256836e+00 -5.531522631645202637e-01 9.000000000000000000e+00
2.118517875671387163e+00 3.764370918273925781e+00 -5.303753614425659180e-01 9.000000000000000000e+00
2.747655391693114790e+00 4.880285263061523438e+00 -4.899895787239075262e-01 8.000000000000000000e+00
3.940476655960083008e+00 6.993219375610351562e+00 -4.206764101982117254e-01 2.000000000000000000e+00
6.856216907501220703e+00 1.215789985656737926e+01 -2.436355948448180875e-01 2.000000000000000000e+00
1.101863980293273926e+00 1.949125170707703081e+00 -5.999425649642944336e-01 1.900000000000000000e+01
1.253244876861572044e+00 2.215102672576903853e+00 -5.875721573829650879e-01 1.100000000000000000e+01
1.444774031639098899e+00 2.552589893341064009e+00 -5.701372623443603516e-01 1.200000000000000000e+01
1.729152798652648926e+00 3.052536964416503906e+00 -5.556552410125732422e-01 9.000000000000000000e+00
2.132291555404663086e+00 3.761150598526000977e+00 -5.308628678321838379e-01 9.000000000000000000e+00
2.766905307769774947e+00 4.878561496734619141e+00 -4.906868338584899902e-01 8.000000000000000000e+00
3.970314502716064009e+00 6.994701385498046875e+00 -4.215137958526610773e-01 2.000000000000000000e+00
6.854868888854979581e+00 1.206675148010254084e+01 -2.422394007444381991e-01 2.000000000000000000e+00
1.110574126243591087e+00 1.948623776435852051e+00 -6.009778380393981934e-01 2.000000000000000000e+01
1.264831423759460005e+00 2.217485666275023970e+00 -5.893717408180236816e-01 1.000000000000000000e+01
1.455621480941772017e+00 2.550941467285155806e+00 -5.709004998207092285e-01 1.200000000000000000e+01
1.735879182815551980e+00 3.039621114730834961e+00 -5.544037222862243652e-01 9.000000000000000000e+00
2.149347543716431108e+00 3.760578393936156782e+00 -5.318378210067749023e-01 9.000000000000000000e+00
