6.433836936950683594e+00 -1.426337361335754117e-01 -5.630260705947875977e-01 9.000000000000000000e+00
9.738163948059082031e+00 -2.192893475294112882e-01 -5.104849338531494141e-01 2.000000000000000000e+00
1.845636177062987926e+01 -4.220563769340515137e-01 -3.222412467002869207e-01 3.000000000000000000e+00
2.361959218978881836e+00 -5.731255933642386696e-02 -6.330713629722595215e-01 1.600000000000000000e+01
5.959512329101563211e+01 -1.456473469734191895e+00 1.040547370910644975e+00 6.300000000000000000e+01
2.688446998596190962e+00 -6.617373973131179810e-02 -6.208649277687072754e-01 8.000000000000000000e+00
3.206972360610961914e+00 -7.949683815240859985e-02 -6.235638260841369629e-01 1.300000000000000000e+01
3.860641717910767046e+00 -9.704894572496414185e-02 -6.116587519645690918e-01 1.000000000000000000e+01
4.949213027954101562e+00 -1.261421889066695889e-01 -6.078842878341674805e-01 9.000000000000000000e+00
6.449233531951904297e+00 -1.655000448226928988e-01 -5.644205808639526367e-01 9.000000000000000000e+00
9.737339019775390625e+00 -2.532805502414702814e-01 -5.104849338531494141e-01 2.000000000000000000e+00
1.847476768493651988e+01 -4.870054721832274836e-01 -3.225902915000916082e-01 3.000000000000000000e+00
2.365607023239136186e+00 -6.566419452428817749e-02 -6.341066360473632812e-01 1.900000000000000000e+01
2.699887514114379883e+00 -7.588627934455871582e-02 -6.235643029212951660e-01 8.000000000000000000e+00
3.984935760498046875e+01 -1.127014398574829102e+00 2.089251279830933061e+00 2.300000000000000000e+01
3.202750444412231001e+00 -9.057977795600891113e-02 -6.228005886077880859e-01 1.300000000000000000e+01
3.856330394744873047e+00 -1.104114428162575046e-01 -6.110330224037170410e-01 1.000000000000000000e+01
4.952711105346679688e+00 -1.435324102640151978e-01 -6.083717346191406250e-01 1.100000000000000000e+01
6.456583023071289062e+00 -1.882433146238327026e-01 -5.651178359985351562e-01 9.000000000000000000e+00
9.804272651672363281e+00 -2.892713546752930243e-01 -5.140437483787536621e-01 2.000000000000000000e+00
1.857689285278319957e+01 -5.545944571495056152e-01 -3.244053423404694159e-01 3.000000000000000000e+00
2.363445520401000977e+00 -7.344846427440643311e-02 -6.335890293121337891e-01 2.100000000000000000e+01
2.711307764053345171e+00 -8.520627766847610474e-02 -6.262637376785278320e-01 8.000000000000000000e+00
3.977353668212891336e+01 -1.256882429122925027e+00 2.085483074188231978e+00 2.300000000000000000e+01
3.196545600891112837e+00 -1.010139510035514970e-01 -6.216557025909423828e-01 1.300000000000000000e+01
3.869763612747191939e+00 -1.236404627561568936e-01 -6.132230758666992188e-01 9.000000000000000000e+00
4.948239803314208984e+00 -1.598272323608397882e-01 -6.078842878341674805e-01 9.000000000000000000e+00
3.753826141357421875e+01 -1.212478876113892046e+00 5.948576927185058594e+00 1.300000000000000000e+01
6.471853733062744141e+00 -2.101704329252243042e-01 -5.665123462677001953e-01 9.000000000000000000e+00
9.811244010925292969e+00 -3.220439851284027100e-01 -5.144624710083007812e-01 2.000000000000000000e+00
1.865089797973633168e+01 -6.187139749526977539e-01 -3.257317245006560724e-01 3.000000000000000000e+00
2.349659681320189986e+00 -8.123075217008590698e-02 -6.299655437469482422e-01 1.900000000000000000e+01
2.738259553909302202e+00 -9.562212973833084106e-02 -6.325623393058776855e-01 1.100000000000000000e+01
3.196173667907714844e+00 -1.121713668107986034e-01 -6.216557025909423828e-01 1.200000000000000000e+01
3.861411809921265093e+00 -1.368678063154221136e-01 -6.119716167449951172e-01 9.000000000000000000e+00
4.951619148254395419e+00 -1.772408634424209872e-01 -6.083717346191406250e-01 9.000000000000000000e+00
3.751405715942382812e+01 -1.342797875404357910e+00 5.945448398590087891e+00 1.300000000000000000e+01
6.455152034759520596e+00 -2.321871817111968994e-01 -5.651178359985351562e-01 9.000000000000000000e+00
9.834012031555175781e+00 -3.571595549583435059e-01 -5.157185196876525879e-01 2.000000000000000000e+00
1.872056579589844105e+01 -6.864519715309143066e-01 -3.269882798194885254e-01 3.000000000000000000e+00
2.360960245132445845e+00 -8.946094661951065063e-02 -6.330713629722595215e-01 1.800000000000000000e+01
2.737927436828612837e+00 -1.047020033001899997e-01 -6.325623393058776855e-01 1.200000000000000000e+01
3.948863983154296875e+01 -1.517000555992126021e+00 2.071038484573363814e+00 2.200000000000000000e+01
3.201669454574584961e+00 -1.229957342147827010e-01 -6.228005886077880859e-01 1.300000000000000000e+01
3.866858482360839844e+00 -1.499015241861343106e-01 -6.129102110862731934e-01 1.000000000000000000e+01
4.958938598632813388e+00 -1.939703971147536954e-01 -6.093466877937316895e-01 9.000000000000000000e+00
3.743018722534179688e+01 -1.470636129379272017e+00 5.932933330535888672e+00 1.300000000000000000e+01
6.464300632476806641e+00 -2.539830803871154785e-01 -5.659893751144409180e-01 7.000000000000000000e+00
9.872687339782714844e+00 -3.913505077362061102e-01 -5.178119540214538574e-01 2.000000000000000000e+00
1.871818542480469105e+01 -7.485278248786926270e-01 -3.269882798194885254e-01 3.000000000000000000e+00
2.379935503005981001e+00 -9.850056469440460205e-02 -6.382477879524230957e-01 1.700000000000000000e+01
2.737545251846313032e+00 -1.142585128545760970e-01 -6.325623393058776855e-01 1.300000000000000000e+01
3.886449813842772727e+01 -1.628905057907104048e+00 2.038590192794799805e+00 2.200000000000000000e+01
3.207105159759521040e+00 -1.344175338745116910e-01 -6.239454150199890137e-01 1.200000000000000000e+01
3.864338159561156782e+00 -1.633150428533554077e-01 -6.125973463058471680e-01 1.000000000000000000e+01
4.950298309326171875e+00 -2.109410911798476895e-01 -6.083717346191406250e-01 9.000000000000000000e+00
3.734588241577147727e+01 -1.597905158996582031e+00 5.920418739318847656e+00 1.300000000000000000e+01
6.485270977020263672e+00 -2.774830162525177002e-01 -5.679067969322204590e-01 7.000000000000000000e+00
9.831353187561035156e+00 -4.240887463092803955e-01 -5.157185196876525879e-01 2.000000000000000000e+00
1.881534957885741832e+01 -8.182057738304138184e-01 -3.287335336208344061e-01 3.000000000000000000e+00
2.381488561630249023e+00 -1.073097586631775041e-01 -6.387653946876525879e-01 1.600000000000000000e+01
2.731267929077147993e+00 -1.240261495113372942e-01 -6.312126517295837402e-01 1.300000000000000000e+01
3.202668666839600053e+00 -1.459924578666687012e-01 -6.231821775436401367e-01 1.300000000000000000e+01
3.861740112304687944e+00 -1.773868203163146973e-01 -6.122844815254211426e-01 1.000000000000000000e+01
4.953457832336425781e+00 -2.292669862508774081e-01 -6.088592410087585449e-01 9.000000000000000000e+00
6.496151924133300781e+00 -3.018056452274323065e-01 -5.689526796340942383e-01 9.000000000000000000e+00
9.829732894897460938e+00 -4.601196050643920898e-01 -5.157185196876525879e-01 2.000000000000000000e+00
1.891209793090819957e+01 -8.918718695640563965e-01 -3.304787576198577881e-01 3.000000000000000000e+00
2.373381137847899947e+00 -1.152472645044327060e-01 -6.366948485374450684e-01 1.600000000000000000e+01
2.736657619476317915e+00 -1.338448822498322088e-01 -6.325623393058776855e-01 1.200000000000000000e+01
3.200178623199462891e+00 -1.570747196674346924e-01 -6.228005886077880859e-01 1.300000000000000000e+01
3.880827188491820845e+00 -1.918410211801528931e-01 -6.154131889343261719e-01 1.100000000000000000e+01
4.960557937622070312e+00 -2.469511926174164096e-01 -6.098341941833496094e-01 1.000000000000000000e+01
6.491078853607177734e+00 -3.242807686328887939e-01 -5.686040520668029785e-01 9.000000000000000000e+00
9.927803039550781250e+00 -4.994465410709381104e-01 -5.209521055221557617e-01 2.000000000000000000e+00
1.896079444885253906e+01 -9.605124592781066895e-01 -3.313862979412078857e-01 3.000000000000000000e+00
2.371078014373778853e+00 -1.226031258702277998e-01 -6.361772418022155762e-01 1.600000000000000000e+01
2.753738403320312944e+00 -1.433534622192383090e-01 -6.366114616394042969e-01 1.300000000000000000e+01
3.901356124877929688e+01 -2.030958652496337891e+00 2.047382593154906782e+00 2.200000000000000000e+01
3.205551147460937944e+00 -1.674348115921021063e-01 -6.239454150199890137e-01 1.300000000000000000e+01
3.872314691543579102e+00 -2.036171257495880127e-01 -6.141617298126220703e-01 1.000000000000000000e+01
4.957775115966796875e+00 -2.624290585517882746e-01 -6.095904707908630371e-01 1.200000000000000000e+01
4.213703155517578125e+01 -2.230432271957397017e+00 6.683193206787109375e+00 1.400000000000000000e+01
6.490028381347656250e+00 -3.446714878082274836e-01 -5.686040520668029785e-01 9.000000000000000000e+00
9.926185607910156250e+00 -5.306331515312194824e-01 -5.209521055221557617e-01 2.000000000000000000e+00
1.895768356323241832e+01 -1.020074725151062012e+00 -3.313862979412078857e-01 3.000000000000000000e+00
2.366777896881103960e+00 -1.306660026311874112e-01 -6.351419091224670410e-01 1.600000000000000000e+01
2.743492603302001953e+00 -1.524244099855422974e-01 -6.343619823455810547e-01 1.100000000000000000e+01
3.880643844604492188e+01 -2.162822484970093218e+00 2.036915302276610884e+00 2.200000000000000000e+01
3.206907272338867188e+00 -1.787324994802474976e-01 -6.243270039558410645e-01 1.400000000000000000e+01
3.869608163833618164e+00 -2.170221656560898105e-01 -6.138488650321960449e-01 1.100000000000000000e+01
4.964756488800048828e+00 -2.801807224750518799e-01 -6.105654239654541016e-01 1.200000000000000000e+01
6.496742248535156250e+00 -3.677742183208466131e-01 -5.693013072013854980e-01 9.000000000000000000e+00
9.864451408386230469e+00 -5.618714094161987305e-01 -5.178119540214538574e-01 2.000000000000000000e+00
1.910174179077148082e+01 -1.094709753990172896e+00 -3.339692354202271063e-01 3.000000000000000000e+00
2.377854108810424805e+00 -1.400211602449417114e-01 -6.382477879524230957e-01 1.600000000000000000e+01
2.739024877548218218e+00 -1.622483283281326016e-01 -6.334621906280517578e-01 1.100000000000000000e+01
3.899802780151367188e+01 -2.310079336166381836e+00 2.047382593154906782e+00 2.200000000000000000e+01
3.216029644012451172e+00 -1.910673677921294888e-01 -6.262351274490356445e-01 1.300000000000000000e+01
3.870758533477783203e+00 -2.313213795423507968e-01 -6.141617298126220703e-01 1.000000000000000000e+01
4.961714744567871094e+00 -2.982564866542816162e-01 -6.103217005729675293e-01 1.200000000000000000e+01
6.515238761901854581e+00 -3.927824795246124268e-01 -5.710444450378417969e-01 9.000000000000000000e+00
9.981942176818847656e+00 -6.052758097648620605e-01 -5.240922570228576660e-01 2.000000000000000000e+00
1.915748214721680043e+01 -1.168365716934204102e+00 -3.350163996219635010e-01 3.000000000000000000e+00
2.379278898239136186e+00 -1.484408676624298096e-01 -6.387653946876525879e-01 1.600000000000000000e+01
2.738441705703734907e+00 -1.718083173036575040e-01 -6.334621906280517578e-01 1.200000000000000000e+01
3.938839340209960938e+01 -2.471205949783325195e+00 2.068316936492919922e+00 2.200000000000000000e+01
3.221221208572388139e+00 -2.026620656251907071e-01 -6.273799538612365723e-01 1.400000000000000000e+01
3.885699033737183061e+00 -2.458292245864867887e-01 -6.166646480560302734e-01 1.000000000000000000e+01
4.944794654846191406e+00 -3.145660459995269775e-01 -6.083717346191406250e-01 1.100000000000000000e+01
6.523769378662109375e+00 -4.161567091941832941e-01 -5.719159841537475586e-01 9.000000000000000000e+00
9.935918807983398438e+00 -6.373030543327331543e-01 -5.217894911766052246e-01 2.000000000000000000e+00
1.911736679077148082e+01 -1.232914090156554954e+00 -3.343881070613861084e-01 3.000000000000000000e+00
2.386456966400146040e+00 -1.572532802820205966e-01 -6.408359408378601074e-01 1.800000000000000000e+01
2.737825393676757812e+00 -1.813662201166152954e-01 -6.334621906280517578e-01 1.200000000000000000e+01
3.208740472793579102e+00 -2.131243199110031128e-01 -6.250902414321899414e-01 1.400000000000000000e+01
3.878904342651367188e+00 -2.589965462684630793e-01 -6.157260537147521973e-01 1.000000000000000000e+01
4.947628021240234375e+00 -3.320905864238739014e-01 -6.088592410087585449e-01 9.000000000000000000e+00
6.532216548919677734e+00 -4.395952820777893066e-01 -5.727875232696533203e-01 8.000000000000000000e+00
1.000138568878174006e+01 -6.765651702880859375e-01 -5.253483057022094727e-01 2.000000000000000000e+00
3.591073226928710938e+01 -2.435554981231689009e+00 8.309692382812500000e+00 2.100000000000000000e+01
1.914087867736816051e+01 -1.301537990570067915e+00 -3.348767757415770929e-01 3.000000000000000000e+00
2.374330282211304155e+00 -1.647801101207732877e-01 -6.377301216125488281e-01 2.000000000000000000e+01
2.756615877151488814e+00 -1.922778934240340909e-01 -6.379612088203430176e-01 1.200000000000000000e+01
3.202101707458496094e+00 -2.239127606153487882e-01 -6.239454150199890137e-01 1.300000000000000000e+01
3.879947185516356978e+00 -2.726733386516571045e-01 -6.160389184951782227e-01 1.000000000000000000e+01
4.946438789367675781e+00 -3.493590056896210272e-01 -6.088592410087585449e-01 9.000000000000000000e+00
6.524680137634277344e+00 -4.619721174240111750e-01 -5.722646117210388184e-01 9.000000000000000000e+00
9.967087745666503906e+00 -7.092043161392211914e-01 -5.236735939979553223e-01 2.000000000000000000e+00
1.918408775329589844e+01 -1.371767163276671919e+00 -3.357144892215728760e-01 3.000000000000000000e+00
3.901024627685546875e+01 -2.796289205551147017e+00 1.047958278656006037e+01 9.000000000000000000e+00
2.383404493331909180e+00 -1.733534634113312045e-01 -6.403183341026306152e-01 1.900000000000000000e+01
2.755963087081909180e+00 -2.014181017875671109e-01 -6.379612088203430176e-01 1.100000000000000000e+01
3.217005729675292969e+00 -2.356776297092438022e-01 -6.269983649253845215e-01 1.300000000000000000e+01
3.877051591873168945e+00 -2.853932082653046209e-01 -6.157260537147521973e-01 1.000000000000000000e+01
4.957130908966063565e+00 -3.666386008262634277e-01 -6.103217005729675293e-01 1.000000000000000000e+01
6.533047199249267578e+00 -4.843427538871765137e-01 -5.731361508369445801e-01 8.000000000000000000e+00
9.996548652648925781e+00 -7.446262836456298828e-01 -5.253483057022094727e-01 2.000000000000000000e+00
1.937884521484375000e+01 -1.450300216674804910e+00 -3.392049670219420832e-01 3.000000000000000000e+00
3.792965698242188211e+01 -2.845288038253784180e+00 1.019177627563476918e+01 8.000000000000000000e+00
2.378932237625122070e+00 -1.813783198595046997e-01 -6.392830610275268555e-01 1.900000000000000000e+01
2.743584871292113814e+00 -2.101440131664276123e-01 -6.352617740631103516e-01 1.000000000000000000e+01
3.216163396835327148e+00 -2.469056397676467896e-01 -6.269983649253845215e-01 1.200000000000000000e+01
3.879970788955688032e+00 -2.992286682128906250e-01 -6.163517832756042480e-01 9.000000000000000000e+00
4.967695713043212891e+00 -3.848599493503571112e-01 -6.117841005325317383e-01 1.000000000000000000e+01
6.549194335937500000e+00 -5.085325241088867188e-01 -5.747049450874328613e-01 6.000000000000000000e+00
1.000981807708740057e+01 -7.807586789131164551e-01 -5.261856913566589355e-01 2.000000000000000000e+00
1.934575462341308949e+01 -1.515749335289001021e+00 -3.387162983417510986e-01 3.000000000000000000e+00
3.804082870483397727e+01 -2.987197637557982954e+00 1.022438716888427912e+01 1.600000000000000000e+01
2.387880086898804155e+00 -1.908659487962723056e-01 -6.418712139129638672e-01 1.700000000000000000e+01
2.750566244125366211e+00 -2.208221405744552890e-01 -6.370613574981689453e-01 1.100000000000000000e+01
3.213279962539672852e+00 -2.585343718528748114e-01 -6.266167163848876953e-01 1.300000000000000000e+01
3.869003057479857954e+00 -3.126519322395325262e-01 -6.147874593734741211e-01 1.400000000000000000e+01
4.954380512237548828e+00 -4.021013975143433172e-01 -6.103217005729675293e-01 1.000000000000000000e+01
6.575088024139404297e+00 -5.347943902015686035e-01 -5.771453380584716797e-01 6.000000000000000000e+00
3.574617385864257812e+01 -2.913747787475585938e+00 6.971397399902343750e+00 6.000000000000000000e+01
1.001883316040039062e+01 -8.184169530868530273e-01 -5.268137454986572266e-01 2.000000000000000000e+00
1.931615447998046875e+01 -1.584682822227478027e+00 -3.382974565029143732e-01 3.000000000000000000e+00
3.805519866943358664e+01 -3.122020244598389116e+00 1.023111724853515980e+01 8.000000000000000000e+00
2.387199401855469194e+00 -1.992000341415404996e-01 -6.418712139129638672e-01 1.700000000000000000e+01
2.749778509140015093e+00 -2.304220646619797030e-01 -6.370613574981689453e-01 1.100000000000000000e+01
3.216270685195922852e+00 -2.700777947902678888e-01 -6.273799538612365723e-01 1.300000000000000000e+01
3.889540433883666992e+00 -3.279811739921569824e-01 -6.182290315628051758e-01 9.000000000000000000e+00
4.968770980834960938e+00 -4.207328557968140204e-01 -6.122716069221496582e-01 1.000000000000000000e+01
6.567225456237792969e+00 -5.572371482849121094e-01 -5.766223669052124023e-01 6.000000000000000000e+00
1.005173587799072088e+01 -8.564362525939941406e-01 -5.286978483200073242e-01 2.000000000000000000e+00
3.640448379516602273e+01 -3.108164548873900923e+00 8.435214996337890625e+00 1.100000000000000000e+01
1.927464103698730113e+01 -1.649030923843384011e+00 -3.376691639423369806e-01 3.000000000000000000e+00
3.813973999023438211e+01 -3.269729137420653853e+00 1.025699901580811080e+01 8.000000000000000000e+00
2.371128797531127930e+00 -2.057789564132689875e-01 -6.377301216125488281e-01 1.600000000000000000e+01
2.756764888763428178e+00 -2.402160465717315951e-01 -6.388610005378723145e-01 1.200000000000000000e+01
3.217313051223754883e+00 -2.809126079082489014e-01 -6.277616024017333984e-01 1.300000000000000000e+01
3.884495735168457031e+00 -3.405325114727020264e-01 -6.176032423973083496e-01 9.000000000000000000e+00
4.957460880279541016e+00 -4.363373517990111750e-01 -6.110528707504272461e-01 1.000000000000000000e+01
6.565341472625732422e+00 -5.790117979049682617e-01 -5.766223669052124023e-01 6.000000000000000000e+00
1.005679893493651988e+01 -8.904688954353332520e-01 -5.291165113449096680e-01 4.000000000000000000e+00
3.646385574340820312e+01 -3.235069036483765093e+00 8.451411247253417969e+00 1.100000000000000000e+01
1.938060951232910156e+01 -1.722854495048522949e+00 -3.396238386631011963e-01 3.000000000000000000e+00
2.381940126419066939e+00 -2.150969505310058871e-01 -6.408359408378601074e-01 1.800000000000000000e+01
2.750087261199951172e+00 -2.493096739053725919e-01 -6.375113129615783691e-01 1.300000000000000000e+01
3.950294494628906250e+01 -3.588098049163817915e+00 2.078784227371215820e+00 2.200000000000000000e+01
3.220223426818848100e+00 -2.924965918064116877e-01 -6.285248398780822754e-01 1.300000000000000000e+01
3.873447418212891069e+00 -3.531929850578308105e-01 -6.160389184951782227e-01 1.000000000000000000e+01
4.969745635986328125e+00 -4.549061059951782227e-01 -6.127590537071228027e-01 1.000000000000000000e+01
6.563280105590820312e+00 -6.019255518913269043e-01 -5.766223669052124023e-01 4.000000000000000000e+00
1.004965114593506037e+01 -9.252020716667175293e-01 -5.289071798324584961e-01 2.000000000000000000e+00
3.617290878295897727e+01 -3.336557149887084961e+00 8.386625289916992188e+00 1.100000000000000000e+01
1.957758140563964844e+01 -1.809264779090880904e+00 -3.431841135025023859e-01 3.000000000000000000e+00
2.385060548782349077e+00 -2.233548164367676059e-01 -6.418712139129638672e-01 1.900000000000000000e+01
2.737604379653931108e+00 -2.573336660861968994e-01 -6.348118782043457031e-01 1.200000000000000000e+01
3.219235658645629883e+00 -3.031736314296721857e-01 -6.285248398780822754e-01 1.300000000000000000e+01
3.882087945938109907e+00 -3.669653534889221191e-01 -6.176032423973083496e-01 9.000000000000000000e+00
4.954376220703125000e+00 -4.700713455677031916e-01 -6.110528707504272461e-01 1.000000000000000000e+01
6.565215110778808594e+00 -6.240639686584472656e-01 -5.769709944725036621e-01 5.000000000000000000e+00
1.008231639862061080e+01 -9.619373083114624023e-01 -5.307912826538085938e-01 2.000000000000000000e+00
3.642935180664063211e+01 -3.482081174850463867e+00 8.448711395263671875e+00 1.100000000000000000e+01
1.964313507080078125e+01 -1.881038784980773926e+00 -3.444406986236572266e-01 3.000000000000000000e+00
2.388112068176269975e+00 -2.320525497198105136e-01 -6.429064869880676270e-01 2.000000000000000000e+01
2.742507934570312944e+00 -2.674555480480194092e-01 -6.361615657806396484e-01 1.400000000000000000e+01
3.931858062744141336e+01 -3.841364383697510210e+00 2.070410490036011186e+00 2.200000000000000000e+01
3.218157768249512163e+00 -3.144090175628662109e-01 -6.285248398780822754e-01 1.200000000000000000e+01
3.888647079467772993e+00 -3.812851905822753906e-01 -6.188547611236572266e-01 1.000000000000000000e+01
3.895655059814453125e+01 -3.826587677001953125e+00 4.806282997131347656e+00 2.000000000000000000e+01
4.952704906463623047e+00 -4.873624742031096857e-01 -6.110528707504272461e-01 9.000000000000000000e+00
6.586790084838867188e+00 -6.493225693702697754e-01 -5.790627598762512207e-01 6.000000000000000000e+00
1.004312133789063033e+01 -9.935859441757202148e-01 -5.289071798324584961e-01 2.000000000000000000e+00
3.648484802246093750e+01 -3.615948915481566939e+00 8.464458465576171875e+00 2.200000000000000000e+01
1.963644981384276988e+01 -1.949594736099242942e+00 -3.444406986236572266e-01 3.000000000000000000e+00
3.741886520385742188e+01 -3.721708059310913086e+00 1.007582569122313920e+01 8.000000000000000000e+00
2.391131639480590820e+00 -2.407743036746979037e-01 -6.439417600631713867e-01 1.800000000000000000e+01
2.749313116073607954e+00 -2.778107225894927979e-01 -6.379612088203430176e-01 1.300000000000000000e+01
3.946390151977539062e+01 -3.994679927825928178e+00 2.078784227371215820e+00 2.200000000000000000e+01
3.213134050369263139e+00 -3.252451419830322266e-01 -6.277616024017333984e-01 1.300000000000000000e+01
3.887292385101317915e+00 -3.948567807674407959e-01 -6.188547611236572266e-01 9.000000000000000000e+00
3.657308197021483664e+01 -3.721407175064086914e+00 4.513796806335449219e+00 1.900000000000000000e+01
4.954923629760742188e+00 -5.050503015518188477e-01 -6.115403771400451660e-01 1.000000000000000000e+01
6.570608615875244141e+00 -6.708941459655761719e-01 -5.778425931930541992e-01 6.000000000000000000e+00
1.013098716735840021e+01 -1.038001060485840066e+00 -5.337221026420593262e-01 2.000000000000000000e+00
3.652434539794921875e+01 -3.748654842376708984e+00 8.476605415344238281e+00 1.100000000000000000e+01
1.969317817687987926e+01 -2.024671316146851030e+00 -3.455576598644257147e-01 3.000000000000000000e+00
3.733329391479492188e+01 -3.838265180587768999e+00 1.005615520477294922e+01 8.000000000000000000e+00
2.378747940063477007e+00 -2.479179054498671930e-01 -6.408359408378601074e-01 1.800000000000000000e+01
2.761893749237060991e+00 -2.888247072696685791e-01 -6.411104798316955566e-01 1.500000000000000000e+01
3.215884447097777876e+00 -3.368681669235228937e-01 -6.285248398780822754e-01 1.300000000000000000e+01
3.887855052947998047e+00 -4.086300432682036798e-01 -6.191676259040832520e-01 1.000000000000000000e+01
3.675728607177733664e+01 -3.869832754135131836e+00 4.538170814514160156e+00 1.900000000000000000e+01
4.955104351043701172e+00 -5.225512981414794922e-01 -6.117841005325317383e-01 1.000000000000000000e+01
6.566245555877686435e+00 -6.936164498329162598e-01 -5.776682496070861816e-01 6.000000000000000000e+00
1.012730216979979936e+01 -1.073358535766602007e+00 -5.337221026420593262e-01 2.000000000000000000e+00
3.649166107177733664e+01 -3.874068498611450195e+00 8.472106933593750000e+00 1.100000000000000000e+01
1.966213035583496094e+01 -2.090863466262816939e+00 -3.451387882232666016e-01 3.000000000000000000e+00
3.728439712524414062e+01 -3.971389770507812944e+00 1.004683780670166016e+01 8.000000000000000000e+00
2.385550975799560991e+00 -2.570476233959197998e-01 -6.429064869880676270e-01 2.000000000000000000e+01
2.762806177139281782e+00 -2.986732125282288153e-01 -6.415604352951049805e-01 1.400000000000000000e+01
3.218592643737792969e+00 -3.485143184661865234e-01 -6.292880773544311523e-01 1.300000000000000000e+01
3.876585960388184038e+00 -4.211319983005524237e-01 -6.176032423973083496e-01 1.000000000000000000e+01
4.955223560333251953e+00 -5.400597453117370605e-01 -6.120278239250183105e-01 9.000000000000000000e+00
6.571706771850585938e+00 -7.173975706100463867e-01 -5.783655047416687012e-01 6.000000000000000000e+00
3.443052673339843750e+01 -3.764674901962279829e+00 6.732504367828369141e+00 5.900000000000000000e+01
1.009569835662841975e+01 -1.105658769607543945e+00 -5.322566628456115723e-01 2.000000000000000000e+00
3.656702041625977273e+01 -4.011198997497558594e+00 8.492801666259765625e+00 1.100000000000000000e+01
2.386559247970581055e+00 -2.655868530273438055e-01 -6.434241533279418945e-01 1.900000000000000000e+01
5.989789581298828125e+01 -6.676285743713378906e+00 1.051996111869812012e+00 6.300000000000000000e+01
2.742379903793334961e+00 -3.061532974243164062e-01 -6.370613574981689453e-01 1.300000000000000000e+01
5.964593124389647727e+01 -6.669281959533691406e+00 3.145390987396239790e+00 6.300000000000000000e+01
3.223209619522095171e+00 -3.604016900062561035e-01 -6.304329037666320801e-01 1.300000000000000000e+01
3.882944583892821822e+00 -4.355420172214508057e-01 -6.188547611236572266e-01 1.100000000000000000e+01
3.689508056640625000e+01 -4.144966602325438565e+00 4.558644771575927734e+00 1.900000000000000000e+01
4.961198806762695312e+00 -5.582412481307983398e-01 -6.130027770996093750e-01 9.000000000000000000e+00
6.594900608062744141e+00 -7.432333827018737793e-01 -5.806315541267395020e-01 6.000000000000000000e+00
3.412454605102539062e+01 -3.851806402206420898e+00 6.675261974334716797e+00 5.900000000000000000e+01
1.016322326660156072e+01 -1.148969769477844016e+00 -5.360248684883117676e-01 2.000000000000000000e+00
3.444021987915039062e+01 -3.899613618850708008e+00 8.001958847045898438e+00 2.000000000000000000e+01
1.990535926818848012e+01 -2.257372140884398970e+00 -3.496764302253723145e-01 3.000000000000000000e+00
2.399052381515502930e+00 -2.754584550857543945e-01 -6.470476388931274414e-01 1.900000000000000000e+01
5.989011764526367188e+01 -6.887155532836914062e+00 1.052275419235229048e+00 6.200000000000000000e+01
2.752910137176514116e+00 -3.170619308948516846e-01 -6.397607922554016113e-01 1.300000000000000000e+01
5.962228775024414062e+01 -6.877444267272949219e+00 3.145390987396239790e+00 6.300000000000000000e+01
3.219981670379639116e+00 -3.714255988597869873e-01 -6.300513148307800293e-01 1.300000000000000000e+01
3.885325193405150923e+00 -4.495474398136138916e-01 -6.194804906845092773e-01 1.100000000000000000e+01
3.691193771362304688e+01 -4.277385234832763672e+00 4.562544345855712891e+00 1.900000000000000000e+01
4.951332569122313565e+00 -5.746402740478515625e-01 -6.120278239250183105e-01 9.000000000000000000e+00
6.586328983306884766e+00 -7.655592560768127441e-01 -5.801086425781250000e-01 6.000000000000000000e+00
1.017105388641357067e+01 -1.185826778411865012e+00 -5.366529226303100586e-01 2.000000000000000000e+00
3.452511596679688211e+01 -4.031335353851318359e+00 8.024904251098632812e+00 1.000000000000000000e+01
2.392320871353148970e+00 -2.831498384475708008e-01 -6.454946994781494141e-01 2.000000000000000000e+01
5.992131423950195312e+01 -7.102759838104248047e+00 1.053252696990967019e+00 6.200000000000000000e+01
2.753721714019774947e+00 -3.268991708755493164e-01 -6.402106881141662598e-01 1.500000000000000000e+01
3.210867404937744141e+00 -3.817360699176787775e-01 -6.285248398780822754e-01 1.300000000000000000e+01
3.899424076080321822e+00 -4.649781584739685059e-01 -6.219834089279174805e-01 1.100000000000000000e+01
4.963093757629395419e+00 -5.935702919960021973e-01 -6.137340068817138672e-01 1.000000000000000000e+01
6.587573051452636719e+00 -7.890190482139587402e-01 -5.804572701454162598e-01 6.000000000000000000e+00
3.346136093139647727e+01 -4.013720035552979404e+00 6.550854206085205078e+00 5.800000000000000000e+01
1.022237682342528942e+01 -1.227993130683898926e+00 -5.395836830139160156e-01 2.000000000000000000e+00
3.467335510253906250e+01 -4.171378135681152344e+00 8.062695503234863281e+00 1.000000000000000000e+01
2.383647203445435014e+00 -2.905638217926024836e-01 -6.434241533279418945e-01 1.900000000000000000e+01
5.989615631103516336e+01 -7.311881065368652344e+00 1.053252696990967019e+00 6.200000000000000000e+01
2.762235641479492188e+00 -3.376918733119965155e-01 -6.424602270126342773e-01 1.300000000000000000e+01
3.213412761688231978e+00 -3.934189379215239923e-01 -6.292880773544311523e-01 1.300000000000000000e+01
3.897777318954468218e+00 -4.785868525505065918e-01 -6.219834089279174805e-01 1.100000000000000000e+01
3.796481323242188211e+01 -4.668219089508056641e+00 4.696600914001464844e+00 2.000000000000000000e+01
4.966902256011962891e+00 -6.116189360618591309e-01 -6.144652366638183594e-01 9.000000000000000000e+00
6.584778785705566406e+00 -8.120091557502746582e-01 -5.804572701454162598e-01 5.000000000000000000e+00
3.369264984130858664e+01 -4.160815715789794922e+00 6.598938465118408203e+00 5.800000000000000000e+01
1.019027709960938033e+01 -1.260236501693726030e+00 -5.381183028221130371e-01 2.000000000000000000e+00
3.333575057983397727e+01 -4.128555297851563388e+00 7.754962444305419922e+00 9.000000000000000000e+00
2.007510757446289062e+01 -2.489813327789307085e+00 -3.530970811843872070e-01 3.000000000000000000e+00
3.498630523681641336e+01 -4.339172840118408203e+00 9.446377754211425781e+00 7.000000000000000000e+00
2.384535312652587891e+00 -2.991229891777039129e-01 -6.439417600631713867e-01 2.100000000000000000e+01
2.753305912017821822e+00 -3.463588953018187921e-01 -6.406605839729309082e-01 1.400000000000000000e+01
3.231498479843140093e+00 -4.070872366428375244e-01 -6.331042647361755371e-01 1.300000000000000000e+01
3.876484870910644975e+00 -4.897139370441436768e-01 -6.188547611236572266e-01 9.000000000000000000e+00
4.972614765167236328e+00 -6.299508810043334961e-01 -6.154401898384094238e-01 1.000000000000000000e+01
6.587833881378173828e+00 -8.357416391372680664e-01 -5.809801816940307617e-01 6.000000000000000000e+00
3.397006225585938211e+01 -4.315513134002686435e+00 6.656180858612061435e+00 5.900000000000000000e+01
1.022544193267822088e+01 -1.300840497016906960e+00 -5.402117371559143066e-01 2.000000000000000000e+00
3.539730453491210938e+01 -4.509383678436279297e+00 8.238157272338867188e+00 1.000000000000000000e+01
2.016547584533691051e+01 -2.572525978088378906e+00 -3.548423349857329767e-01 3.000000000000000000e+00
3.488776779174804688e+01 -4.456848621368408203e+00 9.424118995666503906e+00 1.400000000000000000e+01
2.385499954223632812e+00 -3.068591952323914129e-01 -6.444594264030456543e-01 1.700000000000000000e+01
5.991774368286132812e+01 -7.718160629272460938e+00 1.054509282112122026e+00 6.200000000000000000e+01
2.744473218917847124e+00 -3.540097177028656006e-01 -6.388610005378723145e-01 1.200000000000000000e+01
5.972122192382813211e+01 -7.714039325714111328e+00 3.155858278274536133e+00 6.200000000000000000e+01
3.230203628540039062e+00 -4.172372817993164062e-01 -6.331042647361755371e-01 1.300000000000000000e+01
3.876886367797852007e+00 -5.021435618400573730e-01 -6.191676259040832520e-01 1.000000000000000000e+01
4.966673851013183594e+00 -6.450583338737487793e-01 -6.149526834487915039e-01 1.200000000000000000e+01
6.585175514221191406e+00 -8.564337491989135742e-01 -5.809801816940307617e-01 6.000000000000000000e+00
1.019357776641846058e+01 -1.329342365264893022e+00 -5.387463569641113281e-01 2.000000000000000000e+00
3.500422668457031250e+01 -4.571106910705566406e+00 8.149976730346679688e+00 1.000000000000000000e+01
2.015729522705078125e+01 -2.635864734649658203e+00 -3.548423349857329767e-01 3.000000000000000000e+00
3.518853759765625000e+01 -4.601422309875488281e+00 9.509011268615722656e+00 1.400000000000000000e+01
2.388244628906250000e+00 -3.156906068325042725e-01 -6.454946994781494141e-01 1.900000000000000000e+01
2.749016284942626953e+00 -3.643557131290435791e-01 -6.402106881141662598e-01 1.200000000000000000e+01
5.969392776489257812e+01 -7.922458648681640625e+00 3.155858278274536133e+00 6.200000000000000000e+01
3.228727579116820845e+00 -4.285102486610413153e-01 -6.331042647361755371e-01 1.300000000000000000e+01
3.879026174545288086e+00 -5.161945223808288574e-01 -6.197933554649353027e-01 1.000000000000000000e+01
4.964391708374023438e+00 -6.623913049697875977e-01 -6.149526834487915039e-01 1.200000000000000000e+01
6.597944736480712891e+00 -8.815258741378784180e-01 -5.823746919631958008e-01 8.000000000000000000e+00
1.027993679046631037e+01 -1.377115130424499956e+00 -5.435612201690673828e-01 2.000000000000000000e+00
2.021931838989258168e+01 -2.715794086456298828e+00 -3.560988903045653742e-01 3.000000000000000000e+00
3.506695556640625000e+01 -4.710081100463867188e+00 9.480541229248046875e+00 7.000000000000000000e+00
2.383242845535277876e+00 -3.239214718341826837e-01 -6.444594264030456543e-01 1.700000000000000000e+01
5.969057846069335938e+01 -8.123531341552734375e+00 1.051507472991942915e+00 6.300000000000000000e+01
2.749593496322631836e+00 -3.746920228004456122e-01 -6.406605839729309082e-01 1.300000000000000000e+01
3.215463876724243164e+00 -4.387486875057219904e-01 -6.308145523071289062e-01 1.300000000000000000e+01
3.888850927352904829e+00 -5.320148468017578125e-01 -6.216705441474914551e-01 1.000000000000000000e+01
3.596551513671875000e+01 -4.926662921905517578e+00 4.457249164581298828e+00 1.900000000000000000e+01
4.971764087677001953e+00 -6.819310188293457031e-01 -6.161714196205139160e-01 1.000000000000000000e+01
6.596643447875976562e+00 -9.059737324714660645e-01 -5.825489759445190430e-01 6.000000000000000000e+00
1.025503444671631037e+01 -1.412059307098388894e+00 -5.425145030021667480e-01 2.000000000000000000e+00
3.499395751953125000e+01 -4.830914497375488281e+00 9.465530395507812500e+00 2.100000000000000000e+01
2.372531175613402876e+00 -3.309042751789093018e-01 -6.418712139129638672e-01 1.900000000000000000e+01
5.976088333129882812e+01 -8.345669746398925781e+00 1.053252696990967019e+00 6.200000000000000000e+01
2.765638351440430132e+00 -3.867163956165314276e-01 -6.447097063064575195e-01 1.300000000000000000e+01
3.219745635986328125e+00 -4.507867395877838135e-01 -6.319593787193298340e-01 1.200000000000000000e+01
3.888926506042480025e+00 -5.458608269691467285e-01 -6.219834089279174805e-01 9.000000000000000000e+00
3.912872314453125000e+01 -5.499183177947998047e+00 4.851618766784667969e+00 2.000000000000000000e+01
4.981147766113281250e+00 -7.009412646293640137e-01 -6.176338195800781250e-01 1.000000000000000000e+01
6.597386360168457031e+00 -9.295507669448852539e-01 -5.828976035118103027e-01 6.000000000000000000e+00
1.028168487548827947e+01 -1.452316999435425027e+00 -5.441892743110656738e-01 2.000000000000000000e+00
3.335591888427733664e+01 -4.717555522918701172e+00 7.777457714080811435e+00 9.000000000000000000e+00
3.498366928100585938e+01 -4.960226535797119141e+00 9.467600822448730469e+00 1.400000000000000000e+01
2.380982875823975053e+00 -3.401360809803009033e-01 -6.444594264030456543e-01 1.900000000000000000e+01
5.973287582397460938e+01 -8.543797492980957031e+00 1.053252696990967019e+00 6.200000000000000000e+01
2.745050191879272017e+00 -3.931228220462799072e-01 -6.402106881141662598e-01 1.300000000000000000e+01
3.220176458358765093e+00 -4.617399573326110840e-01 -6.323410272598266602e-01 1.300000000000000000e+01
3.881229162216186968e+00 -5.579107999801635742e-01 -6.210448145866394043e-01 1.000000000000000000e+01
4.038349151611328125e+01 -5.812155723571777344e+00 5.009561061859130859e+00 2.400000000000000000e+01
4.972901821136474609e+00 -7.166060805320739746e-01 -6.169025897979736328e-01 9.000000000000000000e+00
6.602155685424804688e+00 -9.525614380836486816e-01 -5.835948586463928223e-01 5.000000000000000000e+00
1.030053234100341975e+01 -1.489835143089293990e+00 -5.454453229904174805e-01 2.000000000000000000e+00
3.569686889648438211e+01 -5.169438362121582031e+00 8.327238082885742188e+00 1.000000000000000000e+01
2.051432800292969105e+01 -2.974436044692993164e+00 -3.618232905864716131e-01 3.000000000000000000e+00
3.453009796142578125e+01 -5.006625652313232422e+00 9.349061965942382812e+00 2.100000000000000000e+01
2.387426853179932085e+00 -3.495646715164185125e-01 -6.465299725532531738e-01 1.900000000000000000e+01
5.990054702758789062e+01 -8.781257629394531250e+00 1.056743264198303001e+00 6.200000000000000000e+01
2.745589256286621094e+00 -4.029854536056519110e-01 -6.406605839729309082e-01 1.400000000000000000e+01
3.234084367752075195e+00 -4.752612113952637274e-01 -6.353939771652221680e-01 1.300000000000000000e+01
3.875349283218383789e+00 -5.708796381950378418e-01 -6.204190850257873535e-01 1.000000000000000000e+01
4.966442108154296875e+00 -7.333803772926330566e-01 -6.164151430130004883e-01 9.000000000000000000e+00
3.530340576171875000e+01 -5.219449520111083984e+00 5.652289867401123047e+00 1.300000000000000000e+01
6.600761413574218750e+00 -9.758928418159484863e-01 -5.837691426277160645e-01 5.000000000000000000e+00
3.426240539550781250e+01 -5.071652889251708984e+00 6.732504367828369141e+00 5.900000000000000000e+01
1.028736591339110973e+01 -1.524610400199889915e+00 -5.450266599655151367e-01 2.000000000000000000e+00
2.050382041931151988e+01 -3.046026229858397993e+00 -3.618232905864716131e-01 3.000000000000000000e+00
3.478375625610352273e+01 -5.167438507080078125e+00 9.422566413879394531e+00 7.000000000000000000e+00
2.391986131668090820e+00 -3.583383858203887939e-01 -6.480829119682312012e-01 1.900000000000000000e+01
2.744237899780272993e+00 -4.120879471302031916e-01 -6.406605839729309082e-01 1.400000000000000000e+01
3.216958999633789062e+00 -4.836481511592864990e-01 -6.323410272598266602e-01 1.200000000000000000e+01
3.885154962539672852e+00 -5.854938030242919922e-01 -6.222962737083435059e-01 1.100000000000000000e+01
4.967908859252929688e+00 -7.504386901855468750e-01 -6.169025897979736328e-01 9.000000000000000000e+00
3.538449478149414062e+01 -5.345084667205811435e+00 5.667933464050292969e+00 1.300000000000000000e+01
6.623098850250244141e+00 -1.001649498939513938e+00 -5.860351920127868652e-01 6.000000000000000000e+00
3.417551803588867188e+01 -5.174662590026854581e+00 6.718766212463378906e+00 5.900000000000000000e+01
1.032174777984618963e+01 -1.564703226089477983e+00 -5.471200942993164062e-01 2.000000000000000000e+00
4.004211425781250000e+01 -6.077247619628906250e+00 9.350315093994140625e+00 1.200000000000000000e+01
4.198866271972656250e+01 -6.387673377990722656e+00 1.138027381896973012e+01 1.100000000000000000e+01
2.388811349868773970e+00 -3.663929104804993231e-01 -6.475652456283569336e-01 1.900000000000000000e+01
3.762321090698242188e+01 -5.777322769165039062e+00 6.644130945205688477e-01 3.100000000000000000e+01
2.750487089157104048e+00 -4.228490591049193781e-01 -6.424602270126342773e-01 1.300000000000000000e+01
3.211370468139647993e+00 -4.942771792411804199e-01 -6.315777897834777832e-01 1.200000000000000000e+01
3.888944387435913086e+00 -5.999554991722106934e-01 -6.232349276542663574e-01 1.100000000000000000e+01
3.656655883789063211e+01 -5.647732734680175781e+00 4.543045520782470703e+00 1.900000000000000000e+01
4.969182491302490234e+00 -7.683820724487304688e-01 -6.173900961875915527e-01 9.000000000000000000e+00
3.521630477905272727e+01 -5.451771736145020419e+00 5.644155502319335938e+00 1.300000000000000000e+01
6.607748508453369141e+00 -1.022933483123779075e+00 -5.849893689155578613e-01 5.000000000000000000e+00
1.034780120849609020e+01 -1.605623126029968040e+00 -5.487948656082153320e-01 2.000000000000000000e+00
4.224862289428710938e+01 -6.578189849853515625e+00 1.145688343048096058e+01 1.100000000000000000e+01
2.372119903564453125e+00 -3.731608986854553223e-01 -6.434241533279418945e-01 1.900000000000000000e+01
3.769951629638671875e+01 -5.937297344207763672e+00 6.661583781242370605e-01 3.100000000000000000e+01
2.754618167877196822e+00 -4.343175292015076239e-01 -6.438099145889282227e-01 1.200000000000000000e+01
3.223023414611815962e+00 -5.087470412254333496e-01 -6.342490911483764648e-01 1.200000000000000000e+01
3.880758523941040039e+00 -6.139574646949768066e-01 -6.222962737083435059e-01 1.000000000000000000e+01
4.970116615295410156e+00 -7.880783677101135254e-01 -6.178775429725646973e-01 9.000000000000000000e+00
3.553946304321289062e+01 -5.635256290435791016e+00 5.699220657348632812e+00 1.300000000000000000e+01
6.588029861450195312e+00 -1.045798897743225098e+00 -5.835948586463928223e-01 6.000000000000000000e+00
1.035733985900879084e+01 -1.647854447364806907e+00 -5.496321916580200195e-01 2.000000000000000000e+00
2.073879432678223012e+01 -3.306968450546265093e+00 -3.665703535079956055e-01 3.000000000000000000e+00
3.675177764892578125e+01 -5.866945743560791016e+00 9.972297668457031250e+00 8.000000000000000000e+00
2.376524686813354048e+00 -3.823594748973845880e-01 -6.449770331382751465e-01 1.600000000000000000e+01
2.751161336898804155e+00 -4.436200857162476141e-01 -6.433600187301635742e-01 1.300000000000000000e+01
3.213475465774536133e+00 -5.187428593635559082e-01 -6.327226161956787109e-01 1.100000000000000000e+01
3.878591775894165039e+00 -6.275001168251037598e-01 -6.222962737083435059e-01 1.000000000000000000e+01
4.979092597961425781e+00 -8.073288798332214355e-01 -6.193400025367736816e-01 9.000000000000000000e+00
6.615805625915527344e+00 -1.073896765708922896e+00 -5.863838195800781250e-01 6.000000000000000000e+00
3.696614074707031250e+01 -6.007072925567626953e+00 7.279744625091552734e+00 6.200000000000000000e+01
1.035941028594971058e+01 -1.685281038284301980e+00 -5.500509142875671387e-01 2.000000000000000000e+00
3.495009231567382812e+01 -5.691983699798583984e+00 8.175170898437500000e+00 1.000000000000000000e+01
2.072712516784667969e+01 -3.379340171813964844e+00 -3.665703535079956055e-01 3.000000000000000000e+00
3.541931915283203125e+01 -5.781094551086425781e+00 9.616163253784179688e+00 7.000000000000000000e+00
2.384706735610961914e+00 -3.922203779220581055e-01 -6.475652456283569336e-01 1.700000000000000000e+01
5.993376541137695312e+01 -9.868242263793945312e+00 1.060233712196350098e+00 6.100000000000000000e+01
2.736136674880981001e+00 -4.510021507740020752e-01 -6.402106881141662598e-01 1.200000000000000000e+01
3.231015682220458984e+00 -5.331531763076782227e-01 -6.365388035774230957e-01 1.100000000000000000e+01
3.882224559783935991e+00 -6.420019865036010742e-01 -6.232349276542663574e-01 1.100000000000000000e+01
3.748252105712891336e+01 -6.205191135406494141e+00 4.664914608001708984e+00 2.000000000000000000e+01
4.980160713195800781e+00 -8.253533244132995605e-01 -6.198275089263916016e-01 9.000000000000000000e+00
6.635602951049804688e+00 -1.100896835327147993e+00 -5.884755849838256836e-01 8.000000000000000000e+00
3.687522506713867188e+01 -6.124492645263671875e+00 7.266006469726563388e+00 6.200000000000000000e+01
1.033770275115966975e+01 -1.718811273574829102e+00 -5.492135286331176758e-01 2.000000000000000000e+00
2.077043151855469105e+01 -3.460873603820800781e+00 -3.675476908683776855e-01 3.000000000000000000e+00
3.484542846679688211e+01 -5.806119918823242188e+00 9.465530395507812500e+00 1.400000000000000000e+01
2.394753932952880859e+00 -4.024632573127747137e-01 -6.506710648536682129e-01 1.800000000000000000e+01
5.970175552368164062e+01 -1.004421424865723012e+01 1.056743264198303001e+00 6.200000000000000000e+01
2.740310668945312944e+00 -4.615212678909301758e-01 -6.415604352951049805e-01 1.100000000000000000e+01
3.793298721313477273e+01 -6.388647556304931641e+00 2.015980958938599077e+00 2.200000000000000000e+01
3.225263118743896040e+00 -5.437754988670349121e-01 -6.357755661010742188e-01 1.100000000000000000e+01
3.876064300537108931e+00 -6.548913717269897461e-01 -6.226091980934143066e-01 1.100000000000000000e+01
3.739408493041992188e+01 -6.324736118316650391e+00 4.656627655029296875e+00 4.000000000000000000e+01
4.965506076812744141e+00 -8.407439589500427246e-01 -6.183650493621826172e-01 9.000000000000000000e+00
3.538111877441406250e+01 -5.990620613098145419e+00 5.683577060699462891e+00 1.300000000000000000e+01
6.610111713409423828e+00 -1.120390176773071067e+00 -5.865581631660461426e-01 8.000000000000000000e+00
1.037102031707764027e+01 -1.761575222015381081e+00 -5.513069629669189453e-01 2.000000000000000000e+00
3.408340072631835938e+01 -5.795374393463134766e+00 7.981713294982910156e+00 1.000000000000000000e+01
2.090016174316405895e+01 -3.557514429092406782e+00 -3.700608313083649237e-01 3.000000000000000000e+00
3.481248855590820312e+01 -5.931849002838134766e+00 9.462424278259277344e+00 1.400000000000000000e+01
2.393406152725220171e+00 -4.104023277759552002e-01 -6.506710648536682129e-01 1.700000000000000000e+01
5.966811752319335938e+01 -1.024213695526123047e+01 1.056743264198303001e+00 6.200000000000000000e+01
2.746447563171387163e+00 -4.719260036945343018e-01 -6.433600187301635742e-01 1.400000000000000000e+01
3.209898233413695845e+00 -5.521381497383117676e-01 -6.331042647361755371e-01 1.200000000000000000e+01
3.887498140335083008e+00 -6.700901389122009277e-01 -6.247992515563964844e-01 1.000000000000000000e+01
3.747071456909179688e+01 -6.465581417083740234e+00 4.668814659118652344e+00 2.000000000000000000e+01
4.964646816253662109e+00 -8.575434088706970215e-01 -6.186087727546691895e-01 1.000000000000000000e+01
6.625992298126220703e+00 -1.145698666572571023e+00 -5.883012413978576660e-01 6.000000000000000000e+00
3.779992675781250000e+01 -6.542770385742188388e+00 7.456815719604492188e+00 6.200000000000000000e+01
1.044383907318115057e+01 -1.809596419334412065e+00 -5.554938316345214844e-01 2.000000000000000000e+00
3.409087753295897727e+01 -5.913029670715332031e+00 7.988011837005615234e+00 1.000000000000000000e+01
2.093553543090819957e+01 -3.635012388229370117e+00 -3.708985447883605957e-01 3.000000000000000000e+00
3.492120742797852273e+01 -6.063328266143798828e+00 9.497105598449707031e+00 7.000000000000000000e+00
2.376735687255858931e+00 -4.160892665386199951e-01 -6.465299725532531738e-01 1.700000000000000000e+01
5.973048782348632812e+01 -1.046761417388916016e+01 1.058488488197327104e+00 6.100000000000000000e+01
2.752461194992064986e+00 -4.828568994998931885e-01 -6.451596021652221680e-01 1.300000000000000000e+01
3.213752269744873047e+00 -5.643581748008728027e-01 -6.342490911483764648e-01 1.200000000000000000e+01
3.879298925399779829e+00 -6.826289296150207520e-01 -6.238606572151184082e-01 9.000000000000000000e+00
3.845278549194335938e+01 -6.773344039916992188e+00 4.794095993041992188e+00 2.000000000000000000e+01
4.967487812042236328e+00 -8.759021759033203125e-01 -6.193400025367736816e-01 9.000000000000000000e+00
6.619990825653076172e+00 -1.168474316596985085e+00 -5.881269574165344238e-01 8.000000000000000000e+00
1.039812469482422053e+01 -1.839084148406981978e+00 -5.534003973007202148e-01 2.000000000000000000e+00
2.091484260559082031e+01 -3.706673145294189009e+00 -3.707589209079741877e-01 3.000000000000000000e+00
3.476369476318358664e+01 -6.167320728302001953e+00 9.460353851318359375e+00 1.400000000000000000e+01
2.377318620681763139e+00 -4.238930642604827881e-01 -6.470476388931274414e-01 1.900000000000000000e+01
2.750930547714232954e+00 -4.915015995502471924e-01 -6.451596021652221680e-01 1.300000000000000000e+01
3.210030794143677202e+00 -5.741060376167297363e-01 -6.338675022125244141e-01 1.200000000000000000e+01
3.882968425750731978e+00 -6.958580613136291504e-01 -6.247992515563964844e-01 1.000000000000000000e+01
3.833362197875977273e+01 -6.876587867736816406e+00 4.781909465789794922e+00 2.000000000000000000e+01
4.980342388153076172e+00 -8.943104147911071777e-01 -6.212899088859558105e-01 9.000000000000000000e+00
3.733015823364257812e+01 -6.703303813934326172e+00 6.007083415985107422e+00 1.300000000000000000e+01
6.630013942718505859e+00 -1.191733241081238015e+00 -5.893471240997314453e-01 5.000000000000000000e+00
1.043947029113770064e+01 -1.880238294601439986e+00 -5.559125542640686035e-01 2.000000000000000000e+00
3.430406188964843750e+01 -6.184638023376464844e+00 8.047398567199707031e+00 1.000000000000000000e+01
2.072598266601562855e+01 -3.740397453308105025e+00 -3.676174879074097235e-01 1.000000000000000000e+01
