6.603791713714599609e-01 2.445776700973511186e+00 -5.848727226257324219e-01 1.100000000000000000e+01
7.671231627464294434e-01 2.839143991470336914e+00 -5.716637372970581055e-01 1.000000000000000000e+01
9.121569395065307617e-01 3.371244430541992188e+00 -5.531522631645202637e-01 9.000000000000000000e+00
1.132227420806884988e+00 4.178817272186279297e+00 -5.315940976142883301e-01 9.000000000000000000e+00
1.465067028999329057e+00 5.403522968292236328e+00 -4.898152649402617853e-01 9.000000000000000000e+00
2.124169349670410156e+00 7.823638439178466797e+00 -4.248632788658142090e-01 2.000000000000000000e+00
3.814098596572875977e+00 1.402853775024414062e+01 -2.537579834461212158e-01 2.000000000000000000e+00
5.894201993942260742e-01 2.156035661697388139e+00 -5.989072918891906738e-01 1.600000000000000000e+01
6.689124703407287598e-01 2.443456649780272993e+00 -5.848727226257324219e-01 1.000000000000000000e+01
7.749540805816650391e-01 2.828875064849853960e+00 -5.701372623443603516e-01 1.000000000000000000e+01
9.249643683433532715e-01 3.371849775314331055e+00 -5.537779927253723145e-01 9.000000000000000000e+00
1.141549110412598100e+00 4.155697822570800781e+00 -5.291566848754882812e-01 9.000000000000000000e+00
1.484976053237915039e+00 5.402218341827392578e+00 -4.901638925075531006e-01 9.000000000000000000e+00
2.148285627365111861e+00 7.804622173309326172e+00 -4.242352545261383057e-01 2.000000000000000000e+00
3.863044023513793945e+00 1.401513862609862926e+01 -2.537579834461212158e-01 2.000000000000000000e+00
5.965666174888610840e-01 2.154069185256958008e+00 -5.989072918891906738e-01 1.400000000000000000e+01
6.780531406402587891e-01 2.444980621337891069e+00 -5.857725739479064941e-01 1.100000000000000000e+01
7.838057279586791992e-01 2.824397802352904829e+00 -5.697556734085083008e-01 1.100000000000000000e+01
9.398429989814758301e-01 3.382086753845214844e+00 -5.559681057929992676e-01 8.000000000000000000e+00
1.156387925148010032e+00 4.155714035034179688e+00 -5.296441912651062012e-01 9.000000000000000000e+00
1.505554556846619096e+00 5.406860828399658203e+00 -4.910354614257813055e-01 9.000000000000000000e+00
2.175227880477904829e+00 7.801302909851074219e+00 -4.244446158409119207e-01 2.000000000000000000e+00
3.909498691558837891e+00 1.400225067138672053e+01 -2.537579834461212158e-01 2.000000000000000000e+00
6.019936203956604004e-01 2.144533872604370117e+00 -5.968367457389831543e-01 1.500000000000000000e+01
6.897475719451904297e-01 2.453855037689208984e+00 -5.884719491004943848e-01 1.100000000000000000e+01
7.931283712387084961e-01 2.819754600524901900e+00 -5.693740248680114746e-01 1.000000000000000000e+01
9.495007991790771484e-01 3.371179819107056108e+00 -5.547165870666503906e-01 9.000000000000000000e+00
1.175197720527648926e+00 4.166936874389648438e+00 -5.315940976142883301e-01 9.000000000000000000e+00
1.521713137626647949e+00 5.391985416412354404e+00 -4.901638925075531006e-01 9.000000000000000000e+00
2.207877635955810991e+00 7.812882423400878906e+00 -4.254913330078125000e-01 2.000000000000000000e+00
3.944195508956909180e+00 1.393849086761474965e+01 -2.528504729270935059e-01 2.000000000000000000e+00
6.091018319129943848e-01 2.142525911331177202e+00 -5.968367457389831543e-01 1.600000000000000000e+01
6.962804198265075684e-01 2.445931434631348100e+00 -5.871222615242004395e-01 9.000000000000000000e+00
8.019368052482604980e-01 2.815221071243286133e+00 -5.689924359321594238e-01 9.000000000000000000e+00
9.595911502838134766e-01 3.364213466644287109e+00 -5.540908575057983398e-01 9.000000000000000000e+00
1.189009308815001997e+00 4.163016796112061435e+00 -5.315940976142883301e-01 9.000000000000000000e+00
1.543965220451354980e+00 5.402235031127929688e+00 -4.915584027767180841e-01 9.000000000000000000e+00
2.227179765701293945e+00 7.782475948333740234e+00 -4.242352545261383057e-01 2.000000000000000000e+00
3.984886884689331055e+00 1.390611171722411932e+01 -2.525014281272888184e-01 2.000000000000000000e+00
6.181812286376953125e-01 2.145955801010131836e+00 -5.983896255493164062e-01 1.600000000000000000e+01
7.010334730148315430e-01 2.430379390716553178e+00 -5.839729309082031250e-01 1.100000000000000000e+01
8.166587948799133301e-01 2.829380750656127930e+00 -5.724269747734069824e-01 9.000000000000000000e+00
9.696832299232482910e-01 3.355150222778319868e+00 -5.531522631645202637e-01 9.000000000000000000e+00
1.202430009841918945e+00 4.155027389526367188e+00 -5.311065912246704102e-01 9.000000000000000000e+00
1.557271242141724077e+00 5.377675056457520419e+00 -4.898152649402617853e-01 9.000000000000000000e+00
2.244320154190063032e+00 7.740125656127929688e+00 -4.223511815071105957e-01 2.000000000000000000e+00
4.042325019836425781e+00 1.392284297943115057e+01 -2.530598938465117853e-01 2.000000000000000000e+00
6.298333406448364258e-01 2.156656265258789062e+00 -6.020131111145019531e-01 1.600000000000000000e+01
7.121242880821228027e-01 2.435275316238402876e+00 -5.857725739479064941e-01 1.100000000000000000e+01
8.242667913436889648e-01 2.816947460174560991e+00 -5.705189108848571777e-01 9.000000000000000000e+00
9.836401939392089844e-01 3.357260704040526900e+00 -5.540908575057983398e-01 8.000000000000000000e+00
1.215415716171265093e+00 4.142972946166992188e+00 -5.301316380500793457e-01 9.000000000000000000e+00
1.580338120460510032e+00 5.383401393890380859e+00 -4.908611476421356201e-01 9.000000000000000000e+00
2.277180194854735884e+00 7.747177600860595703e+00 -4.231885373592377264e-01 2.000000000000000000e+00
4.069614410400390625e+00 1.382736396789550959e+01 -2.515938878059387207e-01 2.000000000000000000e+00
6.346174478530883789e-01 2.145182132720946822e+00 -5.994248986244201660e-01 1.600000000000000000e+01
7.217276096343994141e-01 2.436511516571044922e+00 -5.866723656654357910e-01 1.100000000000000000e+01
8.324209451675415039e-01 2.808406114578247070e+00 -5.693740248680114746e-01 9.000000000000000000e+00
9.942291378974914551e-01 3.350019216537476030e+00 -5.534651279449462891e-01 8.000000000000000000e+00
1.229869961738585982e+00 4.138705253601074219e+00 -5.301316380500793457e-01 9.000000000000000000e+00
1.594009280204772949e+00 5.360664367675781250e+00 -4.892923533916472834e-01 9.000000000000000000e+00
2.308768272399901900e+00 7.754495143890380859e+00 -4.240259230136870783e-01 2.000000000000000000e+00
4.115571022033691406e+00 1.380540847778319957e+01 -2.514542639255524237e-01 2.000000000000000000e+00
6.387747526168823242e-01 2.131850481033325195e+00 -5.963190793991088867e-01 1.500000000000000000e+01
7.335881590843200684e-01 2.445176839828491211e+00 -5.893717408180236816e-01 1.100000000000000000e+01
8.433480262756347656e-01 2.809243917465209961e+00 -5.701372623443603516e-01 1.000000000000000000e+01
1.007054090499877930e+00 3.350311756134033203e+00 -5.540908575057983398e-01 8.000000000000000000e+00
1.240304589271544966e+00 4.121080875396729404e+00 -5.284254550933837891e-01 1.000000000000000000e+01
1.611562728881835938e+00 5.351252079010009766e+00 -4.889437258243560791e-01 9.000000000000000000e+00
2.336975812911986861e+00 7.750213146209716797e+00 -4.242352545261383057e-01 2.000000000000000000e+00
4.157956123352050781e+00 1.377181529998778942e+01 -2.511052191257476807e-01 2.000000000000000000e+00
6.462123990058898926e-01 2.129607677459716797e+00 -5.963190793991088867e-01 1.400000000000000000e+01
7.398529648780822754e-01 2.435142755508422852e+00 -5.875721573829650879e-01 1.100000000000000000e+01
8.520069122314453125e-01 2.802526235580443892e+00 -5.693740248680114746e-01 8.000000000000000000e+00
1.017017006874084029e+00 3.341106891632080078e+00 -5.531522631645202637e-01 7.000000000000000000e+00
1.262205719947814941e+00 4.141411304473876953e+00 -5.315940976142883301e-01 9.000000000000000000e+00
1.635462999343872070e+00 5.362745761871337891e+00 -4.905125200748444159e-01 9.000000000000000000e+00
2.359348535537720171e+00 7.726727008819580078e+00 -4.233978986740111750e-01 2.000000000000000000e+00
4.206003189086914062e+00 1.375721740722656072e+01 -2.511052191257476807e-01 2.000000000000000000e+00
6.572403907775878906e-01 2.140380382537841797e+00 -5.999425649642944336e-01 1.600000000000000000e+01
7.433426380157470703e-01 2.417774438858031782e+00 -5.839729309082031250e-01 1.100000000000000000e+01
8.630275726318359375e-01 2.805314779281616211e+00 -5.705189108848571777e-01 1.000000000000000000e+01
1.025183439254760964e+00 3.328276634216309038e+00 -5.515879392623901367e-01 8.000000000000000000e+00
1.272422075271606001e+00 4.125821590423583984e+00 -5.301316380500793457e-01 9.000000000000000000e+00
1.657349944114685059e+00 5.370619297027587891e+00 -4.917326867580413818e-01 9.000000000000000000e+00
2.383779048919678178e+00 7.715044021606445312e+00 -4.231885373592377264e-01 2.000000000000000000e+00
4.256328582763671875e+00 1.375847721099854049e+01 -2.513844668865203857e-01 2.000000000000000000e+00
6.658547520637512207e-01 2.141762733459473100e+00 -6.009778380393981934e-01 1.500000000000000000e+01
7.529360651969909668e-01 2.418886423110961914e+00 -5.848727226257324219e-01 1.000000000000000000e+01
8.745661377906799316e-01 2.807908535003662109e+00 -5.716637372970581055e-01 9.000000000000000000e+00
1.037971258163451926e+00 3.328449487686156782e+00 -5.522136688232421875e-01 8.000000000000000000e+00
1.284449577331542969e+00 4.113775253295898438e+00 -5.291566848754882812e-01 9.000000000000000000e+00
1.674304366111754927e+00 5.359096527099609375e+00 -4.912097752094268799e-01 9.000000000000000000e+00
2.410695075988769975e+00 7.706676006317138672e+00 -4.231885373592377264e-01 2.000000000000000000e+00
4.307914733886718750e+00 1.375498580932617010e+01 -2.515938878059387207e-01 2.000000000000000000e+00
6.710070371627807617e-01 2.132054328918457031e+00 -5.989072918891906738e-01 1.600000000000000000e+01
7.637177109718322754e-01 2.423677921295166016e+00 -5.866723656654357910e-01 1.000000000000000000e+01
8.790490031242370605e-01 2.787987232208251953e+00 -5.682291984558105469e-01 9.000000000000000000e+00
1.056124687194823997e+00 3.345527172088623047e+00 -5.556552410125732422e-01 9.000000000000000000e+00
1.301194429397583008e+00 4.116837978363037109e+00 -5.301316380500793457e-01 1.000000000000000000e+01
1.691799402236938032e+00 5.349420070648193359e+00 -4.908611476421356201e-01 9.000000000000000000e+00
2.444816827774047852e+00 7.721063137054443359e+00 -4.244446158409119207e-01 1.000000000000000000e+00
4.352276802062988281e+00 1.372842693328857067e+01 -2.513844668865203857e-01 2.000000000000000000e+00
6.766860485076904297e-01 2.124176979064940962e+00 -5.973543524742126465e-01 1.400000000000000000e+01
7.721732258796691895e-01 2.420997381210327148e+00 -5.866723656654357910e-01 1.000000000000000000e+01
8.917599916458129883e-01 2.794253349304199219e+00 -5.701372623443603516e-01 1.000000000000000000e+01
1.061784029006958008e+00 3.323003530502318892e+00 -5.525265336036682129e-01 9.000000000000000000e+00
1.313137531280518022e+00 4.104707717895507812e+00 -5.291566848754882812e-01 9.000000000000000000e+00
1.704387903213500977e+00 5.324506282806395596e+00 -4.891180396080017090e-01 9.000000000000000000e+00
2.466876983642578125e+00 7.697266578674316406e+00 -4.236072301864624023e-01 2.000000000000000000e+00
4.392839431762695312e+00 1.369030189514159979e+01 -2.509655952453612726e-01 2.000000000000000000e+00
6.852822899818420410e-01 2.125479221343994141e+00 -5.983896255493164062e-01 1.500000000000000000e+01
7.806193828582763672e-01 2.418287277221680132e+00 -5.866723656654357910e-01 1.000000000000000000e+01
9.039220213890075684e-01 2.798596382141112837e+00 -5.716637372970581055e-01 9.000000000000000000e+00
1.074592590332031028e+00 3.323036193847655806e+00 -5.531522631645202637e-01 9.000000000000000000e+00
1.334795117378235085e+00 4.122762203216552734e+00 -5.320815443992614746e-01 9.000000000000000000e+00
1.722963571548461914e+00 5.318524837493895596e+00 -4.891180396080017090e-01 9.000000000000000000e+00
2.491265535354613814e+00 7.681009292602539062e+00 -4.231885373592377264e-01 1.000000000000000000e+00
4.454188346862792969e+00 1.371672725677490057e+01 -2.517335116863250732e-01 2.000000000000000000e+00
6.938958764076232910e-01 2.126747369766234907e+00 -5.994248986244201660e-01 1.600000000000000000e+01
7.854254245758056641e-01 2.404433012008666992e+00 -5.839729309082031250e-01 1.000000000000000000e+01
9.130754470825195312e-01 2.793557882308959961e+00 -5.712821483612060547e-01 1.100000000000000000e+01
1.086185574531554954e+00 3.319264888763428178e+00 -5.531522631645202637e-01 9.000000000000000000e+00
1.347941994667053001e+00 4.114305019378662109e+00 -5.315940976142883301e-01 9.000000000000000000e+00
1.744621396064758079e+00 5.321944236755371094e+00 -4.899895787239075262e-01 9.000000000000000000e+00
2.526781558990478960e+00 7.698833465576171875e+00 -4.246539473533629816e-01 1.000000000000000000e+00
4.556974887847900391e+00 1.386827468872069957e+01 -2.548051476478577215e-01 2.000000000000000000e+00
7.015498876571655273e-01 2.126269102096558061e+00 -5.999425649642944336e-01 1.500000000000000000e+01
7.933945059776306152e-01 2.401815414428710938e+00 -5.839729309082031250e-01 1.100000000000000000e+01
9.204858541488647461e-01 2.784922599792480025e+00 -5.701372623443603516e-01 1.000000000000000000e+01
1.095945477485656960e+00 3.311893939971923828e+00 -5.525265336036682129e-01 9.000000000000000000e+00
1.356583833694458008e+00 4.094737052917479581e+00 -5.296441912651062012e-01 9.000000000000000000e+00
1.760379314422606978e+00 5.310455799102783203e+00 -4.894666373729705811e-01 9.000000000000000000e+00
2.540973901748656782e+00 7.656291484832763672e+00 -4.227698445320128839e-01 1.000000000000000000e+00
4.624377250671386719e+00 1.391760826110840021e+01 -2.559919059276580811e-01 2.000000000000000000e+00
7.071325778961181641e-01 2.118309974670410156e+00 -5.983896255493164062e-01 1.400000000000000000e+01
8.030089735984802246e-01 2.402727603912353960e+00 -5.848727226257324219e-01 1.100000000000000000e+01
9.264656901359558105e-01 2.770520925521851030e+00 -5.678475499153137207e-01 1.000000000000000000e+01
1.111262202262877974e+00 3.319287300109862837e+00 -5.544037222862243652e-01 9.000000000000000000e+00
1.370868802070617898e+00 4.089976787567138672e+00 -5.296441912651062012e-01 9.000000000000000000e+00
1.776371479034424050e+00 5.296722888946533203e+00 -4.887694120407103937e-01 9.000000000000000000e+00
2.568955421447753906e+00 7.651162147521972656e+00 -4.229792058467864990e-01 2.000000000000000000e+00
4.664010047912597656e+00 1.387484550476074041e+01 -2.555032372474669855e-01 2.000000000000000000e+00
7.120501399040222168e-01 2.108507633209228960e+00 -5.963190793991088867e-01 1.500000000000000000e+01
8.138877153396606445e-01 2.407294511795043945e+00 -5.866723656654357910e-01 1.100000000000000000e+01
9.373891949653625488e-01 2.770989656448363814e+00 -5.686107873916625977e-01 1.000000000000000000e+01
1.123475551605225053e+00 3.317259073257445845e+00 -5.547165870666503906e-01 9.000000000000000000e+00
1.385137200355530007e+00 4.085166931152343750e+00 -5.296441912651062012e-01 9.000000000000000000e+00
1.792289257049560991e+00 5.282942771911621094e+00 -4.880721569061278742e-01 9.000000000000000000e+00
2.603355169296265093e+00 7.664842128753662109e+00 -4.242352545261383057e-01 2.000000000000000000e+00
4.721426963806152344e+00 1.388498592376708984e+01 -2.559919059276580811e-01 2.000000000000000000e+00
7.212793231010437012e-01 2.111493587493896040e+00 -5.978720188140869141e-01 1.600000000000000000e+01
8.229163885116577148e-01 2.406282663345336914e+00 -5.871222615242004395e-01 1.000000000000000000e+01
9.489628672599792480e-01 2.773273229598999023e+00 -5.697556734085083008e-01 1.000000000000000000e+01
1.129926681518554910e+00 3.298367023468018022e+00 -5.522136688232421875e-01 9.000000000000000000e+00
1.405828475952147993e+00 4.099084377288818359e+00 -5.320815443992614746e-01 9.000000000000000000e+00
1.814599275588989036e+00 5.287961483001708984e+00 -4.891180396080017090e-01 9.000000000000000000e+00
2.622307538986206055e+00 7.633040904998779297e+00 -4.229792058467864990e-01 2.000000000000000000e+00
4.747752666473388672e+00 1.380412673950194957e+01 -2.548051476478577215e-01 2.000000000000000000e+00
7.295384407043457031e-01 2.112742185592650923e+00 -5.989072918891906738e-01 1.600000000000000000e+01
8.277078866958618164e-01 2.394331455230712891e+00 -5.848727226257324219e-01 1.100000000000000000e+01
9.613630175590515137e-01 2.779387950897216797e+00 -5.716637372970581055e-01 1.100000000000000000e+01
1.144090175628662109e+00 3.303935289382935014e+00 -5.537779927253723145e-01 9.000000000000000000e+00
1.415512561798095925e+00 4.083146095275878906e+00 -5.306191444396972656e-01 9.000000000000000000e+00
1.836042404174804910e+00 5.293209075927734375e+00 -4.901638925075531006e-01 9.000000000000000000e+00
2.650225877761840820e+00 7.631850242614746094e+00 -4.233978986740111750e-01 2.000000000000000000e+00
4.796129226684570312e+00 1.379586219787598012e+01 -2.549447417259215753e-01 2.000000000000000000e+00
7.362719178199768066e-01 2.108358860015869141e+00 -5.983896255493164062e-01 1.400000000000000000e+01
8.334881067276000977e-01 2.384069442749022993e+00 -5.830731391906738281e-01 1.100000000000000000e+01
9.723554849624633789e-01 2.779721498489379883e+00 -5.724269747734069824e-01 9.000000000000000000e+00
1.153657436370850053e+00 3.294328451156616211e+00 -5.528393983840942383e-01 8.000000000000000000e+00
1.421875715255737083e+00 4.055700778961181641e+00 -5.276942849159240723e-01 9.000000000000000000e+00
1.851210474967956987e+00 5.277367591857910156e+00 -4.892923533916472834e-01 9.000000000000000000e+00
2.680820465087891069e+00 7.633859157562255859e+00 -4.240259230136870783e-01 1.000000000000000000e+00
4.861500740051270419e+00 1.382808589935302912e+01 -2.558522820472716730e-01 2.000000000000000000e+00
7.429836988449096680e-01 2.103954553604125977e+00 -5.978720188140869141e-01 1.600000000000000000e+01
8.457022309303283691e-01 2.392169237136840820e+00 -5.857725739479064941e-01 1.100000000000000000e+01
9.794337749481201172e-01 2.768907070159912109e+00 -5.709004998207092285e-01 1.000000000000000000e+01
1.169765472412108931e+00 3.303315877914429155e+00 -5.550295114517211914e-01 9.000000000000000000e+00
1.441330432891845925e+00 4.065680503845214844e+00 -5.296441912651062012e-01 9.000000000000000000e+00
1.871618866920470969e+00 5.276506900787354404e+00 -4.898152649402617853e-01 9.000000000000000000e+00
2.712798118591309038e+00 7.639512062072753906e+00 -4.248632788658142090e-01 2.000000000000000000e+00
4.892324924468994141e+00 1.376204299926757990e+01 -2.549447417259215753e-01 2.000000000000000000e+00
7.470752000808715820e-01 2.092251300811768022e+00 -5.952838063240051270e-01 1.400000000000000000e+01
8.579830527305603027e-01 2.400212764739989790e+00 -5.884719491004943848e-01 1.000000000000000000e+01
9.864484667778015137e-01 2.758076906204224077e+00 -5.693740248680114746e-01 1.000000000000000000e+01
1.175296068191528098e+00 3.282474517822266069e+00 -5.522136688232421875e-01 8.000000000000000000e+00
1.456853151321410911e+00 4.064362049102783203e+00 -5.301316380500793457e-01 9.000000000000000000e+00
1.881281971931457964e+00 5.245561122894287109e+00 -4.875492155551909845e-01 9.000000000000000000e+00
2.740798234939575195e+00 7.633755207061767578e+00 -4.250726401805878241e-01 1.000000000000000000e+00
4.937628269195556641e+00 1.373735427856444957e+01 -2.548051476478577215e-01 2.000000000000000000e+00
7.576538324356079102e-01 2.098716259002685991e+00 -5.978720188140869141e-01 1.500000000000000000e+01
8.623819947242736816e-01 2.386207103729248047e+00 -5.857725739479064941e-01 1.100000000000000000e+01
1.000075578689574973e+00 2.765694379806518999e+00 -5.716637372970581055e-01 1.100000000000000000e+01
1.187419295310973899e+00 3.280209541320800781e+00 -5.525265336036682129e-01 9.000000000000000000e+00
1.475089550018310991e+00 4.070449829101563388e+00 -5.315940976142883301e-01 1.000000000000000000e+01
1.906372427940369096e+00 5.257692813873291016e+00 -4.892923533916472834e-01 8.000000000000000000e+00
2.752436161041260210e+00 7.582839012145996094e+00 -4.227698445320128839e-01 1.000000000000000000e+00
4.965061664581298828e+00 1.366365146636963068e+01 -2.537579834461212158e-01 2.000000000000000000e+00
7.662997245788574219e-01 2.099688291549683061e+00 -5.989072918891906738e-01 1.600000000000000000e+01
8.693686723709106445e-01 2.379521369934082031e+00 -5.848727226257324219e-01 1.100000000000000000e+01
1.010397672653198020e+00 2.764030456542969194e+00 -5.720453858375549316e-01 1.000000000000000000e+01
1.198862075805664062e+00 3.276044607162476030e+00 -5.525265336036682129e-01 9.000000000000000000e+00
1.487923383712768999e+00 4.061548233032226562e+00 -5.311065912246704102e-01 9.000000000000000000e+00
1.928827762603759988e+00 5.262230396270751953e+00 -4.903382062911986750e-01 9.000000000000000000e+00
2.784392595291138139e+00 7.588184833526611328e+00 -4.236072301864624023e-01 1.000000000000000000e+00
4.994799613952636719e+00 1.359743309020995916e+01 -2.528504729270935059e-01 2.000000000000000000e+00
7.742283344268798828e-01 2.100895881652832031e+00 -5.999425649642944336e-01 1.600000000000000000e+01
8.768398761749267578e-01 2.376778364181518999e+00 -5.848727226257324219e-01 1.100000000000000000e+01
1.013637423515320046e+00 2.746108293533325195e+00 -5.689924359321594238e-01 1.000000000000000000e+01
1.211202144622802956e+00 3.277820825576781782e+00 -5.534651279449462891e-01 8.000000000000000000e+00
1.495854854583740012e+00 4.043821334838867188e+00 -5.294004082679748535e-01 1.000000000000000000e+01
1.948116183280945046e+00 5.263618946075438565e+00 -4.910354614257813055e-01 9.000000000000000000e+00
2.808217763900756836e+00 7.579400062561035156e+00 -4.236072301864624023e-01 1.000000000000000000e+00
5.036101341247558594e+00 1.357792472839354936e+01 -2.527806460857390802e-01 2.000000000000000000e+00
7.795341014862060547e-01 2.092749595642089844e+00 -5.983896255493164062e-01 1.600000000000000000e+01
8.892162442207336426e-01 2.384658813476562944e+00 -5.875721573829650879e-01 1.100000000000000000e+01
1.023903131484984907e+00 2.744392633438109907e+00 -5.693740248680114746e-01 1.000000000000000000e+01
1.224709987640381081e+00 3.279124498367310014e+00 -5.544037222862243652e-01 9.000000000000000000e+00
1.510656476020812988e+00 4.040434360504150391e+00 -5.296441912651062012e-01 9.000000000000000000e+00
1.958100914955138938e+00 5.234393596649169922e+00 -4.889437258243560791e-01 9.000000000000000000e+00
2.831856012344359907e+00 7.562069892883300781e+00 -4.231885373592377264e-01 2.000000000000000000e+00
5.063812255859375000e+00 1.350783443450927912e+01 -2.518033087253571112e-01 2.000000000000000000e+00
7.861537933349609375e-01 2.088207721710205078e+00 -5.978720188140869141e-01 1.900000000000000000e+01
9.016582965850830078e-01 2.392481565475463867e+00 -5.902715921401977539e-01 1.100000000000000000e+01
1.035554647445678933e+00 2.746312856674193892e+00 -5.705189108848571777e-01 1.100000000000000000e+01
1.234753608703613059e+00 3.271133422851562944e+00 -5.537779927253723145e-01 9.000000000000000000e+00
1.525452733039855957e+00 4.036993503570556641e+00 -5.298879146575927734e-01 1.000000000000000000e+01
1.974246621131896973e+00 5.221935749053955078e+00 -4.884207844734191895e-01 9.000000000000000000e+00
2.855407476425170898e+00 7.544666767120361328e+00 -4.227698445320128839e-01 1.000000000000000000e+00
5.088261604309082031e+00 1.343023681640625000e+01 -2.506863772869110107e-01 5.000000000000000000e+00
7.948120832443237305e-01 2.089061975479125977e+00 -5.989072918891906738e-01 2.000000000000000000e+01
9.044553041458129883e-01 2.374750614166260210e+00 -5.866723656654357910e-01 1.100000000000000000e+01
1.045134782791137917e+00 2.742681503295897993e+00 -5.705189108848571777e-01 1.000000000000000000e+01
1.243348240852355957e+00 3.259420633316040039e+00 -5.525265336036682129e-01 9.000000000000000000e+00
1.540951490402221902e+00 4.035353183746337891e+00 -5.303753614425659180e-01 1.000000000000000000e+01
1.992462515830994096e+00 5.215012550354003906e+00 -4.884207844734191895e-01 9.000000000000000000e+00
2.876018047332764116e+00 7.519730091094970703e+00 -4.219324886798859198e-01 1.000000000000000000e+00
5.137970447540283203e+00 1.341986274719237926e+01 -2.508259713649749756e-01 2.000000000000000000e+00
8.031212091445922852e-01 2.090021371841431108e+00 -5.999425649642944336e-01 1.800000000000000000e+01
9.067282080650329590e-01 2.357187747955321822e+00 -5.830731391906738281e-01 1.100000000000000000e+01
1.054224133491515891e+00 2.739200592041016069e+00 -5.705189108848571777e-01 1.000000000000000000e+01
1.254150032997130904e+00 3.255279779434204102e+00 -5.525265336036682129e-01 9.000000000000000000e+00
1.552181839942931907e+00 4.024664402008056641e+00 -5.296441912651062012e-01 9.000000000000000000e+00
2.011897087097167969e+00 5.213953018188476562e+00 -4.889437258243560791e-01 9.000000000000000000e+00
2.909574270248413086e+00 7.532508373260498047e+00 -4.231885373592377264e-01 2.000000000000000000e+00
5.191098690032958984e+00 1.342513275146484020e+01 -2.512448430061339777e-01 2.000000000000000000e+00
8.104118704795837402e-01 2.087205171585083008e+00 -5.999425649642944336e-01 1.500000000000000000e+01
9.177747368812561035e-01 2.361273765563964844e+00 -5.848727226257324219e-01 1.200000000000000000e+01
1.063067793846129927e+00 2.733674049377440962e+00 -5.701372623443603516e-01 1.000000000000000000e+01
1.268371820449829102e+00 3.258245468139647993e+00 -5.537779927253723145e-01 9.000000000000000000e+00
1.564779520034790039e+00 4.015522480010986328e+00 -5.291566848754882812e-01 9.000000000000000000e+00
2.036598443984984907e+00 5.223604679107666016e+00 -4.905125200748444159e-01 9.000000000000000000e+00
2.932945489883422852e+00 7.514863967895507812e+00 -4.227698445320128839e-01 1.000000000000000000e+00
5.232107639312744141e+00 1.339202976226806996e+01 -2.509655952453612726e-01 2.000000000000000000e+00
8.148705363273620605e-01 2.077169895172119141e+00 -5.978720188140869141e-01 1.300000000000000000e+01
9.288607835769653320e-01 2.365311145782471147e+00 -5.866723656654357910e-01 1.100000000000000000e+01
1.072603583335876021e+00 2.729946613311768022e+00 -5.701372623443603516e-01 1.000000000000000000e+01
1.281183600425719993e+00 3.257474660873413086e+00 -5.544037222862243652e-01 9.000000000000000000e+00
1.575877904891967995e+00 4.002647876739501953e+00 -5.281817317008972168e-01 9.000000000000000000e+00
2.054089546203612837e+00 5.214610099792479581e+00 -4.903382062911986750e-01 8.000000000000000000e+00
2.962089776992797852e+00 7.512012481689453125e+00 -4.231885373592377264e-01 2.000000000000000000e+00
5.264139175415039062e+00 1.333648395538330078e+01 -2.502675056457520086e-01 2.000000000000000000e+00
8.214044570922851562e-01 2.072516918182373047e+00 -5.973543524742126465e-01 1.600000000000000000e+01
9.399861693382263184e-01 2.369300127029418945e+00 -5.884719491004943848e-01 1.000000000000000000e+01
1.080677747726439986e+00 2.722536563873291016e+00 -5.693740248680114746e-01 1.000000000000000000e+01
1.288169860839843972e+00 3.241968154907227007e+00 -5.525265336036682129e-01 9.000000000000000000e+00
1.593508481979369895e+00 4.006345272064208984e+00 -5.294004082679748535e-01 1.000000000000000000e+01
2.062702655792235884e+00 5.183342933654785156e+00 -4.880721569061278742e-01 9.000000000000000000e+00
2.988293647766112837e+00 7.501626968383789062e+00 -4.231885373592377264e-01 2.000000000000000000e+00
5.321770191192626953e+00 1.334588909149169922e+01 -2.507910728454589844e-01 2.000000000000000000e+00
8.318685889244079590e-01 2.076665639877318892e+00 -5.994248986244201660e-01 1.900000000000000000e+01
9.457626342773437500e-01 2.358603954315185991e+00 -5.866723656654357910e-01 1.100000000000000000e+01
1.093572974205017090e+00 2.725845575332642046e+00 -5.709004998207092285e-01 9.000000000000000000e+00
1.298571348190308061e+00 3.233558654785155806e+00 -5.519008040428161621e-01 9.000000000000000000e+00
1.613364696502685991e+00 4.013370513916015625e+00 -5.311065912246704102e-01 9.000000000000000000e+00
2.086147546768188032e+00 5.186838626861572266e+00 -4.891180396080017090e-01 9.000000000000000000e+00
3.011292934417725053e+00 7.479507446289063388e+00 -4.225605130195618231e-01 2.000000000000000000e+00
5.370649337768554688e+00 1.332629489898681996e+01 -2.507910728454589844e-01 2.000000000000000000e+00
8.383877873420715332e-01 2.071958541870117188e+00 -5.989072918891906738e-01 1.800000000000000000e+01
9.525268077850341797e-01 2.351675748825072798e+00 -5.857725739479064941e-01 1.000000000000000000e+01
1.103081345558166948e+00 2.722011804580688032e+00 -5.709004998207092285e-01 9.000000000000000000e+00
1.311335682868957964e+00 3.232667207717895952e+00 -5.525265336036682129e-01 9.000000000000000000e+00
1.622883081436157005e+00 3.996679067611693892e+00 -5.296441912651062012e-01 9.000000000000000000e+00
2.108739614486693892e+00 5.190600395202636719e+00 -4.901638925075531006e-01 9.000000000000000000e+00
3.034373283386230025e+00 7.461550235748291016e+00 -4.221418201923369806e-01 2.000000000000000000e+00
5.396023750305175781e+00 1.325560665130615057e+01 -2.498137503862380981e-01 2.000000000000000000e+00
8.492743968963623047e-01 2.080045461654663086e+00 -6.020131111145019531e-01 1.700000000000000000e+01
9.584355354309082031e-01 2.345063924789429155e+00 -5.848727226257324219e-01 1.100000000000000000e+01
1.109398126602173074e+00 2.713081359863280806e+00 -5.697556734085083008e-01 1.100000000000000000e+01
1.324478149414062944e+00 3.235844135284423828e+00 -5.537779927253723145e-01 9.000000000000000000e+00
1.626399636268615945e+00 3.969518184661864790e+00 -5.267193317413330078e-01 9.000000000000000000e+00
2.126547336578369141e+00 5.187636852264404297e+00 -4.905125200748444159e-01 9.000000000000000000e+00
3.063864946365356001e+00 7.466762542724609375e+00 -4.229792058467864990e-01 2.000000000000000000e+00
5.446757793426513672e+00 1.326078605651854936e+01 -2.502326071262360174e-01 2.000000000000000000e+00
8.535839915275573730e-01 2.069924592971802202e+00 -5.999425649642944336e-01 1.900000000000000000e+01
9.666154980659484863e-01 2.341704130172729048e+00 -5.848727226257324219e-01 1.100000000000000000e+01
1.113615989685059038e+00 2.696490049362183061e+00 -5.670843124389648438e-01 1.000000000000000000e+01
1.336519956588744895e+00 3.233026742935181108e+00 -5.540908575057983398e-01 9.000000000000000000e+00
1.647836089134216087e+00 3.982159376144409180e+00 -5.291566848754882812e-01 1.000000000000000000e+01
2.141594171524047852e+00 5.172819137573242188e+00 -4.898152649402617853e-01 9.000000000000000000e+00
3.091439485549927202e+00 7.459712505340576172e+00 -4.231885373592377264e-01 2.000000000000000000e+00
5.493013381958007812e+00 1.324169254302979049e+01 -2.502326071262360174e-01 2.000000000000000000e+00
8.581928014755249023e-01 2.059648990631103960e+00 -5.978720188140869141e-01 1.900000000000000000e+01
9.826932549476623535e-01 2.356131315231322798e+00 -5.893717408180236816e-01 1.000000000000000000e+01
1.127271890640259011e+00 2.701449632644652876e+00 -5.689924359321594238e-01 1.000000000000000000e+01
1.350644707679748979e+00 3.233574628829956055e+00 -5.550295114517211914e-01 9.000000000000000000e+00
1.659357428550719993e+00 3.968767166137694868e+00 -5.281817317008972168e-01 9.000000000000000000e+00
2.156694650650023970e+00 5.155744552612304688e+00 -4.889437258243560791e-01 9.000000000000000000e+00
3.131102323532104048e+00 7.477807998657226562e+00 -4.248632788658142090e-01 2.000000000000000000e+00
5.521412372589111328e+00 1.317352008819580078e+01 -2.493250817060471136e-01 2.000000000000000000e+00
8.676248192787170410e-01 2.061982870101929155e+00 -5.994248986244201660e-01 2.100000000000000000e+01
9.863731861114501953e-01 2.341911077499390093e+00 -5.866723656654357910e-01 1.000000000000000000e+01
1.138981938362122026e+00 2.702925682067871094e+00 -5.701372623443603516e-01 9.000000000000000000e+00
1.354246616363524947e+00 3.210639476776123047e+00 -5.519008040428161621e-01 9.000000000000000000e+00
1.679377913475037065e+00 3.977581024169921875e+00 -5.301316380500793457e-01 1.000000000000000000e+01
2.167700767517089844e+00 5.131666660308837891e+00 -4.873749017715454102e-01 9.000000000000000000e+00
3.141629219055175781e+00 7.430041313171386719e+00 -4.227698445320128839e-01 1.000000000000000000e+00
5.561127662658691406e+00 1.313943481445313033e+01 -2.490458339452744085e-01 2.000000000000000000e+00
8.797438740730285645e-01 2.071541309356689009e+00 -6.030483841896057129e-01 1.800000000000000000e+01
9.941338300704956055e-01 2.338627338409423828e+00 -5.866723656654357910e-01 1.100000000000000000e+01
1.151780724525452104e+00 2.708167076110839844e+00 -5.720453858375549316e-01 1.000000000000000000e+01
1.364886045455933061e+00 3.206130981445312944e+00 -5.519008040428161621e-01 9.000000000000000000e+00
1.689446091651916948e+00 3.964685201644897017e+00 -5.291566848754882812e-01 9.000000000000000000e+00
2.195645332336425781e+00 5.150108814239501953e+00 -4.898152649402617853e-01 9.000000000000000000e+00
3.172522068023682085e+00 7.434278488159179688e+00 -4.236072301864624023e-01 1.000000000000000000e+00
5.576390266418457031e+00 1.305471897125243963e+01 -2.477892637252807895e-01 2.000000000000000000e+00
8.816400766372680664e-01 2.056029319763184038e+00 -5.994248986244201660e-01 1.900000000000000000e+01
1.002291083335876021e+00 2.335142850875854048e+00 -5.866723656654357910e-01 1.000000000000000000e+01
1.161226987838744895e+00 2.704130172729492188e+00 -5.720453858375549316e-01 1.000000000000000000e+01
1.382309794425963911e+00 3.215865612030028853e+00 -5.544037222862243652e-01 9.000000000000000000e+00
1.706413388252258079e+00 3.966057777404785156e+00 -5.301316380500793457e-01 9.000000000000000000e+00
2.214396953582764116e+00 5.144243240356445312e+00 -4.899895787239075262e-01 9.000000000000000000e+00
3.193711280822753906e+00 7.412153720855712891e+00 -4.229792058467864990e-01 1.000000000000000000e+00
5.629845142364501953e+00 1.305353546142577947e+01 -2.481383085250853937e-01 2.000000000000000000e+00
8.876860737800598145e-01 2.051321506500244141e+00 -5.989072918891906738e-01 1.800000000000000000e+01
1.011578321456908958e+00 2.335382699966431108e+00 -5.875721573829650879e-01 1.000000000000000000e+01
1.165503978729248047e+00 2.689456224441527876e+00 -5.697556734085083008e-01 1.000000000000000000e+01
1.389035940170288086e+00 3.202203035354613814e+00 -5.528393983840942383e-01 8.000000000000000000e+00
1.706906318664551003e+00 3.931243419647216797e+00 -5.262318253517150879e-01 1.000000000000000000e+01
2.221917867660522017e+00 5.114943027496337891e+00 -4.878978431224822998e-01 7.000000000000000000e+00
3.221458911895751953e+00 7.408848285675048828e+00 -4.233978986740111750e-01 2.000000000000000000e+00
5.208655357360839844e+00 1.196766185760498047e+01 -2.278237193822860995e-01 2.000000000000000000e+00
8.948410749435424805e-01 2.048210382461547852e+00 -5.989072918891906738e-01 1.700000000000000000e+01
1.022847414016724077e+00 2.338979244232178178e+00 -5.893717408180236816e-01 1.100000000000000000e+01
1.173310875892638938e+00 2.681774139404296875e+00 -5.689924359321594238e-01 1.000000000000000000e+01
1.401790142059325950e+00 3.200953722000122070e+00 -5.534651279449462891e-01 9.000000000000000000e+00
1.734963655471801980e+00 3.957986831665039062e+00 -5.306191444396972656e-01 9.000000000000000000e+00
2.245360136032104048e+00 5.119928359985351562e+00 -4.891180396080017090e-01 9.000000000000000000e+00
3.247301101684569868e+00 7.397558212280273438e+00 -4.233978986740111750e-01 2.000000000000000000e+00
5.707304954528808594e+00 1.298928165435791016e+01 -2.476496547460556030e-01 2.000000000000000000e+00
9.019852280616760254e-01 2.045074224472045898e+00 -5.989072918891906738e-01 1.700000000000000000e+01
1.026283502578734907e+00 2.324698209762572798e+00 -5.866723656654357910e-01 1.100000000000000000e+01
1.187424182891845925e+00 2.688437700271606001e+00 -5.712821483612060547e-01 1.000000000000000000e+01
1.408162593841552956e+00 3.185200929641724077e+00 -5.515879392623901367e-01 8.000000000000000000e+00
1.747162461280822976e+00 3.948276042938231978e+00 -5.301316380500793457e-01 9.000000000000000000e+00
2.259992122650146040e+00 5.104772090911865234e+00 -4.884207844734191895e-01 9.000000000000000000e+00
3.265011787414550781e+00 7.367918014526367188e+00 -4.223511815071105957e-01 2.000000000000000000e+00
5.750989437103270596e+00 1.296562480926514027e+01 -2.475798428058623990e-01 2.000000000000000000e+00
9.114756584167480469e-01 2.047207832336425781e+00 -6.004601716995239258e-01 1.600000000000000000e+01
1.031219005584717019e+00 2.313981771469116211e+00 -5.848727226257324219e-01 1.100000000000000000e+01
1.193603396415710005e+00 2.677103996276855025e+00 -5.697556734085083008e-01 9.000000000000000000e+00
1.426517724990844949e+00 3.196501255035399947e+00 -5.544037222862243652e-01 9.000000000000000000e+00
1.756076097488403098e+00 3.931278467178345171e+00 -5.286692380905151367e-01 9.000000000000000000e+00
2.287552356719971147e+00 5.118680000305175781e+00 -4.905125200748444159e-01 9.000000000000000000e+00
3.298866271972655806e+00 7.374707698822020596e+00 -4.233978986740111750e-01 2.000000000000000000e+00
5.796212673187255859e+00 1.294547080993651988e+01 -2.475798428058623990e-01 2.000000000000000000e+00
9.154485464096069336e-01 2.036965370178223100e+00 -5.983896255493164062e-01 1.500000000000000000e+01
1.042487859725951926e+00 2.317476749420166016e+00 -5.866723656654357910e-01 1.000000000000000000e+01
1.204552412033081055e+00 2.676501750946044922e+00 -5.705189108848571777e-01 1.100000000000000000e+01
1.434421658515929954e+00 3.184297800064086914e+00 -5.531522631645202637e-01 9.000000000000000000e+00
1.766524314880371094e+00 3.917886018753052202e+00 -5.276942849159240723e-01 1.000000000000000000e+01
2.300490379333496094e+00 5.099766731262207031e+00 -4.894666373729705811e-01 9.000000000000000000e+00
3.314725875854492188e+00 7.341303825378417969e+00 -4.221418201923369806e-01 2.000000000000000000e+00
5.821600914001464844e+00 1.288142585754395064e+01 -2.467421293258666992e-01 2.000000000000000000e+00
9.257454872131347656e-01 2.040794610977172852e+00 -6.004601716995239258e-01 1.400000000000000000e+01
1.048959732055664062e+00 2.310274839401245117e+00 -5.857725739479064941e-01 1.100000000000000000e+01
1.210639953613281028e+00 2.665130853652954102e+00 -5.689924359321594238e-01 1.100000000000000000e+01
1.446345806121825950e+00 3.181069612503052202e+00 -5.534651279449462891e-01 8.000000000000000000e+00
1.785123109817505105e+00 3.922536611557006836e+00 -5.291566848754882812e-01 1.000000000000000000e+01
2.321580171585083008e+00 5.098958969116210938e+00 -4.901638925075531006e-01 9.000000000000000000e+00
3.341988086700439009e+00 7.333323478698729581e+00 -4.223511815071105957e-01 2.000000000000000000e+00
5.853251457214354581e+00 1.283191585540770951e+01 -2.461836487054825107e-01 2.000000000000000000e+00
9.272342324256896973e-01 2.025255203247069868e+00 -5.968367457389831543e-01 1.600000000000000000e+01
1.063512444496155007e+00 2.320771932601929155e+00 -5.893717408180236816e-01 1.100000000000000000e+01
1.223208427429198997e+00 2.668027162551879883e+00 -5.705189108848571777e-01 1.000000000000000000e+01
1.454969286918639915e+00 3.170615434646606001e+00 -5.525265336036682129e-01 9.000000000000000000e+00
1.793833017349242942e+00 3.905457973480225053e+00 -5.276942849159240723e-01 9.000000000000000000e+00
2.333541393280028853e+00 5.078151226043701172e+00 -4.889437258243560791e-01 9.000000000000000000e+00
3.369235038757324219e+00 7.325242042541503906e+00 -4.225605130195618231e-01 2.000000000000000000e+00
5.911387443542479581e+00 1.284046936035156072e+01 -2.467421293258666992e-01 2.000000000000000000e+00
9.342980384826660156e-01 2.022006273269652876e+00 -5.968367457389831543e-01 1.500000000000000000e+01
1.066698789596558061e+00 2.306432962417602983e+00 -5.866723656654357910e-01 1.000000000000000000e+01
1.231689691543579102e+00 2.661959409713745117e+00 -5.701372623443603516e-01 9.000000000000000000e+00
1.469348549842834029e+00 3.172687292098999023e+00 -5.537779927253723145e-01 9.000000000000000000e+00
1.814133524894713911e+00 3.913580417633057085e+00 -5.296441912651062012e-01 9.000000000000000000e+00
2.346223831176757812e+00 5.059129714965820312e+00 -4.878978431224822998e-01 9.000000000000000000e+00
3.391420602798461914e+00 7.306190490722656250e+00 -4.221418201923369806e-01 1.000000000000000000e+00
5.969654083251953125e+00 1.284877300262450994e+01 -2.473005950450896939e-01 2.000000000000000000e+00
9.471723437309265137e-01 2.033070087432860884e+00 -6.009778380393981934e-01 1.600000000000000000e+01
1.070645093917846902e+00 2.296005964279174805e+00 -5.848727226257324219e-01 1.000000000000000000e+01
1.244196534156799094e+00 2.666972637176514116e+00 -5.720453858375549316e-01 1.000000000000000000e+01
1.475965499877929910e+00 3.160896062850952148e+00 -5.525265336036682129e-01 9.000000000000000000e+00
1.823057413101196067e+00 3.900668382644652876e+00 -5.286692380905151367e-01 9.000000000000000000e+00
2.368013143539429155e+00 5.064367771148681641e+00 -4.891180396080017090e-01 9.000000000000000000e+00
3.405890941619873047e+00 7.277410507202148438e+00 -4.210951030254364014e-01 1.000000000000000000e+00
5.970970153808593750e+00 1.274665546417235973e+01 -2.456949800252913874e-01 2.000000000000000000e+00
9.567291140556335449e-01 2.034996271133422852e+00 -6.025307178497314453e-01 1.900000000000000000e+01
1.076993703842163086e+00 2.288727998733520952e+00 -5.839729309082031250e-01 1.100000000000000000e+01
1.248481035232543945e+00 2.651955842971802202e+00 -5.697556734085083008e-01 1.000000000000000000e+01
1.493726134300231934e+00 3.170020341873168945e+00 -5.550295114517211914e-01 9.000000000000000000e+00
1.829887986183166948e+00 3.879917621612548828e+00 -5.267193317413330078e-01 9.000000000000000000e+00
2.389927864074707031e+00 5.065080642700195312e+00 -4.899895787239075262e-01 9.000000000000000000e+00
3.434684753417969194e+00 7.272701263427734375e+00 -4.215137958526610773e-01 1.000000000000000000e+00
6.020555019378662109e+00 1.273658275604248047e+01 -2.459044009447098056e-01 2.000000000000000000e+00
9.654827713966369629e-01 2.035135030746459961e+00 -6.035659909248352051e-01 1.900000000000000000e+01
1.089991569519042969e+00 2.295516967773437944e+00 -5.866723656654357910e-01 1.100000000000000000e+01
1.255203247070312944e+00 2.642261743545531782e+00 -5.686107873916625977e-01 1.000000000000000000e+01
1.499693036079406960e+00 3.154083013534545898e+00 -5.531522631645202637e-01 9.000000000000000000e+00
1.848538517951965110e+00 3.884261369705200195e+00 -5.281817317008972168e-01 9.000000000000000000e+00
2.403311252593994141e+00 5.047712802886962891e+00 -4.891180396080017090e-01 9.000000000000000000e+00
3.470360755920410156e+00 7.282303810119628906e+00 -4.227698445320128839e-01 2.000000000000000000e+00
6.068420886993408203e+00 1.272270965576172053e+01 -2.460440248250961026e-01 2.000000000000000000e+00
9.634055495262145996e-01 2.012585163116455078e+00 -5.978720188140869141e-01 1.600000000000000000e+01
1.104733943939208984e+00 2.305757761001586914e+00 -5.902715921401977539e-01 1.100000000000000000e+01
1.266964673995971902e+00 2.643175125122069868e+00 -5.697556734085083008e-01 1.000000000000000000e+01
1.510693669319153054e+00 3.148828744888306108e+00 -5.531522631645202637e-01 9.000000000000000000e+00
1.863804459571837935e+00 3.881363868713378906e+00 -5.286692380905151367e-01 1.000000000000000000e+01
2.424367427825928178e+00 5.046476364135742188e+00 -4.898152649402617853e-01 9.000000000000000000e+00
3.490566730499268022e+00 7.259345531463623047e+00 -4.221418201923369806e-01 2.000000000000000000e+00
6.104122638702392578e+00 1.268343067169188920e+01 -2.456949800252913874e-01 2.000000000000000000e+00
9.737856984138488770e-01 2.016168117523192915e+00 -5.999425649642944336e-01 1.900000000000000000e+01
1.107686877250670943e+00 2.291360378265380859e+00 -5.875721573829650879e-01 1.100000000000000000e+01
1.278747677803039995e+00 2.644038677215576172e+00 -5.709004998207092285e-01 1.000000000000000000e+01
1.519954562187195046e+00 3.139980316162108931e+00 -5.525265336036682129e-01 9.000000000000000000e+00
1.880803704261780007e+00 3.881980180740356001e+00 -5.296441912651062012e-01 1.000000000000000000e+01
2.434146881103516069e+00 5.021847248077392578e+00 -4.882464706897736151e-01 9.000000000000000000e+00
3.517628908157349077e+00 7.250710964202880859e+00 -4.223511815071105957e-01 1.000000000000000000e+00
6.122154712677001953e+00 1.260807991027832031e+01 -2.446478307247161865e-01 2.000000000000000000e+00
9.825100302696228027e-01 2.016230106353760210e+00 -6.009778380393981934e-01 1.600000000000000000e+01
1.110552906990051047e+00 2.276970863342285156e+00 -5.848727226257324219e-01 1.100000000000000000e+01
1.286247372627258079e+00 2.636030197143555132e+00 -5.701372623443603516e-01 9.000000000000000000e+00
1.530905961990356001e+00 3.134655475616455078e+00 -5.525265336036682129e-01 9.000000000000000000e+00
1.885625243186950906e+00 3.857557058334351030e+00 -5.272067785263061523e-01 1.000000000000000000e+01
2.457788467407227007e+00 5.025848388671875000e+00 -4.894666373729705811e-01 9.000000000000000000e+00
3.535892724990845171e+00 7.224036693572998047e+00 -4.215137958526610773e-01 1.000000000000000000e+00
6.166128158569335938e+00 1.258663368225098012e+01 -2.446478307247161865e-01 2.000000000000000000e+00
9.912466406822204590e-01 2.016255617141724077e+00 -6.020131111145019531e-01 1.600000000000000000e+01
1.123656511306762917e+00 2.283571481704711914e+00 -5.875721573829650879e-01 1.000000000000000000e+01
1.291972637176513894e+00 2.624478816986083984e+00 -5.686107873916625977e-01 9.000000000000000000e+00
1.544457793235779031e+00 3.134608507156372070e+00 -5.534651279449462891e-01 8.000000000000000000e+00
1.899957060813904031e+00 3.852731943130493164e+00 -5.274505019187927246e-01 1.000000000000000000e+01
2.482369184494018999e+00 5.031532764434813565e+00 -4.908611476421356201e-01 9.000000000000000000e+00
3.569930791854857954e+00 7.229558467864990234e+00 -4.225605130195618231e-01 1.000000000000000000e+00
6.236606121063232422e+00 1.261881351470947088e+01 -2.456949800252913874e-01 2.000000000000000000e+00
9.957035779953002930e-01 2.007591009140015093e+00 -6.004601716995239258e-01 1.700000000000000000e+01
1.131620764732361062e+00 2.279635429382324219e+00 -5.875721573829650879e-01 1.100000000000000000e+01
1.304618835449218972e+00 2.626986265182495117e+00 -5.701372623443603516e-01 9.000000000000000000e+00
1.556269407272339089e+00 3.130967140197753906e+00 -5.537779927253723145e-01 9.000000000000000000e+00
1.918699264526366965e+00 3.856740236282349077e+00 -5.289129614830017090e-01 1.000000000000000000e+01
2.491927623748778853e+00 5.006783962249755859e+00 -4.892923533916472834e-01 9.000000000000000000e+00
3.577333927154541016e+00 7.181298255920410156e+00 -4.204670786857604980e-01 1.000000000000000000e+00
6.248494625091552734e+00 1.253254127502441051e+01 -2.444384098052979071e-01 2.000000000000000000e+00
9.992476701736450195e-01 1.997192502021789995e+00 -5.983896255493164062e-01 1.600000000000000000e+01
1.143061637878417969e+00 2.282641172409058061e+00 -5.893717408180236816e-01 1.000000000000000000e+01
1.311142683029175027e+00 2.617150545120238814e+00 -5.689924359321594238e-01 1.000000000000000000e+01
1.568074464797974077e+00 3.127281427383422852e+00 -5.540908575057983398e-01 8.000000000000000000e+00
1.929478883743285911e+00 3.844696521759033203e+00 -5.281817317008972168e-01 9.000000000000000000e+00
2.508495330810546875e+00 4.996274471282958984e+00 -4.891180396080017090e-01 9.000000000000000000e+00
3.600585937500000000e+00 7.165198326110839844e+00 -4.202577173709868830e-01 1.000000000000000000e+00
6.288609504699707031e+00 1.250350761413574041e+01 -2.442987859249114990e-01 2.000000000000000000e+00
1.007954001426696999e+00 1.997141599655150923e+00 -5.994248986244201660e-01 1.600000000000000000e+01
1.145750641822814941e+00 2.268200874328612837e+00 -5.866723656654357910e-01 1.100000000000000000e+01
1.323812246322632058e+00 2.619566679000854048e+00 -5.705189108848571777e-01 1.000000000000000000e+01
1.576306462287903054e+00 3.116500616073607954e+00 -5.531522631645202637e-01 9.000000000000000000e+00
