6.310271739959716797e+00 1.248138713836669922e+01 -2.441242635250092108e-01 2.000000000000000000e+00
1.009512424468993919e+00 1.989857673645019975e+00 -5.978720188140869141e-01 1.800000000000000000e+01
1.154027819633484109e+00 2.272746562957764116e+00 -5.884719491004943848e-01 1.100000000000000000e+01
1.323960781097412109e+00 2.606286048889160156e+00 -5.682291984558105469e-01 1.000000000000000000e+01
1.586411237716675027e+00 3.120235919952393022e+00 -5.544037222862243652e-01 9.000000000000000000e+00
1.958123803138732910e+00 3.848013877868651900e+00 -5.301316380500793457e-01 1.000000000000000000e+01
2.536360502243041992e+00 4.982186317443847656e+00 -4.891180396080017090e-01 9.000000000000000000e+00
3.649615049362183061e+00 7.162772655487061435e+00 -4.213044345378875732e-01 2.000000000000000000e+00
6.331998348236083984e+00 1.241652965545653942e+01 -2.432865500450134000e-01 2.000000000000000000e+00
1.021732449531554954e+00 1.996640324592590110e+00 -6.009778380393981934e-01 1.900000000000000000e+01
1.158400774002074973e+00 2.261766433715819868e+00 -5.866723656654357910e-01 1.100000000000000000e+01
1.336631417274475098e+00 2.608637809753417969e+00 -5.697556734085083008e-01 1.000000000000000000e+01
1.593687653541564941e+00 3.107648372650146040e+00 -5.531522631645202637e-01 9.000000000000000000e+00
1.969731092453002930e+00 3.837623357772827148e+00 -5.296441912651062012e-01 9.000000000000000000e+00
2.553736209869385210e+00 4.973302841186523438e+00 -4.891180396080017090e-01 9.000000000000000000e+00
3.669117927551269975e+00 7.139331340789794922e+00 -4.206764101982117254e-01 2.000000000000000000e+00
6.393595218658447266e+00 1.242991638183593928e+01 -2.439846396446228027e-01 2.000000000000000000e+00
1.030467867851257102e+00 1.996495008468627930e+00 -6.020131111145019531e-01 1.900000000000000000e+01
1.162711143493651900e+00 2.250783443450928178e+00 -5.848727226257324219e-01 1.000000000000000000e+01
1.346630454063415971e+00 2.605700254440308061e+00 -5.701372623443603516e-01 9.000000000000000000e+00
1.602710604667664018e+00 3.098557233810424805e+00 -5.525265336036682129e-01 9.000000000000000000e+00
1.984940052032470925e+00 3.834249973297119141e+00 -5.301316380500793457e-01 9.000000000000000000e+00
2.566499233245850053e+00 4.955512046813964844e+00 -4.882464706897736151e-01 8.000000000000000000e+00
3.694016456604003906e+00 7.126480102539063388e+00 -4.206764101982117254e-01 2.000000000000000000e+00
6.418527126312255859e+00 1.237202167510985973e+01 -2.432865500450134000e-01 2.000000000000000000e+00
1.037082791328429954e+00 1.993066787719727007e+00 -6.020131111145019531e-01 2.000000000000000000e+01
1.173769116401671919e+00 2.253829002380371094e+00 -5.866723656654357910e-01 1.100000000000000000e+01
1.355263829231261985e+00 2.601220369338988814e+00 -5.701372623443603516e-01 1.000000000000000000e+01
1.616630315780640093e+00 3.100231647491455078e+00 -5.537779927253723145e-01 9.000000000000000000e+00
1.988459467887877974e+00 3.810048341751099077e+00 -5.276942849159240723e-01 1.000000000000000000e+01
2.598594665527344194e+00 4.976998329162597656e+00 -4.912097752094268799e-01 9.000000000000000000e+00
3.712078332901000977e+00 7.103570461273193359e+00 -4.200483858585358221e-01 2.000000000000000000e+00
6.459518909454345703e+00 1.235066890716552912e+01 -2.432865500450134000e-01 2.000000000000000000e+00
1.042238235473633035e+00 1.986013412475585938e+00 -6.009778380393981934e-01 1.900000000000000000e+01
1.181629300117492898e+00 2.249718189239501953e+00 -5.866723656654357910e-01 1.100000000000000000e+01
1.361595988273621050e+00 2.591259956359862837e+00 -5.689924359321594238e-01 1.000000000000000000e+01
1.623764514923095925e+00 3.087576389312744141e+00 -5.525265336036682129e-01 9.000000000000000000e+00
2.005445241928101030e+00 3.810110569000244141e+00 -5.286692380905151367e-01 9.000000000000000000e+00
2.601099014282227007e+00 4.939690589904785156e+00 -4.884207844734191895e-01 9.000000000000000000e+00
3.746163606643677202e+00 7.108238220214843750e+00 -4.210951030254364014e-01 2.000000000000000000e+00
6.517518520355224609e+00 1.235634613037109020e+01 -2.438450157642365057e-01 2.000000000000000000e+00
1.044301509857177956e+00 1.974008202552794966e+00 -5.983896255493164062e-01 1.900000000000000000e+01
1.194554448127747026e+00 2.256120681762694868e+00 -5.893717408180236816e-01 1.100000000000000000e+01
1.371100306510925071e+00 2.588465452194213867e+00 -5.693740248680114746e-01 9.000000000000000000e+00
1.638620615005492942e+00 3.090901136398314986e+00 -5.540908575057983398e-01 9.000000000000000000e+00
2.022721052169799805e+00 3.812206983566284180e+00 -5.298879146575927734e-01 1.000000000000000000e+01
2.617465257644652876e+00 4.931037902832031250e+00 -4.884207844734191895e-01 9.000000000000000000e+00
3.773463010787963867e+00 7.102831840515136719e+00 -4.215137958526610773e-01 2.000000000000000000e+00
6.558457851409912109e+00 1.233466529846191051e+01 -2.438450157642365057e-01 2.000000000000000000e+00
1.053913712501526101e+00 1.975464224815369096e+00 -5.999425649642944336e-01 1.900000000000000000e+01
1.199668884277343972e+00 2.246780157089232954e+00 -5.880220532417297363e-01 1.200000000000000000e+01
1.382902503013611062e+00 2.588858604431151900e+00 -5.705189108848571777e-01 9.000000000000000000e+00
1.644743204116821067e+00 3.076452255249022993e+00 -5.525265336036682129e-01 9.000000000000000000e+00
2.038825511932373047e+00 3.810374021530150923e+00 -5.306191444396972656e-01 1.000000000000000000e+01
2.640303611755371094e+00 4.932410717010498047e+00 -4.894666373729705811e-01 9.000000000000000000e+00
3.790688037872314009e+00 7.075532436370849609e+00 -4.206764101982117254e-01 2.000000000000000000e+00
6.571235179901123047e+00 1.225530147552490057e+01 -2.427280694246292114e-01 2.000000000000000000e+00
1.065724849700927956e+00 1.980093717575073020e+00 -6.025307178497314453e-01 1.900000000000000000e+01
1.199578046798706055e+00 2.226927042007445845e+00 -5.839729309082031250e-01 1.100000000000000000e+01
1.393313169479369895e+00 2.585500955581665039e+00 -5.709004998207092285e-01 9.000000000000000000e+00
1.656945586204529031e+00 3.072141885757445845e+00 -5.528393983840942383e-01 9.000000000000000000e+00
2.049005746841431108e+00 3.795888423919678178e+00 -5.296441912651062012e-01 9.000000000000000000e+00
2.657417297363280806e+00 4.920947074890136719e+00 -4.892923533916472834e-01 8.000000000000000000e+00
3.807099103927611861e+00 7.044021129608154297e+00 -4.196296930313109796e-01 2.000000000000000000e+00
6.631331443786621094e+00 1.225927639007568004e+01 -2.432865500450134000e-01 2.000000000000000000e+00
1.071708679199218972e+00 1.974663734436034934e+00 -6.020131111145019531e-01 2.000000000000000000e+01
1.215715646743773970e+00 2.238137960433959961e+00 -5.880220532417297363e-01 1.200000000000000000e+01
1.401392340660094993e+00 2.578896522521973100e+00 -5.705189108848571777e-01 9.000000000000000000e+00
1.676153302192687988e+00 3.081957340240478960e+00 -5.556552410125732422e-01 9.000000000000000000e+00
2.054651021957397017e+00 3.774764537811278853e+00 -5.276942849159240723e-01 9.000000000000000000e+00
2.684106588363647017e+00 4.929139137268066406e+00 -4.910354614257813055e-01 9.000000000000000000e+00
3.829752683639525923e+00 7.027181148529052734e+00 -4.194203615188599188e-01 2.000000000000000000e+00
6.654932975769042969e+00 1.220094299316406072e+01 -2.425884455442428866e-01 2.000000000000000000e+00
1.074199676513672097e+00 1.964507102966309038e+00 -5.999425649642944336e-01 1.900000000000000000e+01
1.216192245483397993e+00 2.222341299057006836e+00 -5.848727226257324219e-01 1.100000000000000000e+01
1.403830528259276900e+00 2.564148902893065962e+00 -5.682291984558105469e-01 1.100000000000000000e+01
1.683928847312927024e+00 3.073211669921875000e+00 -5.550295114517211914e-01 9.000000000000000000e+00
2.076044797897338867e+00 3.785696506500244141e+00 -5.301316380500793457e-01 9.000000000000000000e+00
2.695745468139647993e+00 4.913695335388183594e+00 -4.903382062911986750e-01 9.000000000000000000e+00
3.855655431747436968e+00 7.022118091583251953e+00 -4.198390543460845947e-01 2.000000000000000000e+00
6.683599948883056641e+00 1.216245079040526988e+01 -2.422394007444381991e-01 2.000000000000000000e+00
1.077319502830504927e+00 1.953978419303894043e+00 -5.978720188140869141e-01 1.900000000000000000e+01
1.231474161148071067e+00 2.231732130050659180e+00 -5.884719491004943848e-01 1.100000000000000000e+01
1.414670109748840110e+00 2.562670469284058061e+00 -5.689924359321594238e-01 1.100000000000000000e+01
1.694646120071410911e+00 3.067314863204956055e+00 -5.550295114517211914e-01 9.000000000000000000e+00
2.091167688369750977e+00 3.781901121139525923e+00 -5.306191444396972656e-01 9.000000000000000000e+00
2.706130266189575195e+00 4.892051219940186435e+00 -4.891180396080017090e-01 9.000000000000000000e+00
3.884013175964355025e+00 7.015605926513671875e+00 -4.202577173709868830e-01 2.000000000000000000e+00
6.731829166412354404e+00 1.214954185485840021e+01 -2.424488365650177002e-01 2.000000000000000000e+00
1.089765548706054910e+00 1.960336923599242942e+00 -6.009778380393981934e-01 2.000000000000000000e+01
1.237361907958983931e+00 2.224014043807982954e+00 -5.875721573829650879e-01 1.400000000000000000e+01
1.429335713386536089e+00 2.568009376525878906e+00 -5.712821483612060547e-01 1.000000000000000000e+01
1.696691036224365012e+00 3.045849561691284180e+00 -5.522136688232421875e-01 9.000000000000000000e+00
2.106289625167847124e+00 3.778046369552611861e+00 -5.311065912246704102e-01 9.000000000000000000e+00
2.713485240936278853e+00 4.865174770355224609e+00 -4.873749017715454102e-01 9.000000000000000000e+00
3.920160055160522017e+00 7.022933006286621094e+00 -4.215137958526610773e-01 2.000000000000000000e+00
6.758593559265136719e+00 1.209803676605224965e+01 -2.418903559446335116e-01 2.000000000000000000e+00
1.093768119812011941e+00 1.951465368270874023e+00 -5.994248986244201660e-01 1.900000000000000000e+01
1.244164347648621050e+00 2.217981576919556108e+00 -5.871222615242004395e-01 1.200000000000000000e+01
1.434447884559630904e+00 2.556156158447266069e+00 -5.697556734085083008e-01 1.000000000000000000e+01
1.708279967308043990e+00 3.041630744934082031e+00 -5.525265336036682129e-01 9.000000000000000000e+00
2.121409893035889116e+00 3.774131774902344194e+00 -5.315940976142883301e-01 9.000000000000000000e+00
2.745099782943726030e+00 4.881723403930664062e+00 -4.899895787239075262e-01 8.000000000000000000e+00
3.923100709915161133e+00 6.970913887023925781e+00 -4.192110002040863037e-01 2.000000000000000000e+00
6.824335098266601562e+00 1.211618709564208984e+01 -2.427280694246292114e-01 2.000000000000000000e+00
1.105666756629944070e+00 1.955852031707763894e+00 -6.020131111145019531e-01 1.800000000000000000e+01
1.249406456947327104e+00 2.208318471908568892e+00 -5.857725739479064941e-01 1.200000000000000000e+01
1.447675228118896040e+00 2.557715654373168945e+00 -5.712821483612060547e-01 1.000000000000000000e+01
1.723311066627501997e+00 3.042224407196044922e+00 -5.537779927253723145e-01 9.000000000000000000e+00
2.125438451766968218e+00 3.749062299728393999e+00 -5.291566848754882812e-01 9.000000000000000000e+00
2.762973785400391069e+00 4.871629238128662109e+00 -4.899895787239075262e-01 8.000000000000000000e+00
3.956511497497559038e+00 6.970384120941162109e+00 -4.200483858585358221e-01 2.000000000000000000e+00
6.823261260986328125e+00 1.201111221313476918e+01 -2.411224544048309049e-01 2.000000000000000000e+00
1.115356922149657981e+00 1.957015872001647949e+00 -6.035659909248352051e-01 2.100000000000000000e+01
1.260969400405884011e+00 2.210714578628540039e+00 -5.875721573829650879e-01 1.100000000000000000e+01
1.453675508499145952e+00 2.547531127929687944e+00 -5.701372623443603516e-01 1.100000000000000000e+01
1.735879182815551980e+00 3.039621114730834961e+00 -5.544037222862243652e-01 9.000000000000000000e+00
2.136542081832886186e+00 3.738173484802246094e+00 -5.286692380905151367e-01 9.000000000000000000e+00
2.780951023101807085e+00 4.863684654235839844e+00 -4.901638925075531006e-01 8.000000000000000000e+00
3.972882747650146040e+00 6.942662715911865234e+00 -4.192110002040863037e-01 2.000000000000000000e+00
6.869121551513671875e+00 1.199416255950927912e+01 -2.412620633840560913e-01 2.000000000000000000e+00
1.115444421768188032e+00 1.941385269165039062e+00 -5.999425649642944336e-01 1.900000000000000000e+01
1.274507045745850053e+00 2.216435670852661133e+00 -5.902715921401977539e-01 1.100000000000000000e+01
1.460601210594177024e+00 2.539037942886352983e+00 -5.693740248680114746e-01 1.100000000000000000e+01
1.746478915214539018e+00 3.033543109893798828e+00 -5.544037222862243652e-01 9.000000000000000000e+00
2.157506227493286133e+00 3.744452714920043945e+00 -5.306191444396972656e-01 9.000000000000000000e+00
2.792936563491820845e+00 4.845316886901854581e+00 -4.892923533916472834e-01 9.000000000000000000e+00
3.999089002609252930e+00 6.932212352752686435e+00 -4.194203615188599188e-01 2.000000000000000000e+00
6.910947322845458984e+00 1.197011184692382990e+01 -2.412620633840560913e-01 2.000000000000000000e+00
1.122214317321776900e+00 1.937479734420775923e+00 -5.999425649642944336e-01 1.900000000000000000e+01
1.280281424522399902e+00 2.208601474761962891e+00 -5.893717408180236816e-01 1.100000000000000000e+01
1.470440149307250977e+00 2.535622358322143999e+00 -5.697556734085083008e-01 1.100000000000000000e+01
1.753090977668761985e+00 3.020594358444213867e+00 -5.531522631645202637e-01 9.000000000000000000e+00
2.174551725387572798e+00 3.743765115737915039e+00 -5.315940976142883301e-01 1.000000000000000000e+01
2.801824808120727983e+00 4.821756839752197266e+00 -4.878978431224822998e-01 7.000000000000000000e+00
3.999165058135985884e+00 6.876773834228515625e+00 -4.169082343578339178e-01 2.000000000000000000e+00
6.930559158325195312e+00 1.190789318084716975e+01 -2.404941618442535123e-01 2.000000000000000000e+00
1.130242586135864036e+00 1.937281966209412065e+00 -6.009778380393981934e-01 1.600000000000000000e+01
1.277387619018554910e+00 2.187739610671997070e+00 -5.848727226257324219e-01 1.100000000000000000e+01
1.478398799896240012e+00 2.530990123748778853e+00 -5.697556734085083008e-01 1.000000000000000000e+01
1.762571811676024947e+00 3.015072107315063032e+00 -5.531522631645202637e-01 9.000000000000000000e+00
2.178282976150513139e+00 3.723207712173461914e+00 -5.296441912651062012e-01 9.000000000000000000e+00
2.826016664505004883e+00 4.828406333923339844e+00 -4.894666373729705811e-01 8.000000000000000000e+00
4.026806354522705078e+00 6.874516487121582031e+00 -4.175362586975098211e-01 1.000000000000000000e+00
6.992206096649169922e+00 1.192746353149414062e+01 -2.413318753242492953e-01 2.000000000000000000e+00
1.140915393829345925e+00 1.939985752105712891e+00 -6.030483841896057129e-01 1.700000000000000000e+01
1.290947318077086958e+00 2.193344116210937944e+00 -5.875721573829650879e-01 1.100000000000000000e+01
1.486228466033935991e+00 2.524122476577758789e+00 -5.693740248680114746e-01 1.100000000000000000e+01
1.775091409683227983e+00 3.012304782867432085e+00 -5.537779927253723145e-01 9.000000000000000000e+00
2.187232494354248047e+00 3.708741903305054155e+00 -5.286692380905151367e-01 9.000000000000000000e+00
2.852977752685546875e+00 4.835672378540039062e+00 -4.912097752094268799e-01 9.000000000000000000e+00
4.056871414184570312e+00 6.870737552642822266e+00 -4.181642830371857245e-01 2.000000000000000000e+00
7.009382247924804688e+00 1.186166572570800959e+01 -2.404941618442535123e-01 2.000000000000000000e+00
1.147032737731934038e+00 1.934129476547240989e+00 -6.025307178497314453e-01 1.400000000000000000e+01
1.298977613449096902e+00 2.188597679138184038e+00 -5.875721573829650879e-01 1.100000000000000000e+01
1.496472120285033958e+00 2.520346403121947798e+00 -5.697556734085083008e-01 1.100000000000000000e+01
1.788138389587401900e+00 3.009174823760985884e+00 -5.544037222862243652e-01 9.000000000000000000e+00
2.208928346633911133e+00 3.714349985122681108e+00 -5.306191444396972656e-01 1.000000000000000000e+01
2.860495328903197798e+00 4.808060169219970703e+00 -4.894666373729705811e-01 9.000000000000000000e+00
4.073852062225341797e+00 6.842093467712402344e+00 -4.173269271850585938e-01 2.000000000000000000e+00
7.042573928833007812e+00 1.181871700286865057e+01 -2.401451170444489081e-01 2.000000000000000000e+00
1.140891313552856001e+00 1.908557534217834029e+00 -5.958014130592346191e-01 1.100000000000000000e+01
1.312612175941467063e+00 2.194083929061890093e+00 -5.902715921401977539e-01 1.100000000000000000e+01
1.506268858909606934e+00 2.516791820526123047e+00 -5.701372623443603516e-01 1.100000000000000000e+01
1.792541265487670898e+00 2.992747068405150923e+00 -5.525265336036682129e-01 9.000000000000000000e+00
2.215756654739379883e+00 3.696400880813599077e+00 -5.291566848754882812e-01 1.000000000000000000e+01
2.881359815597534180e+00 4.804881095886229581e+00 -4.901638925075531006e-01 9.000000000000000000e+00
4.122377395629882812e+00 6.868931770324707031e+00 -4.198390543460845947e-01 2.000000000000000000e+00
7.104378700256347656e+00 1.182834720611572088e+01 -2.408432066440581998e-01 2.000000000000000000e+00
1.152197599411010964e+00 1.913038015365601030e+00 -5.983896255493164062e-01 1.000000000000000000e+01
1.316862821578979048e+00 2.184712171554564986e+00 -5.889218449592590332e-01 1.200000000000000000e+01
1.515620350837707964e+00 2.513464450836182085e+00 -5.705189108848571777e-01 1.100000000000000000e+01
1.802455663681030051e+00 2.986786127090454102e+00 -5.525265336036682129e-01 9.000000000000000000e+00
2.230054616928101030e+00 3.692431211471558061e+00 -5.296441912651062012e-01 9.000000000000000000e+00
2.886974334716796875e+00 4.778246402740479404e+00 -4.884207844734191895e-01 9.000000000000000000e+00
4.126530647277832031e+00 6.824460029602050781e+00 -4.179549515247344971e-01 2.000000000000000000e+00
7.112504959106445312e+00 1.175339794158936080e+01 -2.397960573434829989e-01 2.000000000000000000e+00
1.154858350753783958e+00 1.902398943901062012e+00 -5.963190793991088867e-01 9.000000000000000000e+00
1.321445345878601074e+00 2.175105810165404829e+00 -5.875721573829650879e-01 1.100000000000000000e+01
1.529483079910278098e+00 2.516546964645386186e+00 -5.724269747734069824e-01 1.100000000000000000e+01
1.816976666450500044e+00 2.987226963043212891e+00 -5.537779927253723145e-01 9.000000000000000000e+00
2.249123096466064009e+00 3.694798231124877930e+00 -5.311065912246704102e-01 9.000000000000000000e+00
2.909853458404541016e+00 4.778350353240966797e+00 -4.894666373729705811e-01 9.000000000000000000e+00
4.133697032928466797e+00 6.782726287841796875e+00 -4.162802100181580145e-01 2.000000000000000000e+00
7.153488636016845703e+00 1.172849941253661932e+01 -2.397960573434829989e-01 2.000000000000000000e+00
1.165192365646362083e+00 1.905151009559630904e+00 -5.983896255493164062e-01 8.000000000000000000e+00
1.326616287231445090e+00 2.167387485504149947e+00 -5.866723656654357910e-01 1.100000000000000000e+01
1.531668543815613015e+00 2.501415491104125977e+00 -5.701372623443603516e-01 9.000000000000000000e+00
1.824808478355407937e+00 2.977816820144652876e+00 -5.531522631645202637e-01 9.000000000000000000e+00
2.250985145568848100e+00 3.670397520065308061e+00 -5.286692380905151367e-01 9.000000000000000000e+00
2.935060262680054155e+00 4.783958911895751953e+00 -4.910354614257813055e-01 9.000000000000000000e+00
4.166616916656494141e+00 6.786001682281494141e+00 -4.173269271850585938e-01 2.000000000000000000e+00
7.192342281341552734e+00 1.170471286773681996e+01 -2.397960573434829989e-01 2.000000000000000000e+00
1.172849178314208984e+00 1.902716636657715066e+00 -5.989072918891906738e-01 7.000000000000000000e+00
1.335196971893310991e+00 2.164402246475220171e+00 -5.871222615242004395e-01 1.200000000000000000e+01
1.539359688758850098e+00 2.494382858276367188e+00 -5.697556734085083008e-01 1.000000000000000000e+01
1.841419935226439986e+00 2.981512784957886186e+00 -5.550295114517211914e-01 9.000000000000000000e+00
2.275264263153076172e+00 3.681092023849486861e+00 -5.313503146171569824e-01 1.000000000000000000e+01
2.945454597473144975e+00 4.763516902923583984e+00 -4.899895787239075262e-01 8.000000000000000000e+00
4.179769515991210938e+00 6.754432201385498047e+00 -4.162802100181580145e-01 2.000000000000000000e+00
7.216309547424316406e+00 1.165233421325683949e+01 -2.392375916242598932e-01 2.000000000000000000e+00
1.164192318916321023e+00 1.873996376991271973e+00 -5.911427140235900879e-01 8.000000000000000000e+00
1.347888588905334029e+00 2.168003082275391069e+00 -5.893717408180236816e-01 1.100000000000000000e+01
1.553241729736327903e+00 2.497329950332642046e+00 -5.716637372970581055e-01 1.100000000000000000e+01
1.845552921295166016e+00 2.965004682540893999e+00 -5.531522631645202637e-01 9.000000000000000000e+00
2.284950971603393999e+00 3.668072700500487837e+00 -5.306191444396972656e-01 9.000000000000000000e+00
2.956795692443848100e+00 4.744751453399658203e+00 -4.891180396080017090e-01 9.000000000000000000e+00
4.218118190765380859e+00 6.763526439666748047e+00 -4.177455902099608820e-01 2.000000000000000000e+00
7.273880481719970703e+00 1.165421676635742010e+01 -2.397960573434829989e-01 2.000000000000000000e+00
1.171751856803894043e+00 1.871558666229248047e+00 -5.916603207588195801e-01 9.000000000000000000e+00
1.357517480850219949e+00 2.166587591171265093e+00 -5.902715921401977539e-01 1.000000000000000000e+01
1.558821558952331987e+00 2.486902475357056108e+00 -5.705189108848571777e-01 1.100000000000000000e+01
1.853792071342468040e+00 2.955197811126708984e+00 -5.525265336036682129e-01 9.000000000000000000e+00
2.301963090896606001e+00 3.666799545288085938e+00 -5.315940976142883301e-01 9.000000000000000000e+00
2.974399566650391069e+00 4.736088752746582031e+00 -4.892923533916472834e-01 9.000000000000000000e+00
4.254455089569091797e+00 6.769053459167479581e+00 -4.190016686916350763e-01 2.000000000000000000e+00
7.301740646362304688e+00 1.160844230651854936e+01 -2.393772006034851074e-01 2.000000000000000000e+00
1.182728171348571999e+00 1.873785972595215066e+00 -5.937308669090270996e-01 1.100000000000000000e+01
1.361286401748657005e+00 2.155007123947143999e+00 -5.884719491004943848e-01 1.000000000000000000e+01
1.571072340011596902e+00 2.486151218414307085e+00 -5.716637372970581055e-01 1.200000000000000000e+01
1.866722583770751953e+00 2.951722383499145952e+00 -5.531522631645202637e-01 9.000000000000000000e+00
2.309017181396483931e+00 3.648273468017578125e+00 -5.301316380500793457e-01 9.000000000000000000e+00
3.001330614089965820e+00 4.740305423736572266e+00 -4.908611476421356201e-01 9.000000000000000000e+00
4.251442432403563565e+00 6.709550380706787109e+00 -4.162802100181580145e-01 2.000000000000000000e+00
7.365656852722167969e+00 1.161537742614745916e+01 -2.400753051042557040e-01 2.000000000000000000e+00
1.200667023658751997e+00 1.887576341629028098e+00 -5.994248986244201660e-01 1.900000000000000000e+01
1.363568067550658958e+00 2.142022848129272017e+00 -5.862224698066711426e-01 1.100000000000000000e+01
1.575522780418395996e+00 2.474028110504149947e+00 -5.701372623443603516e-01 1.100000000000000000e+01
1.881261348724365012e+00 2.951851606369018999e+00 -5.544037222862243652e-01 9.000000000000000000e+00
2.313198328018188032e+00 3.626802206039429155e+00 -5.281817317008972168e-01 9.000000000000000000e+00
3.022145748138428178e+00 4.736518383026123047e+00 -4.915584027767180841e-01 9.000000000000000000e+00
4.285585880279541016e+00 6.711502552032470703e+00 -4.173269271850585938e-01 2.000000000000000000e+00
7.397542953491210938e+00 1.157611560821533025e+01 -2.397960573434829989e-01 2.000000000000000000e+00
1.207962036132812944e+00 1.885210990905761941e+00 -5.999425649642944336e-01 1.900000000000000000e+01
1.376975297927856001e+00 2.147331714630126953e+00 -5.889218449592590332e-01 1.100000000000000000e+01
1.579478144645690918e+00 2.462180137634276900e+00 -5.686107873916625977e-01 1.100000000000000000e+01
1.893174052238463911e+00 2.948921680450439009e+00 -5.550295114517211914e-01 9.000000000000000000e+00
2.338088750839232954e+00 3.639152526855469194e+00 -5.311065912246704102e-01 9.000000000000000000e+00
3.038913249969481978e+00 4.728146553039550781e+00 -4.917326867580413818e-01 9.000000000000000000e+00
4.303496837615966797e+00 6.690535068511962891e+00 -4.169082343578339178e-01 2.000000000000000000e+00
7.435889720916748047e+00 1.155152130126952947e+01 -2.397960573434829989e-01 2.000000000000000000e+00
1.212439537048340066e+00 1.877737045288085938e+00 -5.989072918891906738e-01 1.900000000000000000e+01
1.388693094253540039e+00 2.149059295654296875e+00 -5.907214879989624023e-01 1.100000000000000000e+01
1.593392133712768999e+00 2.464895486831665039e+00 -5.705189108848571777e-01 1.000000000000000000e+01
1.897018313407897949e+00 2.932343721389770952e+00 -5.531522631645202637e-01 9.000000000000000000e+00
2.346462011337279829e+00 3.624303579330443892e+00 -5.301316380500793457e-01 1.000000000000000000e+01
3.036986589431763139e+00 4.689081192016601562e+00 -4.887694120407103937e-01 9.000000000000000000e+00
4.344205856323242188e+00 6.702288150787354404e+00 -4.185829758644104004e-01 3.000000000000000000e+00
7.458755016326904297e+00 1.149865245819091975e+01 -2.392375916242598932e-01 2.000000000000000000e+00
1.213067531585692915e+00 1.865820646286010964e+00 -5.963190793991088867e-01 2.200000000000000000e+01
1.395437717437743919e+00 2.144685983657836914e+00 -5.907214879989624023e-01 1.100000000000000000e+01
1.598986029624938965e+00 2.456586599349976030e+00 -5.697556734085083008e-01 1.000000000000000000e+01
1.904064774513245073e+00 2.923059225082397017e+00 -5.525265336036682129e-01 9.000000000000000000e+00
2.360004663467406782e+00 3.620239973068236861e+00 -5.306191444396972656e-01 9.000000000000000000e+00
3.065851211547852007e+00 4.701212406158447266e+00 -4.910354614257813055e-01 8.000000000000000000e+00
4.349958419799804688e+00 6.665191173553466797e+00 -4.171175658702849787e-01 4.000000000000000000e+00
7.494842529296875000e+00 1.147516345977783025e+01 -2.392375916242598932e-01 2.000000000000000000e+00
1.225924968719481978e+00 1.871270656585692915e+00 -5.994248986244201660e-01 2.100000000000000000e+01
1.394367694854736106e+00 2.126764297485352007e+00 -5.871222615242004395e-01 1.100000000000000000e+01
1.615088462829590066e+00 2.462481737136840820e+00 -5.724269747734069824e-01 1.100000000000000000e+01
1.916424512863158958e+00 2.919697999954224077e+00 -5.531522631645202637e-01 9.000000000000000000e+00
2.363908529281616211e+00 3.598706722259521040e+00 -5.286692380905151367e-01 9.000000000000000000e+00
3.081148624420166016e+00 4.688817024230957031e+00 -4.908611476421356201e-01 9.000000000000000000e+00
4.380879402160645419e+00 6.661647796630859375e+00 -4.178502857685089111e-01 4.000000000000000000e+00
7.534852504730224609e+00 1.144893169403075994e+01 -2.392375916242598932e-01 2.000000000000000000e+00
1.232449531555176003e+00 1.866979956626892090e+00 -5.994248986244201660e-01 2.200000000000000000e+01
1.401782989501952903e+00 2.121884107589722124e+00 -5.871222615242004395e-01 1.200000000000000000e+01
1.619344472885132058e+00 2.450277566909790039e+00 -5.709004998207092285e-01 1.100000000000000000e+01
1.924425005912780984e+00 2.909695386886597124e+00 -5.525265336036682129e-01 9.000000000000000000e+00
2.372073173522949219e+00 3.583811759948730025e+00 -5.276942849159240723e-01 9.000000000000000000e+00
3.109596490859984907e+00 4.696306705474854404e+00 -4.927785694599152166e-01 8.000000000000000000e+00
4.388660907745361328e+00 6.623006343841552734e+00 -4.163848757743834894e-01 4.000000000000000000e+00
7.561508655548095703e+00 1.140256118774414062e+01 -2.388187348842621127e-01 2.000000000000000000e+00
1.238958954811095969e+00 1.862666487693787065e+00 -5.994248986244201660e-01 2.100000000000000000e+01
1.409181237220763938e+00 2.116977930068970171e+00 -5.871222615242004395e-01 1.100000000000000000e+01
1.624623179435729980e+00 2.439707756042480025e+00 -5.697556734085083008e-01 1.100000000000000000e+01
1.947715401649475098e+00 2.922685861587523970e+00 -5.562809705734252930e-01 9.000000000000000000e+00
2.395582914352416992e+00 3.592025041580200195e+00 -5.301316380500793457e-01 9.000000000000000000e+00
3.120441913604735884e+00 4.677136421203613281e+00 -4.919070005416870117e-01 9.000000000000000000e+00
4.413970947265625000e+00 6.610969066619873047e+00 -4.165942072868347168e-01 6.000000000000000000e+00
7.605709075927734375e+00 1.138274765014648082e+01 -2.389583438634871881e-01 2.000000000000000000e+00
1.241151213645935059e+00 1.851911306381226030e+00 -5.973543524742126465e-01 2.200000000000000000e+01
1.426331639289855957e+00 2.126611948013306108e+00 -5.911713838577270508e-01 1.200000000000000000e+01
1.630941748619080034e+00 2.430761337280272993e+00 -5.689924359321594238e-01 1.100000000000000000e+01
1.946893811225890891e+00 2.899469375610352007e+00 -5.531522631645202637e-01 9.000000000000000000e+00
2.408106803894042969e+00 3.583640813827515093e+00 -5.301316380500793457e-01 9.000000000000000000e+00
3.132302999496459961e+00 4.659601688385009766e+00 -4.912097752094268799e-01 8.000000000000000000e+00
4.437020778656005859e+00 6.595520973205566406e+00 -4.165942072868347168e-01 6.000000000000000000e+00
7.616360187530517578e+00 1.131300067901610973e+01 -2.380508184432983121e-01 2.000000000000000000e+00
1.249770283699036089e+00 1.850769639015197976e+00 -5.983896255493164062e-01 2.200000000000000000e+01
1.431563973426819070e+00 2.118390798568726030e+00 -5.902715921401977539e-01 1.300000000000000000e+01
1.640516281127929910e+00 2.426679849624633789e+00 -5.693740248680114746e-01 1.300000000000000000e+01
1.955896139144897017e+00 2.891019821166992188e+00 -5.528393983840942383e-01 8.000000000000000000e+00
2.427278757095336914e+00 3.585075855255126953e+00 -5.315940976142883301e-01 9.000000000000000000e+00
3.154135465621947798e+00 4.656887531280517578e+00 -4.920813143253325861e-01 9.000000000000000000e+00
4.479066848754882812e+00 6.608098030090332031e+00 -4.183736443519591730e-01 5.000000000000000000e+00
7.678254127502441406e+00 1.131944370269775035e+01 -2.387489229440689087e-01 2.000000000000000000e+00
1.260569810867310014e+00 1.852784752845763938e+00 -6.004601716995239258e-01 2.200000000000000000e+01
1.434562802314758079e+00 2.106937646865845171e+00 -5.884719491004943848e-01 1.200000000000000000e+01
1.657818675041198953e+00 2.433919668197631836e+00 -5.724269747734069824e-01 1.200000000000000000e+01
1.969313502311706987e+00 2.889071464538574219e+00 -5.537779927253723145e-01 9.000000000000000000e+00
2.437541007995605025e+00 3.573301553726195845e+00 -5.311065912246704102e-01 9.000000000000000000e+00
3.171494722366333008e+00 4.647494792938232422e+00 -4.922556281089783270e-01 8.000000000000000000e+00
4.508863925933837891e+00 6.602319240570068359e+00 -4.190016686916350763e-01 5.000000000000000000e+00
7.724489688873291016e+00 1.130247879028319957e+01 -2.389583438634871881e-01 2.000000000000000000e+00
1.273583173751831055e+00 1.857933759689331055e+00 -6.035659909248352051e-01 2.200000000000000000e+01
1.445215821266174094e+00 2.106738090515137163e+00 -5.898216366767883301e-01 1.300000000000000000e+01
1.659639358520508035e+00 2.418405532836914062e+00 -5.701372623443603516e-01 1.100000000000000000e+01
1.979386329650878906e+00 2.882179737091064009e+00 -5.537779927253723145e-01 9.000000000000000000e+00
2.443253040313721147e+00 3.554955244064331055e+00 -5.296441912651062012e-01 9.000000000000000000e+00
3.183183193206787109e+00 4.629828929901123047e+00 -4.915584027767180841e-01 6.000000000000000000e+00
4.533015251159667969e+00 6.588185310363770419e+00 -4.191063344478607178e-01 4.000000000000000000e+00
7.741214275360107422e+00 1.124250602722167969e+01 -2.382602542638778964e-01 2.000000000000000000e+00
1.273473858833312988e+00 1.843939185142517090e+00 -6.004601716995239258e-01 2.200000000000000000e+01
1.453668832778931108e+00 2.103283643722534180e+00 -5.902715921401977539e-01 1.500000000000000000e+01
1.666954517364501953e+00 2.410982608795166016e+00 -5.697556734085083008e-01 1.000000000000000000e+01
1.991682887077331987e+00 2.878501653671265093e+00 -5.544037222862243652e-01 9.000000000000000000e+00
2.465817928314208984e+00 3.561093330383300781e+00 -5.318378210067749023e-01 9.000000000000000000e+00
3.195921421051024947e+00 4.613775730133056641e+00 -4.910354614257813055e-01 6.000000000000000000e+00
4.573052406311035156e+00 6.596943855285645419e+00 -4.206764101982117254e-01 3.000000000000000000e+00
7.759893894195556641e+00 1.118584060668944957e+01 -2.376319617033005038e-01 2.000000000000000000e+00
1.271075844764709029e+00 1.826796650886536089e+00 -5.963190793991088867e-01 2.100000000000000000e+01
1.464342474937438965e+00 2.102994441986083984e+00 -5.916212797164916992e-01 1.400000000000000000e+01
1.674238085746764915e+00 2.403538227081298828e+00 -5.693740248680114746e-01 1.100000000000000000e+01
1.999459266662598100e+00 2.868290901184082031e+00 -5.537779927253723145e-01 9.000000000000000000e+00
2.480504989624022993e+00 3.555720567703247070e+00 -5.323252677917480469e-01 7.000000000000000000e+00
3.206305742263793945e+00 4.594422340393066406e+00 -4.901638925075531006e-01 6.000000000000000000e+00
4.618924140930175781e+00 6.613689899444580078e+00 -4.227698445320128839e-01 2.000000000000000000e+00
7.812639236450195312e+00 1.117835426330566051e+01 -2.380508184432983121e-01 2.000000000000000000e+00
1.280771493911742942e+00 1.827094316482543945e+00 -5.978720188140869141e-01 2.300000000000000000e+01
1.468317031860352007e+00 2.093084096908568892e+00 -5.902715921401977539e-01 1.500000000000000000e+01
1.684873342514038086e+00 2.400893449783325195e+00 -5.701372623443603516e-01 1.100000000000000000e+01
2.011729955673218218e+00 2.864526987075806108e+00 -5.544037222862243652e-01 9.000000000000000000e+00
2.494043111801147017e+00 3.548664331436156782e+00 -5.325690507888793945e-01 9.000000000000000000e+00
3.231491088867187944e+00 4.596241474151611328e+00 -4.915584027767180841e-01 9.000000000000000000e+00
4.641982078552246094e+00 6.597526550292968750e+00 -4.227698445320128839e-01 2.000000000000000000e+00
7.828586101531982422e+00 1.111831378936767933e+01 -2.373527288436889926e-01 2.000000000000000000e+00
1.296056628227234109e+00 1.835236549377440962e+00 -6.020131111145019531e-01 2.300000000000000000e+01
1.472240090370178001e+00 2.083171606063843218e+00 -5.889218449592590332e-01 1.300000000000000000e+01
1.700043916702270952e+00 2.404615879058837891e+00 -5.724269747734069824e-01 1.200000000000000000e+01
2.019434928894042969e+00 2.854262113571166992e+00 -5.537779927253723145e-01 9.000000000000000000e+00
2.504120826721190962e+00 3.536696672439575195e+00 -5.320815443992614746e-01 9.000000000000000000e+00
3.241757392883300781e+00 4.576804161071777344e+00 -4.906868338584899902e-01 8.000000000000000000e+00
4.678843021392822266e+00 6.600835800170898438e+00 -4.240259230136870783e-01 2.000000000000000000e+00
7.871976375579833984e+00 1.109744358062743963e+01 -2.374923527240752896e-01 2.000000000000000000e+00
1.303254961967468040e+00 1.832502961158751997e+00 -6.025307178497314453e-01 2.200000000000000000e+01
1.480270028114319070e+00 2.079865694046020952e+00 -5.893717408180236816e-01 1.500000000000000000e+01
1.709147214889525923e+00 2.400564432144165039e+00 -5.728086233139038086e-01 1.200000000000000000e+01
2.033473968505858931e+00 2.853985071182250977e+00 -5.550295114517211914e-01 9.000000000000000000e+00
2.518140077590941939e+00 3.531605958938599077e+00 -5.325690507888793945e-01 9.000000000000000000e+00
3.271957635879517046e+00 4.587115287780761719e+00 -4.929528832435607910e-01 8.000000000000000000e+00
4.712310314178466797e+00 6.601540088653563565e+00 -4.250726401805878241e-01 1.000000000000000000e+00
7.908733367919921875e+00 1.107127761840819957e+01 -2.374923527240752896e-01 2.000000000000000000e+00
1.301767826080322044e+00 1.816949844360352007e+00 -5.989072918891906738e-01 2.000000000000000000e+01
1.490927696228026900e+00 2.079437255859375000e+00 -5.907214879989624023e-01 1.400000000000000000e+01
1.715227842330933061e+00 2.391393184661864790e+00 -5.720453858375549316e-01 1.000000000000000000e+01
2.043423652648925781e+00 2.846869468688964844e+00 -5.550295114517211914e-01 9.000000000000000000e+00
2.522345781326293945e+00 3.511508703231811968e+00 -5.308628678321838379e-01 7.000000000000000000e+00
3.284461736679077148e+00 4.570812225341796875e+00 -4.924299418926239014e-01 8.000000000000000000e+00
4.712004184722900391e+00 6.552619934082031250e+00 -4.229792058467864990e-01 2.000000000000000000e+00
7.947331428527832031e+00 1.104360389709473012e+01 -2.374923527240752896e-01 2.000000000000000000e+00
1.304710507392883079e+00 1.807695269584655984e+00 -5.973543524742126465e-01 2.100000000000000000e+01
1.501600265502929910e+00 2.078959465026855025e+00 -5.920711755752563477e-01 1.500000000000000000e+01
1.721265316009521040e+00 2.382208824157714844e+00 -5.712821483612060547e-01 1.000000000000000000e+01
2.055663585662841797e+00 2.842920780181885210e+00 -5.556552410125732422e-01 9.000000000000000000e+00
2.535751581192017046e+00 3.504290819168090820e+00 -5.311065912246704102e-01 9.000000000000000000e+00
3.295723676681518999e+00 4.552863597869873047e+00 -4.917326867580413818e-01 8.000000000000000000e+00
4.760625839233398438e+00 6.571715831756591797e+00 -4.252819716930388849e-01 1.000000000000000000e+00
7.969400405883789062e+00 1.099312877655028942e+01 -2.370036840438843051e-01 2.000000000000000000e+00
1.306468248367310014e+00 1.796880006790160911e+00 -5.952838063240051270e-01 1.900000000000000000e+01
1.507701516151428001e+00 2.072129487991333008e+00 -5.916212797164916992e-01 1.400000000000000000e+01
1.733036398887634055e+00 2.380947828292847124e+00 -5.724269747734069824e-01 1.100000000000000000e+01
2.053944349288939986e+00 2.819760799407958984e+00 -5.525265336036682129e-01 9.000000000000000000e+00
2.562000274658203125e+00 3.514667749404906782e+00 -5.340314507484436035e-01 9.000000000000000000e+00
3.312769889831542969e+00 4.542941570281982422e+00 -4.919070005416870117e-01 8.000000000000000000e+00
4.785891056060791016e+00 6.558285236358642578e+00 -4.254913330078125000e-01 2.000000000000000000e+00
8.017159461975097656e+00 1.097816276550292969e+01 -2.372829169034957886e-01 2.000000000000000000e+00
1.323006153106689009e+00 1.806335449218750000e+00 -5.999425649642944336e-01 2.000000000000000000e+01
1.505709171295166016e+00 2.054280042648314986e+00 -5.880220532417297363e-01 1.400000000000000000e+01
1.741336822509766069e+00 2.374883890151977983e+00 -5.724269747734069824e-01 1.100000000000000000e+01
2.068449020385742188e+00 2.818944454193114790e+00 -5.537779927253723145e-01 9.000000000000000000e+00
2.563678741455078125e+00 3.491302728652954102e+00 -5.318378210067749023e-01 9.000000000000000000e+00
3.329787254333496094e+00 4.532956123352050781e+00 -4.920813143253325861e-01 8.000000000000000000e+00
4.822950363159179688e+00 6.560850143432617188e+00 -4.267473816871643066e-01 1.000000000000000000e+00
8.067281723022460938e+00 1.096621894836425959e+01 -2.376319617033005038e-01 2.000000000000000000e+00
1.332744240760803001e+00 1.806369900703429954e+00 -6.014954447746276855e-01 2.100000000000000000e+01
1.512870788574218972e+00 2.049011468887329102e+00 -5.880220532417297363e-01 1.300000000000000000e+01
1.749616146087646040e+00 2.368790864944458008e+00 -5.724269747734069824e-01 1.100000000000000000e+01
2.080624818801879883e+00 2.814884185791016069e+00 -5.544037222862243652e-01 9.000000000000000000e+00
2.573489189147949219e+00 3.479140758514403853e+00 -5.313503146171569824e-01 7.000000000000000000e+00
3.347959995269774947e+00 4.524508476257324219e+00 -4.924299418926239014e-01 8.000000000000000000e+00
4.845822334289550781e+00 6.543974876403808594e+00 -4.267473816871643066e-01 2.000000000000000000e+00
8.095987319946289062e+00 1.092513847351074041e+01 -2.373527288436889926e-01 2.000000000000000000e+00
1.333279728889465110e+00 1.793954133987426980e+00 -5.989072918891906738e-01 2.000000000000000000e+01
1.524665832519531028e+00 2.049972772598267046e+00 -5.898216366767883301e-01 1.400000000000000000e+01
1.749670743942260964e+00 2.351643562316894975e+00 -5.697556734085083008e-01 1.100000000000000000e+01
2.092797279357910156e+00 2.810773134231566939e+00 -5.550295114517211914e-01 9.000000000000000000e+00
2.583245754241942915e+00 3.466952800750731978e+00 -5.308628678321838379e-01 7.000000000000000000e+00
3.363733053207397017e+00 4.512794017791748047e+00 -4.924299418926239014e-01 8.000000000000000000e+00
4.875800609588623047e+00 6.536625385284423828e+00 -4.273754060268402100e-01 1.000000000000000000e+00
8.098187446594238281e+00 1.084873771667479936e+01 -2.363055795431137085e-01 2.000000000000000000e+00
1.338375926017761008e+00 1.787742614746093972e+00 -5.983896255493164062e-01 2.200000000000000000e+01
1.534149169921875000e+00 2.047757387161254883e+00 -5.907214879989624023e-01 1.400000000000000000e+01
1.770820260047913042e+00 2.362802743911743164e+00 -5.739534497261047363e-01 1.100000000000000000e+01
2.102596044540404829e+00 2.803450822830200195e+00 -5.550295114517211914e-01 9.000000000000000000e+00
2.603673219680786133e+00 3.469027996063231978e+00 -5.325690507888793945e-01 9.000000000000000000e+00
3.378268957138061968e+00 4.499432086944580078e+00 -4.922556281089783270e-01 9.000000000000000000e+00
4.898588180541992188e+00 6.519566059112548828e+00 -4.273754060268402100e-01 1.000000000000000000e+00
8.164850234985351562e+00 1.085876274108887074e+01 -2.371432930231094083e-01 2.000000000000000000e+00
1.344608187675476074e+00 1.783059954643249956e+00 -5.983896255493164062e-01 2.100000000000000000e+01
1.543635487556457964e+00 2.045500755310059038e+00 -5.916212797164916992e-01 1.300000000000000000e+01
1.771959900856018066e+00 2.347205638885498047e+00 -5.716637372970581055e-01 1.100000000000000000e+01
2.098080158233643022e+00 2.777180433273314986e+00 -5.512750744819641113e-01 9.000000000000000000e+00
2.621752262115478960e+00 3.467835903167725053e+00 -5.337877273559570312e-01 7.000000000000000000e+00
3.390348911285399947e+00 4.482844829559326172e+00 -4.917326867580413818e-01 9.000000000000000000e+00
4.926136970520020419e+00 6.508797168731688565e+00 -4.277940988540648859e-01 2.000000000000000000e+00
8.173727989196777344e+00 1.079193782806395951e+01 -2.363055795431137085e-01 2.000000000000000000e+00
1.355498075485229048e+00 1.784509062767029031e+00 -6.004601716995239258e-01 2.100000000000000000e+01
1.546049118041991965e+00 2.033894538879394975e+00 -5.898216366767883301e-01 1.400000000000000000e+01
1.784895777702331987e+00 2.347257137298583984e+00 -5.731902122497558594e-01 1.100000000000000000e+01
2.119723796844481978e+00 2.785559654235839844e+00 -5.544037222862243652e-01 9.000000000000000000e+00
2.619409322738647017e+00 3.439711570739746094e+00 -5.308628678321838379e-01 7.000000000000000000e+00
3.419257402420043945e+00 4.488416671752929688e+00 -4.936501383781433105e-01 9.000000000000000000e+00
4.924609661102294922e+00 6.459795475006104404e+00 -4.257006645202637274e-01 2.000000000000000000e+00
8.225904464721679688e+00 1.078241920471191051e+01 -2.367244362831116000e-01 2.000000000000000000e+00
1.363755583763123003e+00 1.783073186874390093e+00 -6.014954447746276855e-01 2.200000000000000000e+01
1.552785277366637962e+00 2.028756380081177202e+00 -5.898216366767883301e-01 1.300000000000000000e+01
1.789089202880858931e+00 2.336648941040039062e+00 -5.720453858375549316e-01 1.200000000000000000e+01
2.124143600463867188e+00 2.772243261337279829e+00 -5.531522631645202637e-01 9.000000000000000000e+00
2.629593610763549805e+00 3.429430961608887163e+00 -5.306191444396972656e-01 9.000000000000000000e+00
3.430484771728516069e+00 4.472311019897460938e+00 -4.931271970272064209e-01 8.000000000000000000e+00
4.965462207794188565e+00 6.468778133392333984e+00 -4.273754060268402100e-01 1.000000000000000000e+00
8.237251281738281250e+00 1.072336483001708984e+01 -2.360263466835021973e-01 2.000000000000000000e+00
1.366434454917907937e+00 1.773710727691649947e+00 -5.999425649642944336e-01 1.900000000000000000e+01
1.563426971435547097e+00 2.027953863143920898e+00 -5.911713838577270508e-01 1.300000000000000000e+01
1.797234773635864036e+00 2.330389499664307085e+00 -5.720453858375549316e-01 1.100000000000000000e+01
2.141049146652222124e+00 2.774194478988647017e+00 -5.550295114517211914e-01 9.000000000000000000e+00
2.650042295455933061e+00 3.431228637695312944e+00 -5.323252677917480469e-01 7.000000000000000000e+00
3.447293281555175781e+00 4.461885452270507812e+00 -4.933015108108521063e-01 9.000000000000000000e+00
4.975795745849609375e+00 6.435605525970458984e+00 -4.263286888599395752e-01 1.000000000000000000e+00
8.304001808166503906e+00 1.073250389099120916e+01 -2.368640601634978970e-01 2.000000000000000000e+00
1.361958742141724077e+00 1.755193948745727983e+00 -5.952838063240051270e-01 2.200000000000000000e+01
1.574081897735595925e+00 2.027101516723632812e+00 -5.925210714340209961e-01 1.300000000000000000e+01
1.808971524238585982e+00 2.328753232955933061e+00 -5.731902122497558594e-01 1.100000000000000000e+01
2.148295164108275923e+00 2.763584852218627930e+00 -5.544037222862243652e-01 9.000000000000000000e+00
2.664441108703612837e+00 3.425091028213500977e+00 -5.328127741813659668e-01 9.000000000000000000e+00
3.462847232818603960e+00 4.449825286865234375e+00 -4.933015108108521063e-01 9.000000000000000000e+00
5.015409946441650391e+00 6.440258502960205078e+00 -4.277940988540648859e-01 2.000000000000000000e+00
8.334038734436035156e+00 1.069398784637450994e+01 -2.366546243429183960e-01 2.000000000000000000e+00
1.375214934349060059e+00 1.759561777114867942e+00 -5.983896255493164062e-01 2.200000000000000000e+01
1.582348823547363059e+00 2.023129701614379883e+00 -5.929709672927856445e-01 1.200000000000000000e+01
1.819508910179137962e+00 2.325516939163208008e+00 -5.739534497261047363e-01 1.100000000000000000e+01
2.157928705215454102e+00 2.756068944931029829e+00 -5.544037222862243652e-01 9.000000000000000000e+00
2.680053472518920898e+00 3.420457124710083008e+00 -5.335440039634704590e-01 9.000000000000000000e+00
3.470984220504761186e+00 4.428301811218261719e+00 -4.922556281089783270e-01 9.000000000000000000e+00
5.020603179931640625e+00 6.400711536407470703e+00 -4.263286888599395752e-01 1.000000000000000000e+00
8.344153404235839844e+00 1.063022613525390980e+01 -2.358867228031157892e-01 2.000000000000000000e+00
4.378255844116210938e+01 5.575775909423828125e+01 1.899576568603515980e+01 4.100000000000000000e+01
1.386128306388854980e+00 1.760822415351867898e+00 -6.004601716995239258e-01 2.100000000000000000e+01
1.577342033386230025e+00 2.002285957336425781e+00 -5.884719491004943848e-01 1.300000000000000000e+01
1.826400160789489968e+00 2.317609548568726030e+00 -5.735718607902526855e-01 1.200000000000000000e+01
2.166312932968140093e+00 2.746968507766724077e+00 -5.540908575057983398e-01 1.000000000000000000e+01
2.687057733535767046e+00 3.404848098754882812e+00 -5.325690507888793945e-01 9.000000000000000000e+00
3.492593526840209961e+00 4.423977851867675781e+00 -4.931271970272064209e-01 8.000000000000000000e+00
5.028057575225830078e+00 6.364340782165527344e+00 -4.250726401805878241e-01 2.000000000000000000e+00
8.403532981872558594e+00 1.062927055358887074e+01 -2.365150153636932095e-01 2.000000000000000000e+00
1.389865875244141069e+00 1.752945661544800027e+00 -5.994248986244201660e-01 2.100000000000000000e+01
1.585532903671265093e+00 1.998294353485106978e+00 -5.889218449592590332e-01 1.400000000000000000e+01
1.828376293182373047e+00 2.303531408309936968e+00 -5.716637372970581055e-01 1.100000000000000000e+01
2.179574251174927202e+00 2.744030237197875977e+00 -5.550295114517211914e-01 9.000000000000000000e+00
2.693985700607299805e+00 3.389231920242310014e+00 -5.315940976142883301e-01 9.000000000000000000e+00
3.510494947433472124e+00 4.414878368377686435e+00 -4.934758245944976807e-01 8.000000000000000000e+00
5.077601432800292969e+00 6.381133556365966797e+00 -4.273754060268402100e-01 1.000000000000000000e+00
8.413180351257324219e+00 1.056545734405517933e+01 -2.357470989227294922e-01 2.000000000000000000e+00
1.398387312889098899e+00 1.751102685928344949e+00 -6.004601716995239258e-01 2.100000000000000000e+01
