8.888115882873535156e-01 2.052939176559447798e+00 -5.994248986244201660e-01 1.800000000000000000e+01
1.016635179519653098e+00 2.345934391021728960e+00 -5.902715921401977539e-01 1.000000000000000000e+01
1.164411425590514915e+00 2.685650348663330078e+00 -5.689924359321594238e-01 1.100000000000000000e+01
1.392740488052367942e+00 3.209208726882935014e+00 -5.540908575057983398e-01 9.000000000000000000e+00
1.715501546859740989e+00 3.949152708053588867e+00 -5.286692380905151367e-01 9.000000000000000000e+00
2.232340097427368164e+00 5.136482238769531250e+00 -4.899895787239075262e-01 8.000000000000000000e+00
3.221158504486083984e+00 7.404623031616210938e+00 -4.231885373592377264e-01 1.000000000000000000e+00
5.232299327850341797e+00 1.201625442504882990e+01 -2.287661433219909946e-01 2.000000000000000000e+00
8.959722518920898438e-01 2.049824237823485884e+00 -5.994248986244201660e-01 1.800000000000000000e+01
1.020131111145019975e+00 2.331659317016602007e+00 -5.875721573829650879e-01 1.000000000000000000e+01
1.175353407859802024e+00 2.685166358947753906e+00 -5.697556734085083008e-01 1.100000000000000000e+01
1.404726982116698997e+00 3.206136941909790039e+00 -5.544037222862243652e-01 9.000000000000000000e+00
1.733262538909912109e+00 3.952230215072631836e+00 -5.298879146575927734e-01 9.000000000000000000e+00
2.254258871078491211e+00 5.137781143188476562e+00 -4.908611476421356201e-01 9.000000000000000000e+00
3.250198364257812944e+00 7.400649070739746094e+00 -4.236072301864624023e-01 2.000000000000000000e+00
5.689453601837158203e+00 1.294252014160156072e+01 -2.467770278453826904e-01 2.000000000000000000e+00
9.023421406745910645e-01 2.044916868209838867e+00 -5.989072918891906738e-01 1.600000000000000000e+01
1.018815875053405984e+00 2.306693077087401900e+00 -5.821733474731445312e-01 1.100000000000000000e+01
1.187893390655518022e+00 2.688230276107788086e+00 -5.712821483612060547e-01 1.000000000000000000e+01
1.411914706230164018e+00 3.192181348800659180e+00 -5.528393983840942383e-01 9.000000000000000000e+00
1.746244311332703081e+00 3.944340705871582031e+00 -5.296441912651062012e-01 9.000000000000000000e+00
2.265724182128905806e+00 5.115307807922363281e+00 -4.894666373729705811e-01 9.000000000000000000e+00
3.259821891784667969e+00 7.352741241455078125e+00 -4.215137958526610773e-01 2.000000000000000000e+00
5.747574329376220703e+00 1.295182609558104936e+01 -2.473355084657669067e-01 2.000000000000000000e+00
9.181213974952697754e-01 2.061166286468505859e+00 -6.046012639999389648e-01 1.700000000000000000e+01
1.031622886657715066e+00 2.313801765441894975e+00 -5.848727226257324219e-01 1.100000000000000000e+01
1.194070696830749956e+00 2.676895618438721147e+00 -5.697556734085083008e-01 9.000000000000000000e+00
1.423048853874206987e+00 3.187233448028564009e+00 -5.528393983840942383e-01 9.000000000000000000e+00
1.752712488174438032e+00 3.921910047531127930e+00 -5.274505019187927246e-01 9.000000000000000000e+00
2.278686761856079102e+00 5.096454620361328125e+00 -4.884207844734191895e-01 9.000000000000000000e+00
3.288731336593627930e+00 7.348609447479248047e+00 -4.219324886798859198e-01 2.000000000000000000e+00
5.792749881744384766e+00 1.293168449401854936e+01 -2.473355084657669067e-01 2.000000000000000000e+00
9.173884391784667969e-01 2.040329456329346147e+00 -5.994248986244201660e-01 1.600000000000000000e+01
1.041292786598206010e+00 2.313740730285644975e+00 -5.857725739479064941e-01 1.100000000000000000e+01
1.203407526016234907e+00 2.672711133956909180e+00 -5.697556734085083008e-01 1.000000000000000000e+01
1.439847230911255105e+00 3.194853067398070845e+00 -5.550295114517211914e-01 9.000000000000000000e+00
1.772105693817138894e+00 3.928434610366820845e+00 -5.291566848754882812e-01 1.000000000000000000e+01
2.303019523620605025e+00 5.102997303009033203e+00 -4.898152649402617853e-01 9.000000000000000000e+00
3.332451581954956055e+00 7.377128601074218750e+00 -4.242352545261383057e-01 2.000000000000000000e+00
5.837854385375976562e+00 1.291138553619384943e+01 -2.473355084657669067e-01 2.000000000000000000e+00
9.201591014862060547e-01 2.028479576110839844e+00 -5.968367457389831543e-01 1.500000000000000000e+01
1.052182316780090110e+00 2.317372560501099077e+00 -5.875721573829650879e-01 1.100000000000000000e+01
1.210639953613281028e+00 2.665130853652954102e+00 -5.689924359321594238e-01 1.000000000000000000e+01
1.447163343429564986e+00 3.182868003845214844e+00 -5.537779927253723145e-01 9.000000000000000000e+00
1.786767601966857910e+00 3.926150083541870117e+00 -5.296441912651062012e-01 9.000000000000000000e+00
2.314149856567382812e+00 5.082639217376708984e+00 -4.885950982570648193e-01 9.000000000000000000e+00
3.348614215850830078e+00 7.347863197326660156e+00 -4.231885373592377264e-01 2.000000000000000000e+00
5.867359638214111328e+00 1.286284542083740057e+01 -2.467770278453826904e-01 2.000000000000000000e+00
9.280384182929992676e-01 2.027011632919311968e+00 -5.973543524742126465e-01 1.600000000000000000e+01
1.058641314506530984e+00 2.310142517089844194e+00 -5.866723656654357910e-01 1.000000000000000000e+01
1.223208427429198997e+00 2.668027162551879883e+00 -5.705189108848571777e-01 1.000000000000000000e+01
1.453321576118469016e+00 3.167024850845336914e+00 -5.519008040428161621e-01 9.000000000000000000e+00
1.802118659019469993e+00 3.923496961593627930e+00 -5.301316380500793457e-01 9.000000000000000000e+00
2.339364767074584961e+00 5.090824127197265625e+00 -4.901638925075531006e-01 9.000000000000000000e+00
3.365896701812744141e+00 7.317984104156494141e+00 -4.221418201923369806e-01 2.000000000000000000e+00
5.925603389739990234e+00 1.287134933471680043e+01 -2.473355084657669067e-01 2.000000000000000000e+00
9.399702548980712891e-01 2.034281969070435014e+00 -6.004601716995239258e-01 1.600000000000000000e+01
1.063426733016967995e+00 2.299358129501343218e+00 -5.848727226257324219e-01 1.100000000000000000e+01
1.231689691543579102e+00 2.661959409713745117e+00 -5.701372623443603516e-01 9.000000000000000000e+00
1.467688202857970969e+00 3.169102430343627930e+00 -5.531522631645202637e-01 9.000000000000000000e+00
1.812463879585265891e+00 3.909978628158568892e+00 -5.291566848754882812e-01 1.000000000000000000e+01
2.354606151580810991e+00 5.077204704284667969e+00 -4.896409511566162109e-01 9.000000000000000000e+00
3.386375188827515093e+00 7.295320987701416016e+00 -4.215137958526610773e-01 2.000000000000000000e+00
5.946904659271240234e+00 1.279980850219726918e+01 -2.463581711053847989e-01 2.000000000000000000e+00
9.486984014511108398e-01 2.034490346908568892e+00 -6.014954447746276855e-01 1.600000000000000000e+01
1.069798111915587935e+00 2.292100191116333008e+00 -5.839729309082031250e-01 1.000000000000000000e+01
1.240143537521362083e+00 2.655864953994750977e+00 -5.697556734085083008e-01 1.000000000000000000e+01
1.478741526603698953e+00 3.163959980010985884e+00 -5.531522631645202637e-01 9.000000000000000000e+00
1.821054339408874956e+00 3.892839670181273970e+00 -5.276942849159240723e-01 9.000000000000000000e+00
2.376537084579468218e+00 5.077977180480957031e+00 -4.905125200748444159e-01 9.000000000000000000e+00
3.405042171478271040e+00 7.268986225128173828e+00 -4.206764101982117254e-01 2.000000000000000000e+00
5.981361389160156250e+00 1.275724506378174006e+01 -2.459393143653869906e-01 2.000000000000000000e+00
9.582619071006774902e-01 2.036410331726074219e+00 -6.030483841896057129e-01 1.900000000000000000e+01
1.082774639129638894e+00 2.298929929733275923e+00 -5.866723656654357910e-01 1.200000000000000000e+01
1.247732996940613015e+00 2.647967815399169922e+00 -5.689924359321594238e-01 1.000000000000000000e+01
1.491462111473083052e+00 3.162352085113524947e+00 -5.537779927253723145e-01 9.000000000000000000e+00
1.836326599121093972e+00 3.890049457550048828e+00 -5.281817317008972168e-01 9.000000000000000000e+00
2.390844821929932085e+00 5.062444210052490234e+00 -4.898152649402617853e-01 9.000000000000000000e+00
3.430394887924193892e+00 7.257056236267089844e+00 -4.206764101982117254e-01 2.000000000000000000e+00
6.020724773406982422e+00 1.272544288635254084e+01 -2.457298785448074063e-01 2.000000000000000000e+00
9.612212777137756348e-01 2.024327278137207031e+00 -6.004601716995239258e-01 1.700000000000000000e+01
1.092465758323668990e+00 2.298656463623046875e+00 -5.875721573829650879e-01 1.200000000000000000e+01
1.257811546325684038e+00 2.645369291305541992e+00 -5.693740248680114746e-01 9.000000000000000000e+00
1.504189372062683105e+00 3.160694122314453125e+00 -5.544037222862243652e-01 9.000000000000000000e+00
1.851601600646973100e+00 3.887200117111206055e+00 -5.286692380905151367e-01 9.000000000000000000e+00
2.404215812683105025e+00 5.045074939727783203e+00 -4.889437258243560791e-01 9.000000000000000000e+00
3.462584495544434038e+00 7.259459495544433594e+00 -4.215137958526610773e-01 2.000000000000000000e+00
6.070277214050292969e+00 1.271517658233642933e+01 -2.459393143653869906e-01 2.000000000000000000e+00
9.649427533149719238e-01 2.013990879058837891e+00 -5.983896255493164062e-01 1.500000000000000000e+01
1.098797678947448953e+00 2.291314840316772017e+00 -5.866723656654357910e-01 1.100000000000000000e+01
1.267887234687804954e+00 2.642732858657836914e+00 -5.697556734085083008e-01 1.000000000000000000e+01
1.508372426033020020e+00 3.141178369522095171e+00 -5.519008040428161621e-01 9.000000000000000000e+00
1.874618291854857954e+00 3.900393962860106978e+00 -5.313503146171569824e-01 1.000000000000000000e+01
2.419221639633179155e+00 5.031264781951904297e+00 -4.884207844734191895e-01 9.000000000000000000e+00
3.487903594970703125e+00 7.247328281402587891e+00 -4.215137958526610773e-01 2.000000000000000000e+00
6.109417438507080078e+00 1.268310070037841975e+01 -2.457298785448074063e-01 2.000000000000000000e+00
9.770117998123168945e-01 2.021045923233031782e+00 -6.014954447746276855e-01 1.700000000000000000e+01
1.103394150733947976e+00 2.280448436737060991e+00 -5.848727226257324219e-01 1.100000000000000000e+01
1.280525922775268999e+00 2.645359277725220171e+00 -5.712821483612060547e-01 1.000000000000000000e+01
1.519327998161315918e+00 3.135894060134888139e+00 -5.519008040428161621e-01 9.000000000000000000e+00
1.883890986442565918e+00 3.884895801544189009e+00 -5.301316380500793457e-01 9.000000000000000000e+00
2.450683832168579102e+00 5.051470756530761719e+00 -4.912097752094268799e-01 9.000000000000000000e+00
3.504456281661986861e+00 7.217142581939697266e+00 -4.204670786857604980e-01 1.000000000000000000e+00
6.127429485321044922e+00 1.260774135589599965e+01 -2.446827441453933993e-01 2.000000000000000000e+00
9.891418814659118652e-01 2.028041362762451172e+00 -6.046012639999389648e-01 1.800000000000000000e+01
1.109637856483459029e+00 2.273080587387084961e+00 -5.839729309082031250e-01 1.100000000000000000e+01
1.285444378852844016e+00 2.632052898406981978e+00 -5.693740248680114746e-01 1.000000000000000000e+01
1.535470008850098100e+00 3.141219854354857954e+00 -5.537779927253723145e-01 9.000000000000000000e+00
1.893078327178955078e+00 3.869380474090576172e+00 -5.289129614830017090e-01 1.000000000000000000e+01
2.468301773071289062e+00 5.042885780334472656e+00 -4.912097752094268799e-01 9.000000000000000000e+00
3.534899473190308061e+00 7.215627670288085938e+00 -4.210951030254364014e-01 1.000000000000000000e+00
6.180205345153808594e+00 1.260422992706299006e+01 -2.450317889451980868e-01 2.000000000000000000e+00
9.919503927230834961e-01 2.015909433364868164e+00 -6.020131111145019531e-01 1.600000000000000000e+01
1.122731566429137962e+00 2.279682636260985884e+00 -5.866723656654357910e-01 1.000000000000000000e+01
1.292020916938781960e+00 2.622266530990601030e+00 -5.682291984558105469e-01 1.000000000000000000e+01
1.545551896095276101e+00 3.134069204330443892e+00 -5.534651279449462891e-01 8.000000000000000000e+00
1.905694842338562012e+00 3.860968828201293945e+00 -5.286692380905151367e-01 9.000000000000000000e+00
2.471775293350220171e+00 5.005655765533447266e+00 -4.884207844734191895e-01 9.000000000000000000e+00
3.563604831695557085e+00 7.210406303405761719e+00 -4.215137958526610773e-01 1.000000000000000000e+00
6.224164485931395596e+00 1.258258056640625000e+01 -2.450317889451980868e-01 2.000000000000000000e+00
9.922701120376586914e-01 2.000668287277222124e+00 -5.983896255493164062e-01 1.500000000000000000e+01
1.136819720268249956e+00 2.290108442306518999e+00 -5.902715921401977539e-01 1.100000000000000000e+01
1.301999092102051003e+00 2.621711254119873047e+00 -5.689924359321594238e-01 1.000000000000000000e+01
1.559786438941956010e+00 3.138042688369750977e+00 -5.550295114517211914e-01 9.000000000000000000e+00
1.916046619415282981e+00 3.851408243179320845e+00 -5.281817317008972168e-01 9.000000000000000000e+00
2.489264249801636186e+00 5.001432895660400391e+00 -4.887694120407103937e-01 9.000000000000000000e+00
3.582677125930786133e+00 7.192024707794188565e+00 -4.210951030254364014e-01 1.000000000000000000e+00
6.236895561218261719e+00 1.250927639007568004e+01 -2.439846396446228027e-01 2.000000000000000000e+00
9.992476701736450195e-01 1.997192502021789995e+00 -5.983896255493164062e-01 1.600000000000000000e+01
1.143061637878417969e+00 2.282641172409058061e+00 -5.893717408180236816e-01 1.000000000000000000e+01
1.316418886184691939e+00 2.627682209014893022e+00 -5.712821483612060547e-01 1.100000000000000000e+01
1.563647389411926047e+00 3.118452310562133789e+00 -5.525265336036682129e-01 9.000000000000000000e+00
1.934821248054503950e+00 3.855341672897338867e+00 -5.296441912651062012e-01 9.000000000000000000e+00
2.510283470153809038e+00 4.999835491180419922e+00 -4.894666373729705811e-01 9.000000000000000000e+00
3.611347436904906782e+00 7.186613559722900391e+00 -4.215137958526610773e-01 2.000000000000000000e+00
6.293101787567138672e+00 1.251244068145751953e+01 -2.444733083248137873e-01 2.000000000000000000e+00
1.009173274040221946e+00 1.998690128326416016e+00 -5.999425649642944336e-01 1.500000000000000000e+01
1.146146535873413086e+00 2.268000841140747070e+00 -5.866723656654357910e-01 1.100000000000000000e+01
1.326040983200073020e+00 2.622839689254761186e+00 -5.712821483612060547e-01 1.000000000000000000e+01
1.576850414276123047e+00 3.116225481033325195e+00 -5.531522631645202637e-01 9.000000000000000000e+00
1.947144985198975053e+00 3.844682455062866211e+00 -5.291566848754882812e-01 1.000000000000000000e+01
2.535795688629149947e+00 5.004819393157958984e+00 -4.908611476421356201e-01 9.000000000000000000e+00
3.630436897277832031e+00 7.159078598022460938e+00 -4.206764101982117254e-01 2.000000000000000000e+00
6.353400707244873047e+00 1.251782131195068004e+01 -2.450317889451980868e-01 2.000000000000000000e+00
1.019650816917418990e+00 2.002041101455688032e+00 -6.020131111145019531e-01 1.800000000000000000e+01
1.154056310653686968e+00 2.263986110687255859e+00 -5.866723656654357910e-01 1.100000000000000000e+01
1.331620693206787109e+00 2.611199140548706055e+00 -5.697556734085083008e-01 1.000000000000000000e+01
1.588616490364074929e+00 3.112461805343627930e+00 -5.534651279449462891e-01 9.000000000000000000e+00
1.955135226249695046e+00 3.827255487442017046e+00 -5.276942849159240723e-01 9.000000000000000000e+00
2.548717021942139116e+00 4.987066745758056641e+00 -4.899895787239075262e-01 8.000000000000000000e+00
3.648128271102904829e+00 7.132136821746826172e+00 -4.198390543460845947e-01 2.000000000000000000e+00
6.378832340240479404e+00 1.245996761322020951e+01 -2.443336844444274902e-01 2.000000000000000000e+00
1.025401711463928001e+00 1.996930241584778054e+00 -6.014954447746276855e-01 2.200000000000000000e+01
1.159776091575623003e+00 2.256680250167847124e+00 -5.857725739479064941e-01 1.100000000000000000e+01
1.334886193275452104e+00 2.596292972564696822e+00 -5.674659609794616699e-01 1.100000000000000000e+01
1.600736737251281960e+00 3.110689401626586914e+00 -5.540908575057983398e-01 8.000000000000000000e+00
1.973269581794738992e+00 3.831339836120605025e+00 -5.291566848754882812e-01 9.000000000000000000e+00
2.562502861022949219e+00 4.973274230957031250e+00 -4.894666373729705811e-01 9.000000000000000000e+00
3.679082632064818892e+00 7.134201049804688388e+00 -4.206764101982117254e-01 2.000000000000000000e+00
6.407275676727294922e+00 1.241386890411376953e+01 -2.438450157642365057e-01 2.000000000000000000e+00
1.029700756072998047e+00 1.988192439079284890e+00 -5.999425649642944336e-01 1.900000000000000000e+01
1.173027157783508079e+00 2.262998819351195845e+00 -5.884719491004943848e-01 1.100000000000000000e+01
1.350267410278320090e+00 2.603817462921143022e+00 -5.701372623443603516e-01 9.000000000000000000e+00
1.612495303153991921e+00 3.106836318969727007e+00 -5.544037222862243652e-01 9.000000000000000000e+00
1.992121934890747070e+00 3.834997892379761186e+00 -5.306191444396972656e-01 1.000000000000000000e+01
2.579847335815430132e+00 4.964299201965332031e+00 -4.894666373729705811e-01 9.000000000000000000e+00
3.702120065689086914e+00 7.117771625518798828e+00 -4.204670786857604980e-01 2.000000000000000000e+00
6.435795307159423828e+00 1.236304759979248047e+01 -2.432865500450134000e-01 2.000000000000000000e+00
1.036634564399719016e+00 1.984586000442505105e+00 -5.999425649642944336e-01 2.000000000000000000e+01
1.180919408798217995e+00 2.258890390396118164e+00 -5.884719491004943848e-01 1.100000000000000000e+01
1.354798793792725053e+00 2.590389966964722124e+00 -5.682291984558105469e-01 1.000000000000000000e+01
1.616001605987549050e+00 3.087187767028809038e+00 -5.519008040428161621e-01 9.000000000000000000e+00
2.003654003143310991e+00 3.824504137039185014e+00 -5.301316380500793457e-01 9.000000000000000000e+00
2.600859880447388139e+00 4.962322235107421875e+00 -4.901638925075531006e-01 9.000000000000000000e+00
3.736221075057982954e+00 7.122492313385009766e+00 -4.215137958526610773e-01 2.000000000000000000e+00
6.493783950805664062e+00 1.236883544921875000e+01 -2.438450157642365057e-01 2.000000000000000000e+00
1.046256899833678977e+00 1.986083030700684038e+00 -6.014954447746276855e-01 1.900000000000000000e+01
1.183344006538390891e+00 2.244411706924438032e+00 -5.857725739479064941e-01 1.300000000000000000e+01
1.371160268783568892e+00 2.599536895751953125e+00 -5.712821483612060547e-01 1.000000000000000000e+01
1.624923586845397949e+00 3.078034400939940962e+00 -5.512750744819641113e-01 9.000000000000000000e+00
2.011427640914916992e+00 3.806955575942993164e+00 -5.286692380905151367e-01 1.000000000000000000e+01
2.608855009078979048e+00 4.935598850250244141e+00 -4.884207844734191895e-01 8.000000000000000000e+00
3.747984886169434038e+00 7.084691047668457031e+00 -4.200483858585358221e-01 2.000000000000000000e+00
6.544405460357666016e+00 1.236023044586181996e+01 -2.441242635250092108e-01 2.000000000000000000e+00
1.056808710098267046e+00 1.989242911338805930e+00 -6.035659909248352051e-01 1.900000000000000000e+01
1.191171288490294966e+00 2.240267276763916016e+00 -5.857725739479064941e-01 1.100000000000000000e+01
1.374693989753722922e+00 2.584335088729857954e+00 -5.689924359321594238e-01 1.000000000000000000e+01
1.643084406852721946e+00 3.086292743682860884e+00 -5.537779927253723145e-01 9.000000000000000000e+00
2.020970344543457031e+00 3.792903661727904829e+00 -5.276942849159240723e-01 9.000000000000000000e+00
2.630753755569458008e+00 4.935253143310546875e+00 -4.892923533916472834e-01 8.000000000000000000e+00
3.772692203521728960e+00 7.071564674377441406e+00 -4.200483858585358221e-01 2.000000000000000000e+00
6.564905643463134766e+00 1.229497528076172053e+01 -2.432865500450134000e-01 2.000000000000000000e+00
1.057359933853148970e+00 1.973621845245361106e+00 -5.999425649642944336e-01 1.900000000000000000e+01
1.202667474746704102e+00 2.242965459823607954e+00 -5.875721573829650879e-01 1.100000000000000000e+01
1.384634613990783913e+00 2.581250905990601030e+00 -5.693740248680114746e-01 9.000000000000000000e+00
1.651978850364685059e+00 3.077057838439940962e+00 -5.531522631645202637e-01 9.000000000000000000e+00
2.042654037475585938e+00 3.801563739776610884e+00 -5.298879146575927734e-01 1.000000000000000000e+01
2.656455039978026900e+00 4.941834449768066406e+00 -4.908611476421356201e-01 9.000000000000000000e+00
3.793568611145019975e+00 7.051317214965820312e+00 -4.196296930313109796e-01 2.000000000000000000e+00
6.607783317565917969e+00 1.227198505401610973e+01 -2.432865500450134000e-01 2.000000000000000000e+00
1.058391213417053001e+00 1.959905624389647993e+00 -5.968367457389831543e-01 1.800000000000000000e+01
1.211951971054076926e+00 2.242393732070922852e+00 -5.884719491004943848e-01 1.100000000000000000e+01
1.393186807632446067e+00 2.576645135879517046e+00 -5.693740248680114746e-01 1.000000000000000000e+01
1.665934205055237038e+00 3.078511953353881836e+00 -5.544037222862243652e-01 9.000000000000000000e+00
2.054303884506226030e+00 3.793023824691772017e+00 -5.296441912651062012e-01 9.000000000000000000e+00
2.659539937973022017e+00 4.908473014831542969e+00 -4.884207844734191895e-01 9.000000000000000000e+00
3.830260038375854048e+00 7.063278675079345703e+00 -4.210951030254364014e-01 2.000000000000000000e+00
6.633180141448974609e+00 1.222188472747802912e+01 -2.427280694246292114e-01 2.000000000000000000e+00
1.070769309997559038e+00 1.966378927230834961e+00 -5.999425649642944336e-01 1.900000000000000000e+01
1.216041803359984907e+00 2.231304883956909180e+00 -5.866723656654357910e-01 1.100000000000000000e+01
1.403112292289734109e+00 2.573489904403686968e+00 -5.697556734085083008e-01 1.000000000000000000e+01
1.672885298728943093e+00 3.065742015838623047e+00 -5.531522631645202637e-01 9.000000000000000000e+00
2.069434404373168945e+00 3.789314270019530806e+00 -5.301316380500793457e-01 9.000000000000000000e+00
2.690031290054320845e+00 4.923637866973876953e+00 -4.908611476421356201e-01 9.000000000000000000e+00
3.843393564224243164e+00 7.028836727142333984e+00 -4.198390543460845947e-01 2.000000000000000000e+00
6.675802230834960938e+00 1.219865608215332031e+01 -2.427280694246292114e-01 2.000000000000000000e+00
1.077626705169677956e+00 1.962629199028014915e+00 -5.999425649642944336e-01 2.000000000000000000e+01
1.216315031051635964e+00 2.213383674621582031e+00 -5.830731391906738281e-01 1.100000000000000000e+01
1.413032650947571023e+00 2.570297002792357954e+00 -5.701372623443603516e-01 1.100000000000000000e+01
1.681671977043152078e+00 3.056422472000122070e+00 -5.525265336036682129e-01 9.000000000000000000e+00
2.076903581619263139e+00 3.771634101867675781e+00 -5.286692380905151367e-01 9.000000000000000000e+00
2.703356027603148970e+00 4.907237529754638672e+00 -4.901638925075531006e-01 9.000000000000000000e+00
3.854404926300048828e+00 6.990891456604003906e+00 -4.183736443519591730e-01 2.000000000000000000e+00
6.718342781066895419e+00 1.217527866363525035e+01 -2.427280694246292114e-01 2.000000000000000000e+00
1.087278127670288086e+00 1.963926076889038086e+00 -6.014954447746276855e-01 1.900000000000000000e+01
1.230645060539246050e+00 2.221056461334228960e+00 -5.862224698066711426e-01 1.200000000000000000e+01
1.418188810348510964e+00 2.558480501174927202e+00 -5.686107873916625977e-01 1.100000000000000000e+01
1.698080420494080034e+00 3.060897827148437944e+00 -5.544037222862243652e-01 9.000000000000000000e+00
2.091983556747436968e+00 3.767832517623900923e+00 -5.291566848754882812e-01 9.000000000000000000e+00
2.718534231185913086e+00 4.894287586212158203e+00 -4.898152649402617853e-01 9.000000000000000000e+00
3.896251678466796875e+00 7.008816242218017578e+00 -4.202577173709868830e-01 2.000000000000000000e+00
6.756912708282470703e+00 1.214476394653319957e+01 -2.425884455442428866e-01 2.000000000000000000e+00
1.093527078628540039e+00 1.958241105079651101e+00 -6.009778380393981934e-01 1.900000000000000000e+01
1.243530869483947976e+00 2.225036621093750000e+00 -5.884719491004943848e-01 1.200000000000000000e+01
1.428514719009398970e+00 2.554978847503662109e+00 -5.689924359321594238e-01 1.100000000000000000e+01
1.711216926574707031e+00 3.058101177215576172e+00 -5.550295114517211914e-01 9.000000000000000000e+00
2.109659194946289062e+00 3.767067670822143999e+00 -5.301316380500793457e-01 9.000000000000000000e+00
2.734506607055664062e+00 4.880814552307128906e+00 -4.894666373729705811e-01 9.000000000000000000e+00
3.918006896972655806e+00 6.987520217895507812e+00 -4.198390543460845947e-01 2.000000000000000000e+00
6.791594028472900391e+00 1.210247802734375000e+01 -2.422394007444381991e-01 2.000000000000000000e+00
1.096564888954163042e+00 1.947678446769713911e+00 -5.989072918891906738e-01 1.800000000000000000e+01
1.251290202140808105e+00 2.220682382583618164e+00 -5.884719491004943848e-01 1.100000000000000000e+01
1.442244887351989968e+00 2.558528184890747070e+00 -5.709004998207092285e-01 1.100000000000000000e+01
1.717998862266540971e+00 3.045227527618408203e+00 -5.537779927253723145e-01 9.000000000000000000e+00
2.124747991561890093e+00 3.763137817382812944e+00 -5.306191444396972656e-01 9.000000000000000000e+00
2.748587608337401900e+00 4.866035461425781250e+00 -4.889437258243560791e-01 8.000000000000000000e+00
3.940408229827880859e+00 6.970324039459229404e+00 -4.196296930313109796e-01 2.000000000000000000e+00
6.823951244354248047e+00 1.206129264831542969e+01 -2.418903559446335116e-01 2.000000000000000000e+00
1.104924321174622026e+00 1.947391867637634055e+00 -5.999425649642944336e-01 1.900000000000000000e+01
1.256722807884216087e+00 2.213131427764893022e+00 -5.875721573829650879e-01 1.000000000000000000e+01
1.452660799026489036e+00 2.557145595550537109e+00 -5.716637372970581055e-01 1.100000000000000000e+01
1.725158691406250000e+00 3.034361839294434038e+00 -5.528393983840942383e-01 8.000000000000000000e+00
2.135251760482788086e+00 3.752620458602904829e+00 -5.301316380500793457e-01 9.000000000000000000e+00
2.759780645370482954e+00 4.848236560821533203e+00 -4.880721569061278742e-01 9.000000000000000000e+00
3.965478420257567915e+00 6.960689544677734375e+00 -4.198390543460845947e-01 2.000000000000000000e+00
6.854005813598632812e+00 1.202122592926025035e+01 -2.415413111448287964e-01 2.000000000000000000e+00
1.116511225700377974e+00 1.951907634735106978e+00 -6.025307178497314453e-01 2.000000000000000000e+01
1.258631348609924094e+00 2.198583841323852983e+00 -5.848727226257324219e-01 1.100000000000000000e+01
1.462553739547729048e+00 2.553762912750244141e+00 -5.720453858375549316e-01 1.200000000000000000e+01
1.734757781028748003e+00 3.026607513427733931e+00 -5.525265336036682129e-01 9.000000000000000000e+00
2.148337841033935991e+00 3.745144128799438032e+00 -5.301316380500793457e-01 9.000000000000000000e+00
2.782637357711791992e+00 4.848941802978515625e+00 -4.891180396080017090e-01 9.000000000000000000e+00
3.975825786590576172e+00 6.922557830810546875e+00 -4.183736443519591730e-01 2.000000000000000000e+00
6.883967399597167969e+00 1.197642326354979936e+01 -2.411224544048309049e-01 2.000000000000000000e+00
1.125247955322266069e+00 1.951345443725585938e+00 -6.035659909248352051e-01 2.000000000000000000e+01
1.269220352172852007e+00 2.199240446090697798e+00 -5.862224698066711426e-01 1.300000000000000000e+01
1.465569376945496050e+00 2.538440704345703125e+00 -5.697556734085083008e-01 1.100000000000000000e+01
1.751241803169250044e+00 3.030796051025391069e+00 -5.544037222862243652e-01 9.000000000000000000e+00
2.153447866439818892e+00 3.723874568939208984e+00 -5.281817317008972168e-01 9.000000000000000000e+00
2.805532693862915039e+00 4.849546432495117188e+00 -4.901638925075531006e-01 9.000000000000000000e+00
3.991959810256958008e+00 6.894810199737548828e+00 -4.175362586975098211e-01 2.000000000000000000e+00
6.923726081848145419e+00 1.194886016845702947e+01 -2.410526424646378119e-01 2.000000000000000000e+00
1.127198100090027078e+00 1.939054965972899947e+00 -6.009778380393981934e-01 1.900000000000000000e+01
1.279829263687134011e+00 2.199850082397460938e+00 -5.875721573829650879e-01 1.100000000000000000e+01
1.477383971214293990e+00 2.538399696350098100e+00 -5.709004998207092285e-01 1.100000000000000000e+01
1.763799071311950906e+00 3.028078556060791016e+00 -5.550295114517211914e-01 9.000000000000000000e+00
2.174431324005126953e+00 3.730054855346680132e+00 -5.301316380500793457e-01 1.000000000000000000e+01
2.817425012588500977e+00 4.831118583679199219e+00 -4.892923533916472834e-01 8.000000000000000000e+00
4.018016338348388672e+00 6.884283542633056641e+00 -4.177455902099608820e-01 2.000000000000000000e+00
6.967410087585449219e+00 1.192807197570800959e+01 -2.411224544048309049e-01 2.000000000000000000e+00
1.132983088493346946e+00 1.933441758155822976e+00 -6.004601716995239258e-01 1.800000000000000000e+01
1.293415427207946999e+00 2.205455064773560014e+00 -5.902715921401977539e-01 1.100000000000000000e+01
1.485242128372191939e+00 2.531533956527709961e+00 -5.705189108848571777e-01 1.000000000000000000e+01
1.772357940673827903e+00 3.018496274948120117e+00 -5.544037222862243652e-01 9.000000000000000000e+00
2.187438488006591797e+00 3.722441911697388139e+00 -5.301316380500793457e-01 9.000000000000000000e+00
2.832252264022827148e+00 4.817819118499755859e+00 -4.889437258243560791e-01 9.000000000000000000e+00
4.042022705078125000e+00 6.870215892791748047e+00 -4.177455902099608820e-01 2.000000000000000000e+00
6.984653472900390625e+00 1.186232280731200994e+01 -2.402847260236740112e-01 2.000000000000000000e+00
1.135795116424560991e+00 1.922821760177612083e+00 -5.983896255493164062e-01 1.600000000000000000e+01
1.295155882835387962e+00 2.190861463546752930e+00 -5.875721573829650879e-01 1.100000000000000000e+01
1.497067928314208984e+00 2.531403541564940962e+00 -5.716637372970581055e-01 1.100000000000000000e+01
1.778859019279479980e+00 3.005491495132445845e+00 -5.531522631645202637e-01 9.000000000000000000e+00
2.203453779220581055e+00 3.719907522201538086e+00 -5.308628678321838379e-01 1.000000000000000000e+01
2.852099418640137163e+00 4.813045501708984375e+00 -4.894666373729705811e-01 9.000000000000000000e+00
4.065979480743408203e+00 6.856064796447753906e+00 -4.177455902099608820e-01 2.000000000000000000e+00
7.054595947265625000e+00 1.188601875305175959e+01 -2.412620633840560913e-01 2.000000000000000000e+00
1.145129203796386941e+00 1.924024939537047896e+00 -5.999425649642944336e-01 1.200000000000000000e+01
1.300419330596924050e+00 2.183206081390380859e+00 -5.866723656654357910e-01 1.100000000000000000e+01
1.506459116935729980e+00 2.528111696243286133e+00 -5.720453858375549316e-01 1.000000000000000000e+01
1.788815855979918990e+00 2.999576091766356978e+00 -5.531522631645202637e-01 9.000000000000000000e+00
2.213742733001708984e+00 3.709171056747436968e+00 -5.303753614425659180e-01 1.000000000000000000e+01
2.868044376373291016e+00 4.803561210632324219e+00 -4.894666373729705811e-01 9.000000000000000000e+00
4.096888542175292969e+00 6.856259822845458984e+00 -4.185829758644104004e-01 1.000000000000000000e+00
7.079604148864746094e+00 1.183853244781493963e+01 -2.407733947038651068e-01 2.000000000000000000e+00
1.151838421821594016e+00 1.920015931129456010e+00 -5.999425649642944336e-01 1.100000000000000000e+01
1.310038447380065918e+00 2.181994915008544922e+00 -5.875721573829650879e-01 1.200000000000000000e+01
1.507187843322753906e+00 2.509373664855957031e+00 -5.689924359321594238e-01 1.100000000000000000e+01
1.808434605598449929e+00 3.008551120758057085e+00 -5.559681057929992676e-01 8.000000000000000000e+00
2.221560239791870117e+00 3.692915916442871094e+00 -5.291566848754882812e-01 9.000000000000000000e+00
2.888903856277465820e+00 4.800348758697509766e+00 -4.901638925075531006e-01 9.000000000000000000e+00
4.114613533020020419e+00 6.831651687622070312e+00 -4.179549515247344971e-01 2.000000000000000000e+00
7.112626552581787109e+00 1.180004692077637074e+01 -2.404941618442535123e-01 2.000000000000000000e+00
1.153535485267638938e+00 1.907717943191528098e+00 -5.973543524742126465e-01 9.000000000000000000e+00
1.319664835929871050e+00 2.180743217468262163e+00 -5.884719491004943848e-01 1.100000000000000000e+01
1.513904571533202903e+00 2.500738382339477983e+00 -5.682291984558105469e-01 1.000000000000000000e+01
1.813807487487792969e+00 2.993772745132445845e+00 -5.544037222862243652e-01 9.000000000000000000e+00
2.234437465667725053e+00 3.685138702392578125e+00 -5.291566848754882812e-01 9.000000000000000000e+00
2.904609203338623047e+00 4.788532257080078125e+00 -4.899895787239075262e-01 9.000000000000000000e+00
4.138435363769531250e+00 6.817247390747070312e+00 -4.179549515247344971e-01 2.000000000000000000e+00
7.133007526397705078e+00 1.174096679687500000e+01 -2.397960573434829989e-01 2.000000000000000000e+00
1.159182310104369895e+00 1.902030110359191895e+00 -5.968367457389831543e-01 8.000000000000000000e+00
1.329298496246337891e+00 2.179450988769530806e+00 -5.893717408180236816e-01 1.200000000000000000e+01
1.529782652854918990e+00 2.507170200347899947e+00 -5.709004998207092285e-01 1.100000000000000000e+01
1.818069696426392046e+00 2.977307796478271040e+00 -5.525265336036682129e-01 1.000000000000000000e+01
2.250392675399779829e+00 3.682398080825806108e+00 -5.298879146575927734e-01 1.000000000000000000e+01
2.920267343521118164e+00 4.776664257049561435e+00 -4.898152649402617853e-01 9.000000000000000000e+00
4.166376113891601562e+00 6.809574604034423828e+00 -4.183736443519591730e-01 2.000000000000000000e+00
7.194832324981688565e+00 1.175010395050049006e+01 -2.404941618442535123e-01 2.000000000000000000e+00
1.165483236312865989e+00 1.898175597190856934e+00 -5.968367457389831543e-01 8.000000000000000000e+00
1.334478020668030007e+00 2.171710252761840820e+00 -5.884719491004943848e-01 1.100000000000000000e+01
1.541172623634337935e+00 2.507100820541381836e+00 -5.720453858375549316e-01 1.000000000000000000e+01
1.823792576789855957e+00 2.964532375335692915e+00 -5.512750744819641113e-01 9.000000000000000000e+00
2.269876956939696822e+00 3.686748027801514116e+00 -5.315940976142883301e-01 9.000000000000000000e+00
2.937136173248291016e+00 4.768650054931640625e+00 -4.899895787239075262e-01 8.000000000000000000e+00
4.174262523651123047e+00 6.771918296813964844e+00 -4.169082343578339178e-01 2.000000000000000000e+00
7.212759971618652344e+00 1.169214248657226918e+01 -2.397960573434829989e-01 2.000000000000000000e+00
1.169052362442017046e+00 1.889167547225951926e+00 -5.952838063240051270e-01 7.000000000000000000e+00
1.337946414947509988e+00 2.160411834716796875e+00 -5.866723656654357910e-01 1.100000000000000000e+01
1.550948619842529075e+00 2.503374814987183061e+00 -5.724269747734069824e-01 1.100000000000000000e+01
1.836211442947387917e+00 2.961505889892578125e+00 -5.519008040428161621e-01 9.000000000000000000e+00
2.278545618057250977e+00 3.672055244445800781e+00 -5.306191444396972656e-01 9.000000000000000000e+00
2.965322732925415039e+00 4.776988983154296875e+00 -4.919070005416870117e-01 9.000000000000000000e+00
4.202091217041015625e+00 6.764091968536376953e+00 -4.173269271850585938e-01 2.000000000000000000e+00
7.274645805358886719e+00 1.170085906982422053e+01 -2.404941618442535123e-01 2.000000000000000000e+00
1.176661968231200950e+00 1.886714458465575950e+00 -5.958014130592346191e-01 8.000000000000000000e+00
1.349606752395630105e+00 2.162340879440308061e+00 -5.884719491004943848e-01 1.100000000000000000e+01
1.552399158477782981e+00 2.486288785934447798e+00 -5.697556734085083008e-01 1.000000000000000000e+01
1.850725054740905984e+00 2.961779117584228960e+00 -5.531522631645202637e-01 9.000000000000000000e+00
2.285034418106079102e+00 3.653980731964110884e+00 -5.291566848754882812e-01 9.000000000000000000e+00
2.971412420272827148e+00 4.749718189239501953e+00 -4.901638925075531006e-01 9.000000000000000000e+00
4.234155654907226562e+00 6.762925624847412109e+00 -4.181642830371857245e-01 2.000000000000000000e+00
7.311197757720947266e+00 1.166861629486083984e+01 -2.403545379638671875e-01 2.000000000000000000e+00
1.183240652084351030e+00 1.882595658302306907e+00 -5.958014130592346191e-01 1.000000000000000000e+01
1.358184099197387917e+00 2.159266233444213867e+00 -5.889218449592590332e-01 1.000000000000000000e+01
1.561068415641784890e+00 2.480854749679564986e+00 -5.697556734085083008e-01 1.100000000000000000e+01
1.867368102073668990e+00 2.965330123901367188e+00 -5.550295114517211914e-01 9.000000000000000000e+00
2.297775268554687944e+00 3.645982265472412109e+00 -5.291566848754882812e-01 9.000000000000000000e+00
2.993286848068236861e+00 4.747744083404541016e+00 -4.910354614257813055e-01 9.000000000000000000e+00
4.253473758697509766e+00 6.741347789764404297e+00 -4.177455902099608820e-01 2.000000000000000000e+00
7.360425949096679688e+00 1.165655040740966975e+01 -2.406337857246398926e-01 2.000000000000000000e+00
1.191872358322143999e+00 1.881717920303344949e+00 -5.968367457389831543e-01 1.600000000000000000e+01
1.368843078613281028e+00 2.159450054168701172e+00 -5.902715921401977539e-01 1.000000000000000000e+01
1.574975609779357910e+00 2.483680486679077148e+00 -5.716637372970581055e-01 1.100000000000000000e+01
1.877707600593566895e+00 2.958793640136719194e+00 -5.550295114517211914e-01 9.000000000000000000e+00
2.312616586685181108e+00 3.641290664672852007e+00 -5.296441912651062012e-01 9.000000000000000000e+00
3.000225305557250977e+00 4.722131729125976562e+00 -4.894666373729705811e-01 9.000000000000000000e+00
4.287696361541748047e+00 6.743313789367675781e+00 -4.187923073768615723e-01 2.000000000000000000e+00
7.364569187164306641e+00 1.157342624664306996e+01 -2.394470125436783114e-01 2.000000000000000000e+00
1.201551675796509011e+00 1.882431268692017046e+00 -5.983896255493164062e-01 1.900000000000000000e+01
1.372176408767699973e+00 2.148089647293090820e+00 -5.884719491004943848e-01 1.100000000000000000e+01
1.578349828720092995e+00 2.469896078109741211e+00 -5.697556734085083008e-01 1.100000000000000000e+01
1.879510045051574929e+00 2.938908100128173828e+00 -5.525265336036682129e-01 9.000000000000000000e+00
2.333873748779296875e+00 3.646571636199951172e+00 -5.315940976142883301e-01 9.000000000000000000e+00
3.019913196563721147e+00 4.716663837432861328e+00 -4.899895787239075262e-01 9.000000000000000000e+00
4.309053421020507812e+00 6.724942207336425781e+00 -4.185829758644104004e-01 2.000000000000000000e+00
7.402764320373535156e+00 1.154428195953368963e+01 -2.393772006034851074e-01 2.000000000000000000e+00
1.216475963592529075e+00 1.891223669052124023e+00 -6.025307178497314453e-01 2.000000000000000000e+01
1.377556681632996050e+00 2.140009403228760210e+00 -5.875721573829650879e-01 1.100000000000000000e+01
1.591213583946228027e+00 2.470973968505858931e+00 -5.712821483612060547e-01 1.000000000000000000e+01
1.896177768707274947e+00 2.942291975021361861e+00 -5.544037222862243652e-01 9.000000000000000000e+00
2.344436645507812944e+00 3.635066270828247070e+00 -5.311065912246704102e-01 9.000000000000000000e+00
3.041759967803955078e+00 4.714464664459229404e+00 -4.908611476421356201e-01 9.000000000000000000e+00
4.318417549133300781e+00 6.688047409057617188e+00 -4.172222316265106201e-01 3.000000000000000000e+00
7.456039905548095703e+00 1.153852558135985973e+01 -2.397960573434829989e-01 2.000000000000000000e+00
1.220968604087830034e+00 1.883723616600037065e+00 -6.014954447746276855e-01 2.000000000000000000e+01
1.385018348693848100e+00 2.135187864303588867e+00 -5.875721573829650879e-01 1.200000000000000000e+01
1.598760485649109109e+00 2.463757514953612837e+00 -5.709004998207092285e-01 1.100000000000000000e+01
1.902133345603943093e+00 2.929028511047362837e+00 -5.531522631645202637e-01 9.000000000000000000e+00
2.348457098007202148e+00 3.613544702529906782e+00 -5.291566848754882812e-01 1.000000000000000000e+01
3.063627958297729048e+00 4.712170124053955078e+00 -4.917326867580413818e-01 8.000000000000000000e+00
4.350450992584229404e+00 6.686325550079345703e+00 -4.180596172809600830e-01 4.000000000000000000e+00
7.485359668731688565e+00 1.149567127227783025e+01 -2.394470125436783114e-01 2.000000000000000000e+00
1.226152420043945090e+00 1.878046751022339089e+00 -6.009778380393981934e-01 2.200000000000000000e+01
1.396354913711548074e+00 2.137108802795410156e+00 -5.893717408180236816e-01 1.100000000000000000e+01
1.604773521423340066e+00 2.455155611038208008e+00 -5.701372623443603516e-01 1.100000000000000000e+01
1.912917256355286089e+00 2.924357652664185014e+00 -5.534651279449462891e-01 1.000000000000000000e+01
2.362601757049560991e+00 3.609058856964110884e+00 -5.296441912651062012e-01 9.000000000000000000e+00
3.073779582977294922e+00 4.693650722503662109e+00 -4.908611476421356201e-01 6.000000000000000000e+00
4.356177806854248047e+00 6.646804809570313388e+00 -4.164895415306090753e-01 4.000000000000000000e+00
7.497118473052979404e+00 1.143065452575683949e+01 -2.386092990636826117e-01 2.000000000000000000e+00
1.230577111244202104e+00 1.870527505874634011e+00 -5.999425649642944336e-01 2.100000000000000000e+01
1.405949473381042036e+00 2.135476827621459961e+00 -5.902715921401977539e-01 1.100000000000000000e+01
1.610094189643860085e+00 2.444620370864868164e+00 -5.689924359321594238e-01 1.100000000000000000e+01
1.922026395797729048e+00 2.916013240814208984e+00 -5.531522631645202637e-01 9.000000000000000000e+00
2.383929729461669922e+00 3.614046335220336914e+00 -5.315940976142883301e-01 1.000000000000000000e+01
3.090144634246826172e+00 4.682892799377441406e+00 -4.908611476421356201e-01 9.000000000000000000e+00
4.400264739990234375e+00 6.663224697113037109e+00 -4.184783101081848145e-01 4.000000000000000000e+00
7.528152942657470703e+00 1.139106845855713068e+01 -2.383300662040709894e-01 2.000000000000000000e+00
1.231762051582335982e+00 1.858169555664062944e+00 -5.973543524742126465e-01 2.000000000000000000e+01
1.409085988998413086e+00 2.124060630798339844e+00 -5.884719491004943848e-01 1.100000000000000000e+01
1.626216888427733931e+00 2.450435638427733931e+00 -5.716637372970581055e-01 1.100000000000000000e+01
1.928914785385132058e+00 2.904349803924560991e+00 -5.522136688232421875e-01 9.000000000000000000e+00
2.396530389785767046e+00 3.605702877044678178e+00 -5.315940976142883301e-01 9.000000000000000000e+00
3.106472253799438032e+00 4.672077655792236328e+00 -4.908611476421356201e-01 9.000000000000000000e+00
4.411325931549072266e+00 6.629533767700195312e+00 -4.173269271850585938e-01 5.000000000000000000e+00
7.574519634246826172e+00 1.137470817565917969e+01 -2.385394871234894076e-01 2.000000000000000000e+00
1.245751738548279031e+00 1.865103840827941895e+00 -6.009778380393981934e-01 2.400000000000000000e+01
1.412160038948059082e+00 2.112648487091064009e+00 -5.866723656654357910e-01 1.100000000000000000e+01
1.636943101882935014e+00 2.448008298873900923e+00 -5.724269747734069824e-01 1.100000000000000000e+01
1.946731328964232954e+00 2.909090757369995117e+00 -5.544037222862243652e-01 9.000000000000000000e+00
2.395847082138061968e+00 3.577522754669189009e+00 -5.286692380905151367e-01 9.000000000000000000e+00
3.122761964797974077e+00 4.661205768585205078e+00 -4.908611476421356201e-01 9.000000000000000000e+00
4.418869495391845703e+00 6.590869903564453125e+00 -4.158615171909332275e-01 6.000000000000000000e+00
7.636461734771729404e+00 1.138140964508056996e+01 -2.392375916242598932e-01 2.000000000000000000e+00
1.255490422248840110e+00 1.865552067756653054e+00 -6.025307178497314453e-01 2.600000000000000000e+01
1.422791719436645952e+00 2.112555265426636186e+00 -5.880220532417297363e-01 1.300000000000000000e+01
1.647672295570373979e+00 2.445535659790039062e+00 -5.731902122497558594e-01 1.200000000000000000e+01
1.954665422439574973e+00 2.899002075195312944e+00 -5.537779927253723145e-01 9.000000000000000000e+00
2.413872003555297852e+00 3.577365636825561968e+00 -5.298879146575927734e-01 9.000000000000000000e+00
3.141242980957030806e+00 4.653579235076904297e+00 -4.912097752094268799e-01 9.000000000000000000e+00
4.446321010589599609e+00 6.582025051116943359e+00 -4.162802100181580145e-01 5.000000000000000000e+00
7.667183876037597656e+00 1.134143066406250000e+01 -2.389583438634871881e-01 2.000000000000000000e+00
1.258742094039916992e+00 1.856361508369446023e+00 -6.009778380393981934e-01 2.200000000000000000e+01
1.429062962532043013e+00 2.105963468551636186e+00 -5.875721573829650879e-01 1.300000000000000000e+01
1.644069433212280051e+00 2.421901464462279829e+00 -5.689924359321594238e-01 1.200000000000000000e+01
1.966993093490601030e+00 2.895429372787476030e+00 -5.544037222862243652e-01 9.000000000000000000e+00
2.431925058364868164e+00 3.577126026153564009e+00 -5.311065912246704102e-01 9.000000000000000000e+00
3.157467842102050781e+00 4.642586231231688565e+00 -4.912097752094268799e-01 8.000000000000000000e+00
4.487249851226806641e+00 6.592882156372070312e+00 -4.179549515247344971e-01 5.000000000000000000e+00
7.686463356018066406e+00 1.128484916687012074e+01 -2.383300662040709894e-01 2.000000000000000000e+00
1.255854249000549094e+00 1.839633703231811968e+00 -5.968367457389831543e-01 2.200000000000000000e+01
1.445565581321716087e+00 2.115945339202880859e+00 -5.916212797164916992e-01 1.500000000000000000e+01
1.654993295669556108e+00 2.421587228775023970e+00 -5.701372623443603516e-01 1.000000000000000000e+01
1.972734093666077104e+00 2.884344100952147993e+00 -5.534651279449462891e-01 9.000000000000000000e+00
2.443150997161864790e+00 3.569468259811400923e+00 -5.311065912246704102e-01 9.000000000000000000e+00
3.163032293319702148e+00 4.619492053985595703e+00 -4.898152649402617853e-01 8.000000000000000000e+00
4.530519008636474609e+00 6.611704349517822266e+00 -4.200483858585358221e-01 4.000000000000000000e+00
7.699259281158447266e+00 1.122766208648681996e+01 -2.376319617033005038e-01 2.000000000000000000e+00
1.271026253700255904e+00 1.847972393035888894e+00 -6.009778380393981934e-01 2.100000000000000000e+01
1.451837897300719993e+00 2.109281063079833984e+00 -5.911713838577270508e-01 1.300000000000000000e+01
1.666776299476623979e+00 2.420646429061890093e+00 -5.712821483612060547e-01 1.100000000000000000e+01
1.979427695274353027e+00 2.872560501098632812e+00 -5.525265336036682129e-01 9.000000000000000000e+00
2.462357521057128906e+00 3.570723533630371094e+00 -5.325690507888793945e-01 9.000000000000000000e+00
3.192714452743529829e+00 4.628103256225585938e+00 -4.919070005416870117e-01 9.000000000000000000e+00
4.550166606903076172e+00 6.590918540954589844e+00 -4.197343587875366211e-01 3.000000000000000000e+00
7.736131191253662109e+00 1.119742774963379084e+01 -2.375621497631072998e-01 2.000000000000000000e+00
1.278112530708312988e+00 1.843078374862670898e+00 -6.009778380393981934e-01 2.200000000000000000e+01
1.452148914337157981e+00 2.092483997344971147e+00 -5.880220532417297363e-01 1.300000000000000000e+01
1.682776331901550071e+00 2.423904895782471147e+00 -5.735718607902526855e-01 1.100000000000000000e+01
1.992697119712830034e+00 2.868183612823485884e+00 -5.531522631645202637e-01 1.000000000000000000e+01
2.471517086029053178e+00 3.554723024368286133e+00 -5.315940976142883301e-01 9.000000000000000000e+00
3.218425035476685014e+00 4.627259254455566406e+00 -4.931271970272064209e-01 6.000000000000000000e+00
4.583427429199218750e+00 6.584873199462890625e+00 -4.204670786857604980e-01 2.000000000000000000e+00
7.801928520202636719e+00 1.120045757293700994e+01 -2.382602542638778964e-01 2.000000000000000000e+00
1.286751151084899902e+00 1.841773033142090066e+00 -6.020131111145019531e-01 2.100000000000000000e+01
1.458327531814574973e+00 2.085805416107178178e+00 -5.875721573829650879e-01 1.300000000000000000e+01
1.678849458694458008e+00 2.400319576263428178e+00 -5.693740248680114746e-01 1.100000000000000000e+01
2.002696752548218218e+00 2.861210107803345171e+00 -5.531522631645202637e-01 9.000000000000000000e+00
2.483910322189331055e+00 3.546074151992797852e+00 -5.315940976142883301e-01 9.000000000000000000e+00
3.224267482757567915e+00 4.601311683654785156e+00 -4.915584027767180841e-01 9.000000000000000000e+00
4.624732494354248047e+00 6.594998359680175781e+00 -4.221418201923369806e-01 2.000000000000000000e+00
7.811111450195313388e+00 1.113059711456299006e+01 -2.373527288436889926e-01 2.000000000000000000e+00
1.289836525917053001e+00 1.832530856132507102e+00 -6.004601716995239258e-01 2.300000000000000000e+01
1.467843890190124956e+00 2.083888530731201172e+00 -5.884719491004943848e-01 1.400000000000000000e+01
1.688348770141602007e+00 2.396049499511719194e+00 -5.697556734085083008e-01 1.100000000000000000e+01
