2.975914716720581055e+00 -3.303928375244141069e+00 -7.042679786682128906e-01 1.100000000000000000e+01
3.901747703552246094e+00 -4.334851264953613281e+00 -7.161042690277099609e-01 1.300000000000000000e+01
8.561846017837524414e-01 -9.515570402145385742e-01 2.027390599250792902e-01 6.500000000000000000e+01
4.848187446594238281e+00 -5.388238906860351562e+00 -6.341452002525329590e-01 7.000000000000000000e+00
8.481395244598388672e-01 -9.429467916488647461e-01 2.465252280235291082e-01 6.900000000000000000e+01
8.610829710960388184e-01 -9.580094814300537109e-01 2.973853051662445068e-01 3.900000000000000000e+01
8.844425082206726074e-01 -9.843439459800720215e-01 3.545821011066436768e-01 5.200000000000000000e+01
1.732616662979125977e+00 -1.933746933937072976e+00 -6.957055926322937012e-01 1.500000000000000000e+01
2.018764019012451172e+00 -2.254694938659667969e+00 -6.986979842185974121e-01 1.500000000000000000e+01
2.393471479415893999e+00 -2.674133062362670898e+00 -6.975976824760437012e-01 1.200000000000000000e+01
2.959096193313599077e+00 -3.308406591415404829e+00 -7.030164599418640137e-01 1.000000000000000000e+01
3.899821281433105025e+00 -4.363245010375976562e+00 -7.185416221618652344e-01 1.300000000000000000e+01
8.515416383743286133e-01 -9.530668258666992188e-01 2.024261951446532926e-01 6.500000000000000000e+01
4.853243827819824219e+00 -5.431872367858886719e+00 -6.372827887535095215e-01 9.000000000000000000e+00
8.422272205352783203e-01 -9.429731369018554688e-01 2.457619905471802035e-01 5.200000000000000000e+01
8.616265058517456055e-01 -9.653709530830383301e-01 2.987349927425385077e-01 4.200000000000000000e+01
8.808287978172302246e-01 -9.875789880752563477e-01 3.545821011066436768e-01 5.600000000000000000e+01
1.729708433151244895e+00 -1.944113016128540039e+00 -6.972585320472717285e-01 1.500000000000000000e+01
2.010881423950194868e+00 -2.261727809906005859e+00 -6.986979842185974121e-01 1.200000000000000000e+01
2.393252134323120117e+00 -2.692743539810181108e+00 -7.002689838409423828e-01 1.300000000000000000e+01
2.947529554367064986e+00 -3.318715572357178178e+00 -7.030164599418640137e-01 1.100000000000000000e+01
3.885884761810303178e+00 -4.378315925598145419e+00 -7.187854051589965820e-01 1.500000000000000000e+01
8.560755848884582520e-01 -9.648993015289306641e-01 2.043034136295318881e-01 5.700000000000000000e+01
4.827641963958740234e+00 -5.441328525543212891e+00 -6.364112496376037598e-01 7.000000000000000000e+00
8.337197899818420410e-01 -9.400321245193481445e-01 2.442355155944823941e-01 1.400000000000000000e+01
8.672993183135986328e-01 -9.785814881324768066e-01 3.018843233585358221e-01 3.900000000000000000e+01
8.801111578941345215e-01 -9.933864474296569824e-01 3.556173741817473810e-01 5.400000000000000000e+01
1.722911596298217995e+00 -1.950139045715332031e+00 -6.972585320472717285e-01 1.500000000000000000e+01
1.986207604408263938e+00 -2.249742031097412109e+00 -6.928492188453674316e-01 1.400000000000000000e+01
2.386436223983765093e+00 -2.704025030136107954e+00 -7.010322213172912598e-01 1.200000000000000000e+01
2.941153526306151900e+00 -3.334910392761230025e+00 -7.042679786682128906e-01 1.100000000000000000e+01
3.860077857971190962e+00 -4.379939556121826172e+00 -7.168354988098144531e-01 1.500000000000000000e+01
8.553138971328735352e-01 -9.708461165428161621e-01 2.049291431903839111e-01 4.600000000000000000e+01
4.788862705230712891e+00 -5.435722351074218750e+00 -6.337965726852416992e-01 7.000000000000000000e+00
8.524917364120483398e-01 -9.679833650588989258e-01 2.507230341434478760e-01 1.500000000000000000e+01
8.638781905174255371e-01 -9.816029667854309082e-01 3.018843233585358221e-01 3.300000000000000000e+01
2.226954460144042969e+01 -2.531322669982910156e+01 -5.884951353073120117e-01 6.000000000000000000e+00
8.855705261230468750e-01 -1.006605625152587891e+00 3.592408299446105957e-01 3.700000000000000000e+01
1.720600128173827903e+00 -1.959897398948668990e+00 -6.988114118576049805e-01 1.400000000000000000e+01
1.986840844154357910e+00 -2.264760255813599077e+00 -6.955486536026000977e-01 1.400000000000000000e+01
2.375340700149536133e+00 -2.708556890487670898e+00 -7.002689838409423828e-01 1.200000000000000000e+01
2.939775705337523970e+00 -3.354532957077025923e+00 -7.064580321311950684e-01 1.100000000000000000e+01
3.829297065734862837e+00 -4.372630596160888672e+00 -7.136668562889099121e-01 1.600000000000000000e+01
8.472238779067993164e-01 -9.674353003501892090e-01 2.036776691675185880e-01 5.100000000000000000e+01
4.757326602935791016e+00 -5.434250354766845703e+00 -6.318791508674621582e-01 7.000000000000000000e+00
8.520323634147644043e-01 -9.736115932464599609e-01 2.514862418174744207e-01 4.200000000000000000e+01
8.582244515419006348e-01 -9.813781976699829102e-01 3.009845018386840820e-01 2.200000000000000000e+01
2.203197479248046875e+01 -2.520240211486816051e+01 -5.843065381050109863e-01 6.000000000000000000e+00
1.713748335838318093e+00 -1.965891480445862038e+00 -6.988114118576049805e-01 1.400000000000000000e+01
1.978923320770263894e+00 -2.271681785583496094e+00 -6.955486536026000977e-01 1.100000000000000000e+01
2.354267835617064986e+00 -2.703506708145142046e+00 -6.968344449996948242e-01 1.200000000000000000e+01
2.933235168457030806e+00 -3.370734930038452148e+00 -7.077094912528991699e-01 1.100000000000000000e+01
3.811405181884766069e+00 -4.382975101470947266e+00 -7.131794095039367676e-01 1.800000000000000000e+01
8.333046436309814453e-01 -9.586073756217956543e-01 2.011747211217879971e-01 5.500000000000000000e+01
4.727871417999267578e+00 -5.438793659210205078e+00 -6.304846405982971191e-01 1.000000000000000000e+01
8.512041568756103516e-01 -9.795436263084411621e-01 2.522494792938231867e-01 6.000000000000000000e+01
8.599044084548950195e-01 -9.902535676956176758e-01 3.027841150760651190e-01 7.000000000000000000e+00
1.695154547691344993e+00 -1.959011673927306907e+00 -6.941526532173156738e-01 1.400000000000000000e+01
1.980780959129333052e+00 -2.290712356567382812e+00 -6.991478800773620605e-01 1.100000000000000000e+01
2.348194837570189986e+00 -2.716573238372803178e+00 -6.979793310165405273e-01 1.200000000000000000e+01
2.918278694152832031e+00 -3.378473281860352007e+00 -7.070837616920471191e-01 1.100000000000000000e+01
3.795315265655518022e+00 -4.396914958953857422e+00 -7.131794095039367676e-01 3.300000000000000000e+01
8.297855854034423828e-01 -9.616551399230957031e-01 2.011747211217879971e-01 5.200000000000000000e+01
4.534791946411132812e+00 -5.255461215972900391e+00 -6.073012351989746094e-01 8.000000000000000000e+00
8.527374863624572754e-01 -9.886033535003662109e-01 2.537759542465209961e-01 6.700000000000000000e+01
9.682330489158630371e-01 -1.123293280601501021e+00 3.423755168914794922e-01 8.000000000000000000e+00
1.689565062522887962e+00 -1.966382265090941939e+00 -6.946703195571899414e-01 1.600000000000000000e+01
1.968964338302612083e+00 -2.293177127838135210e+00 -6.977981925010681152e-01 1.300000000000000000e+01
2.347648620605469194e+00 -2.735181808471680132e+00 -7.006506323814392090e-01 1.200000000000000000e+01
2.902609586715697798e+00 -3.384141206741333008e+00 -7.061451673507690430e-01 1.000000000000000000e+01
3.778652191162108931e+00 -4.408628940582275391e+00 -7.129356861114501953e-01 4.100000000000000000e+01
8.367058634757995605e-01 -9.765463471412658691e-01 2.036776691675185880e-01 3.100000000000000000e+01
4.608458995819091797e+00 -5.378680706024169922e+00 -6.196773052215576172e-01 8.000000000000000000e+00
8.416187167167663574e-01 -9.826273918151855469e-01 2.514862418174744207e-01 5.800000000000000000e+01
9.820463061332702637e-01 -1.147393345832824929e+00 3.486741483211516779e-01 3.300000000000000000e+01
1.046180367469788042e+00 -1.222757458686829057e+00 4.311925172805786133e-01 1.000000000000000000e+00
1.691467881202697976e+00 -1.982555508613585982e+00 -6.982938051223754883e-01 1.500000000000000000e+01
1.955890417098999023e+00 -2.294104337692261186e+00 -6.959985494613647461e-01 1.300000000000000000e+01
2.339360237121582031e+00 -2.744853973388671875e+00 -7.010322213172912598e-01 1.200000000000000000e+01
9.884576201438903809e-01 -1.160202503204345925e+00 1.333482861518859863e-01 1.000000000000000000e+00
2.890779018402100053e+00 -3.394252777099608931e+00 -7.061451673507690430e-01 1.000000000000000000e+01
9.638444185256958008e-01 -1.132112979888916016e+00 1.825602799654006958e-01 6.000000000000000000e+00
3.733648777008057085e+00 -4.387022495269775391e+00 -7.073296904563903809e-01 4.300000000000000000e+01
8.552276492118835449e-01 -1.004889130592345969e+00 2.089964449405669888e-01 1.300000000000000000e+01
4.616767406463623047e+00 -5.426602363586425781e+00 -6.233378648757934570e-01 7.000000000000000000e+00
8.979629874229431152e-01 -1.055849432945251021e+00 2.694222927093505859e-01 5.200000000000000000e+01
9.553195238113403320e-01 -1.124085664749145952e+00 3.405759036540985107e-01 4.700000000000000000e+01
9.704114198684692383e-01 -1.142651796340941939e+00 4.016871452331542969e-01 8.000000000000000000e+00
1.695775747299193892e+00 -2.001713991165161133e+00 -7.029525041580200195e-01 1.600000000000000000e+01
1.951647996902466042e+00 -2.305379629135131836e+00 -6.973482966423034668e-01 1.400000000000000000e+01
9.562434554100036621e-01 -1.129560351371764915e+00 7.756188511848449707e-02 5.000000000000000000e+00
2.332301139831542969e+00 -2.756000518798828125e+00 -7.017954587936401367e-01 1.200000000000000000e+01
9.483713507652282715e-01 -1.121054768562316895e+00 1.284675598144530972e-01 1.000000000000000000e+01
2.884015560150146040e+00 -3.410356044769287109e+00 -7.073966264724731445e-01 1.000000000000000000e+01
9.560420513153076172e-01 -1.130922555923461914e+00 1.818290650844573975e-01 2.100000000000000000e+01
3.705499649047852007e+00 -4.384866714477539062e+00 -7.048922777175903320e-01 2.600000000000000000e+01
9.484204649925231934e-01 -1.122701525688170943e+00 2.327744811773299893e-01 2.800000000000000000e+01
4.606797218322753906e+00 -5.453338623046875000e+00 -6.245580315589904785e-01 7.000000000000000000e+00
9.525389075279235840e-01 -1.127976059913635032e+00 2.869767248630524237e-01 7.000000000000000000e+01
9.400787949562072754e-01 -1.114009618759155051e+00 3.365267813205718994e-01 5.300000000000000000e+01
9.589446187019348145e-01 -1.137171149253844993e+00 3.985813260078430176e-01 3.100000000000000000e+01
1.679177761077881081e+00 -1.995501041412353960e+00 -6.988114118576049805e-01 1.500000000000000000e+01
9.680119752883911133e-01 -1.150773525238037109e+00 2.624841965734958996e-02 6.000000000000000000e+00
1.947754859924315962e+00 -2.316313505172729048e+00 -6.986979842185974121e-01 1.300000000000000000e+01
9.460653662681579590e-01 -1.125082015991210938e+00 7.703852653503417969e-02 3.000000000000000000e+01
2.316832780838013139e+00 -2.756205320358275923e+00 -6.998873949050903320e-01 1.200000000000000000e+01
9.292676448822021484e-01 -1.105889201164246050e+00 1.263758242130280096e-01 3.100000000000000000e+01
2.887937068939208984e+00 -3.438051700592041016e+00 -7.111510634422302246e-01 1.000000000000000000e+01
9.407978057861328125e-01 -1.120404720306396040e+00 1.796354055404663086e-01 3.000000000000000000e+01
3.701148509979248047e+00 -4.409294128417968750e+00 -7.068421840667724609e-01 2.200000000000000000e+01
9.461587667465209961e-01 -1.127188444137573020e+00 2.330873459577559870e-01 5.800000000000000000e+01
4.621985912322998047e+00 -5.508267879486083984e+00 -6.290901303291320801e-01 7.000000000000000000e+00
9.563633799552917480e-01 -1.140153527259827104e+00 2.892664372920989990e-01 7.100000000000000000e+01
9.388831257820129395e-01 -1.120107889175415039e+00 3.374265730381011963e-01 5.400000000000000000e+01
9.415230751037597656e-01 -1.124054193496704102e+00 3.928873240947722834e-01 4.000000000000000000e+01
1.664770007133484109e+00 -1.992455482482909934e+00 -6.957055926322937012e-01 1.500000000000000000e+01
9.511701464653015137e-01 -1.138797879219054954e+00 2.589937113225460052e-02 3.600000000000000000e+01
1.944653511047363059e+00 -2.329081773757935014e+00 -7.004975676536560059e-01 1.300000000000000000e+01
9.318917393684387207e-01 -1.116112470626831055e+00 7.620115578174591064e-02 4.600000000000000000e+01
2.309713602066040039e+00 -2.767290353775023970e+00 -7.006506323814392090e-01 1.100000000000000000e+01
9.177432060241699219e-01 -1.099947214126586914e+00 1.253299564123153964e-01 4.800000000000000000e+01
2.870857238769530806e+00 -3.442043781280518022e+00 -7.098996043205261230e-01 1.000000000000000000e+01
9.368811249732971191e-01 -1.123681783676147017e+00 1.796354055404663086e-01 4.700000000000000000e+01
3.687005758285522017e+00 -4.423711299896240234e+00 -7.070859074592590332e-01 2.200000000000000000e+01
9.283064007759094238e-01 -1.113792657852173074e+00 2.296457886695862094e-01 5.600000000000000000e+01
4.595077991485595703e+00 -5.515183925628662109e+00 -6.280443072319030762e-01 3.000000000000000000e+00
9.498648047447204590e-01 -1.140467762947082964e+00 2.885031998157501221e-01 7.100000000000000000e+01
9.249945282936096191e-01 -1.111395716667175071e+00 3.338273763656616211e-01 5.600000000000000000e+01
9.783979058265686035e-01 -1.175978064537047896e+00 -2.670218236744403839e-02 7.000000000000000000e+00
9.240053892135620117e-01 -1.110995650291443093e+00 3.871932923793792725e-01 4.300000000000000000e+01
1.657456040382385032e+00 -1.998543739318848100e+00 -6.957055926322937012e-01 1.300000000000000000e+01
9.342271685600280762e-01 -1.126881837844849077e+00 2.555032260715961109e-02 3.800000000000000000e+01
1.934860467910767046e+00 -2.334693193435668945e+00 -7.000476717948913574e-01 1.100000000000000000e+01
9.303436279296875000e-01 -1.122596144676208052e+00 7.641049474477767944e-02 4.900000000000000000e+01
2.307070255279541016e+00 -2.784808397293090820e+00 -7.029403448104858398e-01 1.200000000000000000e+01
9.175179004669189453e-01 -1.107907056808471902e+00 1.258528977632523138e-01 5.700000000000000000e+01
2.855702877044678178e+00 -3.449499607086182085e+00 -7.092738747596740723e-01 1.100000000000000000e+01
9.264282584190368652e-01 -1.119461536407470925e+00 1.784167140722275058e-01 6.000000000000000000e+01
3.668236494064331055e+00 -4.434136390686035156e+00 -7.065984606742858887e-01 2.400000000000000000e+01
9.229587912559509277e-01 -1.115665555000304954e+00 2.293329238891602118e-01 6.100000000000000000e+01
9.356712102890014648e-01 -1.131836414337157981e+00 2.854502499103546143e-01 8.600000000000000000e+01
9.209148287773132324e-01 -1.114778518676758035e+00 3.338273763656616211e-01 6.000000000000000000e+01
9.817210435867309570e-01 -1.188807606697082964e+00 -2.691161073744297028e-02 4.300000000000000000e+01
9.152011871337890625e-01 -1.108255982398987038e+00 3.851227462291718084e-01 4.900000000000000000e+01
1.659065961837768999e+00 -2.014756441116333008e+00 -6.993290781974792480e-01 1.400000000000000000e+01
9.290170669555664062e-01 -1.128592133522033913e+00 2.551541849970817913e-02 3.900000000000000000e+01
1.921746134757996050e+00 -2.335413694381713867e+00 -6.982480883598327637e-01 1.300000000000000000e+01
9.137287139892578125e-01 -1.110414385795593040e+00 7.536377757787704468e-02 5.100000000000000000e+01
2.304818630218505859e+00 -2.801941633224486861e+00 -7.052300572395324707e-01 1.200000000000000000e+01
9.085832834243774414e-01 -1.104947328567505105e+00 1.251556426286697110e-01 6.900000000000000000e+01
2.842390298843383789e+00 -3.457920789718627930e+00 -7.089610099792480469e-01 1.100000000000000000e+01
9.149533510208129883e-01 -1.113486170768738015e+00 1.769542843103409091e-01 6.700000000000000000e+01
3.628796100616455078e+00 -4.417768478393554688e+00 -7.019674181938171387e-01 1.100000000000000000e+01
9.152972698211669922e-01 -1.114301085472106934e+00 2.283943146467208862e-01 6.400000000000000000e+01
9.229953885078430176e-01 -1.124472975730895996e+00 2.827789187431334894e-01 1.000000000000000000e+02
9.145461916923522949e-01 -1.114972829818726030e+00 3.329275548458098810e-01 6.000000000000000000e+01
9.762974381446838379e-01 -1.190680861473083052e+00 -2.687670662999153137e-02 4.600000000000000000e+01
9.099084734916687012e-01 -1.110108733177185059e+00 3.846051096916198730e-01 5.500000000000000000e+01
1.647131800651550071e+00 -2.014552831649779829e+00 -6.972585320472717285e-01 1.500000000000000000e+01
9.174789190292358398e-01 -1.122538208961487038e+00 2.530599012970924030e-02 4.600000000000000000e+01
1.908650398254394975e+00 -2.336071252822875977e+00 -6.964484453201293945e-01 1.200000000000000000e+01
9.020722508430480957e-01 -1.104474663734436035e+00 7.473574578762054443e-02 5.700000000000000000e+01
2.283847093582152876e+00 -2.796285152435303178e+00 -7.017954587936401367e-01 1.100000000000000000e+01
9.022006392478942871e-01 -1.105025410652161089e+00 1.248070225119591037e-01 7.600000000000000000e+01
2.832800626754761186e+00 -3.470882177352904829e+00 -7.095867395401000977e-01 3.000000000000000000e+00
8.972570300102233887e-01 -1.099753856658935991e+00 1.742731630802155096e-01 7.000000000000000000e+01
9.064080715179443359e-01 -1.111366033554076926e+00 2.271428406238555908e-01 7.000000000000000000e+01
9.215452075004577637e-01 -1.130731701850890891e+00 2.835421562194824219e-01 1.000000000000000000e+02
8.946507573127746582e-01 -1.098515152931212935e+00 3.270788192749022882e-01 6.500000000000000000e+01
9.393098950386047363e-01 -1.153761863708496094e+00 -2.596918120980263103e-02 3.000000000000000000e+01
8.964647650718688965e-01 -1.101134896278380904e+00 3.804639875888823908e-01 5.900000000000000000e+01
1.651047945022583008e+00 -2.033788919448852983e+00 -7.019172310829162598e-01 1.500000000000000000e+01
9.085146784782409668e-01 -1.119523048400878906e+00 2.516636997461318970e-02 5.100000000000000000e+01
1.910305976867676003e+00 -2.354826688766479048e+00 -7.000476717948913574e-01 1.300000000000000000e+01
8.906633853912353516e-01 -1.098309040069580078e+00 7.410771399736404419e-02 6.100000000000000000e+01
2.272835731506348100e+00 -2.802715301513671875e+00 -7.014138698577880859e-01 1.100000000000000000e+01
8.920645713806152344e-01 -1.100429415702820046e+00 1.239354684948921065e-01 8.400000000000000000e+01
8.946622610092163086e-01 -1.104421734809875044e+00 1.745169013738631925e-01 7.700000000000000000e+01
8.985999822616577148e-01 -1.110074639320373979e+00 2.262042313814162930e-01 7.500000000000000000e+01
9.101827144622802734e-01 -1.124784588813781960e+00 2.812524735927581787e-01 1.000000000000000000e+02
9.257478713989257812e-01 -1.144428133964539018e+00 -7.714319974184036255e-02 7.000000000000000000e+00
8.920360803604125977e-01 -1.103146672248840110e+00 3.275287449359893799e-01 6.200000000000000000e+01
9.189345836639404297e-01 -1.136816740036010964e+00 -2.551541849970817913e-02 4.400000000000000000e+01
8.802810907363891602e-01 -1.089387178421020952e+00 3.752876222133635919e-01 6.600000000000000000e+01
1.637018918991089089e+00 -2.030229568481444868e+00 -6.988114118576049805e-01 1.500000000000000000e+01
8.985225558280944824e-01 -1.114745020866394043e+00 2.499184571206570019e-02 6.600000000000000000e+01
1.912267923355102983e+00 -2.373288154602050781e+00 -7.036468982696533203e-01 1.300000000000000000e+01
8.932806253433227539e-01 -1.109033823013306108e+00 7.463107258081436157e-02 6.500000000000000000e+01
2.265991926193236861e+00 -2.813294649124145952e+00 -7.021771073341369629e-01 1.200000000000000000e+01
8.759152889251708984e-01 -1.087862849235534890e+00 1.221923530101775984e-01 8.200000000000000000e+01
8.947281837463378906e-01 -1.112022280693053977e+00 1.752481162548064908e-01 8.200000000000000000e+01
8.951081633567810059e-01 -1.112892150878906028e+00 2.262042313814162930e-01 7.700000000000000000e+01
9.188509583473205566e-01 -1.142820119857788086e+00 -1.282932460308074951e-01 4.000000000000000000e+00
9.015281200408935547e-01 -1.121675729751586914e+00 2.797259986400604248e-01 1.000000000000000000e+02
9.081873297691345215e-01 -1.130365014076232910e+00 -7.599180936813354492e-02 4.100000000000000000e+01
8.859324455261230469e-01 -1.103059887886046919e+00 3.266289234161376953e-01 6.800000000000000000e+01
9.089000821113586426e-01 -1.132061243057250977e+00 -2.534089423716067921e-02 8.100000000000000000e+01
8.756448626518249512e-01 -1.090640902519226074e+00 3.747699856758118231e-01 6.900000000000000000e+01
1.629922151565551980e+00 -2.035931348800659180e+00 -6.988114118576049805e-01 1.400000000000000000e+01
8.858795762062072754e-01 -1.106945753097533958e+00 2.474751323461532940e-02 7.000000000000000000e+01
1.894232988357543945e+00 -2.367774963378905806e+00 -7.000476717948913574e-01 1.200000000000000000e+01
8.881565332412719727e-01 -1.110585331916809082e+00 7.452639937400817871e-02 7.400000000000000000e+01
2.259836435317993164e+00 -2.825787067413330078e+00 -7.033219337463378906e-01 1.200000000000000000e+01
8.770889639854431152e-01 -1.097138524055480957e+00 1.228896006941794933e-01 8.800000000000000000e+01
9.729990363121032715e-01 -1.217546820640563965e+00 -2.468535900115967074e-01 2.000000000000000000e+00
8.871240615844726562e-01 -1.110485792160033958e+00 1.745169013738631925e-01 9.000000000000000000e+01
9.352406263351440430e-01 -1.171136498451232910e+00 -1.840227097272872925e-01 1.000000000000000000e+00
8.922556042671203613e-01 -1.117709279060363992e+00 2.265171110630035123e-01 7.800000000000000000e+01
9.098840951919555664e-01 -1.139792203903198020e+00 -1.275960057973861972e-01 3.000000000000000000e+01
8.902598619461059570e-01 -1.115608572959899902e+00 2.774362862110137939e-01 1.000000000000000000e+02
9.004995822906494141e-01 -1.128844261169434038e+00 -7.567778974771499634e-02 5.400000000000000000e+01
8.784316778182983398e-01 -1.101574897766113059e+00 3.252792358398438055e-01 6.500000000000000000e+01
9.012034535408020020e-01 -1.130535960197448953e+00 -2.523618005216122021e-02 7.800000000000000000e+01
8.668258786201477051e-01 -1.087799668312072976e+00 3.726994395256041925e-01 7.000000000000000000e+01
1.627613782882689986e+00 -2.047657728195189986e+00 -7.008819580078125000e-01 1.400000000000000000e+01
8.882303237915039062e-01 -1.117859482765197976e+00 2.492203563451766968e-02 7.800000000000000000e+01
1.884744286537169966e+00 -2.372846841812133789e+00 -6.995977759361267090e-01 1.300000000000000000e+01
8.855164051055908203e-01 -1.115242958068848100e+00 7.463107258081436157e-02 7.700000000000000000e+01
2.254842281341553178e+00 -2.839808464050292969e+00 -7.048484086990356445e-01 1.200000000000000000e+01
8.732538819313049316e-01 -1.100193500518799050e+00 1.228896006941794933e-01 9.200000000000000000e+01
9.540093541145324707e-01 -1.202366352081299050e+00 -2.430991530418395996e-01 3.800000000000000000e+01
8.758408427238464355e-01 -1.104244112968445046e+00 1.730544716119765958e-01 8.700000000000000000e+01
9.163472056388854980e-01 -1.155728101730346902e+00 -1.810978502035140991e-01 1.100000000000000000e+01
8.885442018508911133e-01 -1.120661973953247070e+00 2.265171110630035123e-01 8.300000000000000000e+01
9.120877981185913086e-01 -1.150768399238585982e+00 -1.284675598144530972e-01 8.500000000000000000e+01
8.839218616485595703e-01 -1.115631699562072976e+00 2.766730487346649170e-01 1.000000000000000000e+02
8.928335309028625488e-01 -1.127283692359924094e+00 -7.536377757787704468e-02 7.000000000000000000e+01
8.709521889686584473e-01 -1.100050926208496094e+00 3.239295184612274170e-01 6.600000000000000000e+01
8.997336626052856445e-01 -1.136810898780822976e+00 -2.530599012970924030e-02 8.800000000000000000e+01
8.644127249717712402e-01 -1.092182993888854980e+00 3.732170760631560724e-01 6.600000000000000000e+01
1.619259357452393022e+00 -2.051810026168822798e+00 -7.003643512725830078e-01 1.500000000000000000e+01
8.818457722663879395e-01 -1.117813229560852051e+00 2.485222741961478840e-02 8.400000000000000000e+01
1.877656817436218040e+00 -2.380941390991210938e+00 -7.000476717948913574e-01 1.200000000000000000e+01
8.667802214622497559e-01 -1.099505424499511941e+00 7.337500900030136108e-02 8.000000000000000000e+01
2.244915723800659180e+00 -2.847661972045897993e+00 -7.048484086990356445e-01 1.200000000000000000e+01
8.718746304512023926e-01 -1.106364727020263894e+00 1.232382208108901978e-01 9.000000000000000000e+01
9.436944723129272461e-01 -1.197930574417114036e+00 -2.415348142385483066e-01 7.300000000000000000e+01
8.719809651374816895e-01 -1.107294559478759988e+00 1.730544716119765958e-01 9.000000000000000000e+01
9.110795259475708008e-01 -1.157359838485717995e+00 -1.808541119098663053e-01 4.500000000000000000e+01
8.771013021469116211e-01 -1.114596962928771973e+00 2.246398925781250000e-01 7.800000000000000000e+01
9.006726741790771484e-01 -1.144550800323486106e+00 -1.274216920137405118e-01 9.400000000000000000e+01
8.836636543273925781e-01 -1.123339533805846946e+00 2.778179049491881769e-01 1.000000000000000000e+02
8.913623094558715820e-01 -1.133533358573914018e+00 -7.557312399148941040e-02 8.500000000000000000e+01
8.574724197387695312e-01 -1.090827941894531028e+00 3.203302919864655096e-01 6.800000000000000000e+01
8.908178806304931641e-01 -1.133655190467834029e+00 -2.516636997461318970e-02 8.200000000000000000e+01
8.556305170059204102e-01 -1.089267015457153098e+00 3.711465001106262207e-01 6.600000000000000000e+01
1.614110708236693892e+00 -2.060772895812987837e+00 -7.013996243476867676e-01 1.600000000000000000e+01
8.802084326744079590e-01 -1.124186873435973899e+00 2.492203563451766968e-02 8.400000000000000000e+01
1.873721957206726074e+00 -2.393945693969727007e+00 -7.018473148345947266e-01 1.400000000000000000e+01
8.652059435844421387e-01 -1.105821013450623003e+00 7.358435541391372681e-02 8.000000000000000000e+01
2.224785089492797852e+00 -2.843501091003417969e+00 -7.017954587936401367e-01 1.000000000000000000e+01
8.653587698936462402e-01 -1.106414198875427024e+00 1.228896006941794933e-01 9.400000000000000000e+01
9.380807876586914062e-01 -1.199825167655945046e+00 -2.412219494581223089e-01 9.100000000000000000e+01
8.630269765853881836e-01 -1.104226946830749956e+00 1.720795184373855868e-01 8.700000000000000000e+01
9.080536365509033203e-01 -1.162255644798279031e+00 -1.810978502035140991e-01 5.600000000000000000e+01
8.683406114578247070e-01 -1.111425280570984109e+00 2.233884185552597046e-01 8.300000000000000000e+01
8.940188884735107422e-01 -1.144703745841979980e+00 -1.270730793476105014e-01 1.000000000000000000e+02
8.819567561149597168e-01 -1.129665732383728027e+00 2.785811424255371094e-01 1.000000000000000000e+02
8.847441077232360840e-01 -1.133643746376038042e+00 -7.536377757787704468e-02 9.400000000000000000e+01
8.462764620780944824e-01 -1.084744572639465110e+00 3.176308870315551758e-01 6.800000000000000000e+01
8.780484795570373535e-01 -1.125874638557434082e+00 -2.492203563451766968e-02 8.000000000000000000e+01
8.446947932243347168e-01 -1.083106994628906028e+00 3.680406808853148859e-01 6.600000000000000000e+01
1.605721473693848100e+00 -2.064869642257689986e+00 -7.008819580078125000e-01 1.700000000000000000e+01
8.713697791099548340e-01 -1.120937347412108931e+00 2.478241734206676136e-02 8.200000000000000000e+01
1.868941426277161089e+00 -2.405087947845458984e+00 -7.031970024108886719e-01 1.300000000000000000e+01
8.588901758193969727e-01 -1.105679750442505105e+00 7.337500900030136108e-02 8.200000000000000000e+01
2.228094100952147993e+00 -2.868304491043090820e+00 -7.059932947158813477e-01 1.000000000000000000e+00
8.517156243324279785e-01 -1.096838831901550071e+00 1.214951053261757036e-01 9.000000000000000000e+01
9.338868856430053711e-01 -1.203092336654663086e+00 -2.412219494581223089e-01 9.500000000000000000e+01
8.689028620719909668e-01 -1.119779229164123979e+00 1.740294247865676880e-01 9.300000000000000000e+01
9.125078320503234863e-01 -1.176397919654845969e+00 -1.828040182590484897e-01 6.900000000000000000e+01
8.594194054603576660e-01 -1.108356237411499023e+00 2.221369445323944092e-01 8.700000000000000000e+01
8.778089284896850586e-01 -1.132072329521178977e+00 -1.253299564123153964e-01 1.000000000000000000e+02
8.768053650856018066e-01 -1.131185770034790039e+00 2.781995236873627264e-01 1.000000000000000000e+02
8.856747746467590332e-01 -1.143040299415587935e+00 -7.578246295452117920e-02 9.900000000000000000e+01
8.448714613914489746e-01 -1.090773344039916992e+00 3.185306787490844727e-01 6.600000000000000000e+01
8.753373622894287109e-01 -1.130513906478882058e+00 -2.495694160461426128e-02 8.200000000000000000e+01
8.324422240257263184e-01 -1.075501799583435059e+00 3.644172251224517822e-01 6.400000000000000000e+01
1.596864461898803933e+00 -2.066846609115601030e+00 -6.998466849327087402e-01 1.600000000000000000e+01
8.605100512504577637e-01 -1.114173531532288042e+00 2.457298897206782948e-02 8.600000000000000000e+01
1.855421900749206987e+00 -2.403234958648682085e+00 -7.009474635124206543e-01 1.400000000000000000e+01
8.602934479713439941e-01 -1.114697098731995073e+00 7.379370182752609253e-02 8.200000000000000000e+01
8.506996631622314453e-01 -1.102664113044738992e+00 1.218437254428863942e-01 9.400000000000000000e+01
9.192454218864440918e-01 -1.191942214965820090e+00 -2.384061217308043878e-01 8.600000000000000000e+01
8.593206405639648438e-01 -1.114642739295959029e+00 1.728107333183289129e-01 9.600000000000000000e+01
9.100192785263061523e-01 -1.180831193923949973e+00 -1.830477565526962003e-01 7.900000000000000000e+01
8.585386872291564941e-01 -1.114030599594115989e+00 2.227626740932464877e-01 9.400000000000000000e+01
8.839754462242126465e-01 -1.147451162338257058e+00 -1.267244517803192139e-01 1.000000000000000000e+02
8.624665141105651855e-01 -1.119935631752013938e+00 2.747649550437927246e-01 1.000000000000000000e+02
8.772060871124267578e-01 -1.139486670494080034e+00 -7.536377757787704468e-02 9.600000000000000000e+01
8.438174724578857422e-01 -1.096510887145996094e+00 3.194305002689362127e-01 6.800000000000000000e+01
8.766585588455200195e-01 -1.139598131179810014e+00 -2.509655989706515919e-02 8.200000000000000000e+01
8.268916606903076172e-01 -1.074904561042786089e+00 3.633819520473480225e-01 6.400000000000000000e+01
1.596694707870482954e+00 -2.081605195999145952e+00 -7.029525041580200195e-01 1.800000000000000000e+01
8.590492010116577148e-01 -1.120344281196594016e+00 2.464279718697071075e-02 8.400000000000000000e+01
1.839908719062804954e+00 -2.400417089462279829e+00 -6.982480883598327637e-01 8.000000000000000000e+00
8.588266968727111816e-01 -1.120864033699036089e+00 7.400304079055786133e-02 8.200000000000000000e+01
9.409239292144775391e-01 -1.228010058403014915e+00 -3.007149696350098211e-01 2.000000000000000000e+00
8.492684960365295410e-01 -1.108790397644042969e+00 1.221923530101775984e-01 9.200000000000000000e+01
9.198827743530273438e-01 -1.201417446136475053e+00 -2.396575957536697110e-01 7.500000000000000000e+01
8.445658683776855469e-01 -1.103448390960692915e+00 1.706170737743377963e-01 9.300000000000000000e+01
8.890044093132019043e-01 -1.161928653717041016e+00 -1.796354055404663086e-01 7.800000000000000000e+01
8.570454716682434082e-01 -1.120158314704895020e+00 2.233884185552597046e-01 9.400000000000000000e+01
8.787543177604675293e-01 -1.148947238922118919e+00 -1.265501379966736117e-01 1.000000000000000000e+02
8.585519790649414062e-01 -1.122939348220824973e+00 2.747649550437927246e-01 1.000000000000000000e+02
8.707975745201110840e-01 -1.139367938041687012e+00 -7.515443116426467896e-02 9.600000000000000000e+01
8.340694308280944824e-01 -1.091707110404968040e+00 3.171809911727905273e-01 7.100000000000000000e+01
8.787439465522766113e-01 -1.150597453117371050e+00 -2.527108415961265911e-02 8.000000000000000000e+01
8.254796266555786133e-01 -1.080855011940001997e+00 3.644172251224517822e-01 6.200000000000000000e+01
1.594539523124695046e+00 -2.095407485961914062e+00 -7.055407166481018066e-01 1.600000000000000000e+01
8.547410368919372559e-01 -1.123634457588196023e+00 2.464279718697071075e-02 8.900000000000000000e+01
8.436386585235595703e-01 -1.109843134880065918e+00 7.306099683046340942e-02 8.800000000000000000e+01
9.266971945762634277e-01 -1.219110250473022017e+00 -2.976620197296143133e-01 2.500000000000000000e+01
8.474156260490417480e-01 -1.115215897560120073e+00 1.225409731268883029e-01 9.000000000000000000e+01
9.164577126502990723e-01 -1.206513762474060059e+00 -2.399704754352570135e-01 6.700000000000000000e+01
8.475254774093627930e-01 -1.116168975830077903e+00 1.720795184373855868e-01 9.300000000000000000e+01
8.797356486320495605e-01 -1.159008860588073953e+00 -1.786604523658751886e-01 7.800000000000000000e+01
8.525419831275939941e-01 -1.123589754104614036e+00 2.233884185552597046e-01 1.000000000000000000e+02
8.839707970619201660e-01 -1.165010690689086914e+00 -1.279446333646774014e-01 1.000000000000000000e+02
8.518610000610351562e-01 -1.123099207878113015e+00 2.740017175674437921e-01 1.000000000000000000e+02
8.688297271728515625e-01 -1.145886182785033958e+00 -7.536377757787704468e-02 9.600000000000000000e+01
8.239858150482177734e-01 -1.087136387825011985e+00 3.149314820766448975e-01 6.900000000000000000e+01
8.694890141487121582e-01 -1.147587537765502930e+00 -2.513146586716175079e-02 8.000000000000000000e+01
8.248233199119567871e-01 -1.088636040687561035e+00 3.659701347351074219e-01 6.500000000000000000e+01
1.581392884254456010e+00 -2.093253374099731001e+00 -7.029525041580200195e-01 1.500000000000000000e+01
8.556340932846069336e-01 -1.132994294166564941e+00 2.478241734206676136e-02 8.900000000000000000e+01
9.451817274093627930e-01 -1.252023816108704057e+00 -3.621712028980255127e-01 1.000000000000000000e+00
8.421656489372253418e-01 -1.115969777107238992e+00 7.327033579349517822e-02 8.800000000000000000e+01
9.129751324653625488e-01 -1.209800720214843972e+00 -2.946090996265410822e-01 6.100000000000000000e+01
8.411178588867187500e-01 -1.114985942840575950e+00 1.221923530101775984e-01 9.400000000000000000e+01
9.146193861961364746e-01 -1.212859749794005904e+00 -2.405962049961090088e-01 5.700000000000000000e+01
8.460140228271484375e-01 -1.122290968894958052e+00 1.725669950246810913e-01 9.300000000000000000e+01
8.756845593452453613e-01 -1.162072658538817915e+00 -1.786604523658751886e-01 7.400000000000000000e+01
8.438605666160583496e-01 -1.120247483253479004e+00 2.221369445323944092e-01 1.000000000000000000e+02
8.822962641716003418e-01 -1.171272039413451926e+00 -1.282932460308074951e-01 1.000000000000000000e+02
8.491164445877075195e-01 -1.127634286880492942e+00 2.743833363056182861e-01 1.000000000000000000e+02
8.648245334625244141e-01 -1.148912072181702104e+00 -7.536377757787704468e-02 9.200000000000000000e+01
8.166708946228027344e-01 -1.085334539413451926e+00 3.135817646980286200e-01 7.400000000000000000e+01
8.630737662315368652e-01 -1.147419571876526101e+00 -2.506165578961372029e-02 8.000000000000000000e+01
8.161837458610534668e-01 -1.085475564002990945e+00 3.638995885848999023e-01 6.500000000000000000e+01
1.568280935287476030e+00 -2.091033458709716797e+00 -7.003643512725830078e-01 1.000000000000000000e+01
8.492749333381652832e-01 -1.132774233818053977e+00 2.471260726451874126e-02 8.400000000000000000e+01
9.501551985740661621e-01 -1.267790675163269043e+00 -3.657703995704650879e-01 1.600000000000000000e+01
8.394625782966613770e-01 -1.120501041412353960e+00 7.337500900030136108e-02 8.500000000000000000e+01
9.146322607994079590e-01 -1.220836400985717995e+00 -2.965171933174132746e-01 8.600000000000000000e+01
8.324434161186218262e-01 -1.111536264419556108e+00 1.214951053261757036e-01 9.400000000000000000e+01
9.068285822868347168e-01 -1.211300969123840110e+00 -2.396575957536697110e-01 5.300000000000000000e+01
8.456594944000244141e-01 -1.130005240440369096e+00 1.732982099056243896e-01 9.600000000000000000e+01
8.811358213424682617e-01 -1.177838563919066939e+00 -1.806103736162185947e-01 7.600000000000000000e+01
8.494092226028442383e-01 -1.135841965675354004e+00 2.246398925781250000e-01 9.400000000000000000e+01
8.686567544937133789e-01 -1.161580085754394975e+00 -1.268987655639647882e-01 1.000000000000000000e+02
8.510525226593017578e-01 -1.138453602790832964e+00 2.762914299964904785e-01 9.000000000000000000e+01
8.679822087287902832e-01 -1.161523222923279031e+00 -7.599180936813354492e-02 9.200000000000000000e+01
8.175424337387084961e-01 -1.094423532485961914e+00 3.153813779354094904e-01 7.400000000000000000e+01
8.590632677078247070e-01 -1.150425195693969949e+00 -2.506165578961372029e-02 8.000000000000000000e+01
7.987092137336730957e-01 -1.069601297378540039e+00 3.576879203319550116e-01 5.900000000000000000e+01
1.003729462623595969e+00 -1.348078846931457964e+00 -4.503451287746428888e-01 1.000000000000000000e+00
8.381519317626953125e-01 -1.126106977462768999e+00 2.450317889451980938e-02 8.600000000000000000e+01
9.399077296257019043e-01 -1.263282179832458052e+00 -3.635208904743195135e-01 4.200000000000000000e+01
8.403139114379882812e-01 -1.129834890365601030e+00 7.379370182752609253e-02 8.200000000000000000e+01
9.080218672752380371e-01 -1.220870971679687944e+00 -2.957539558410645086e-01 9.400000000000000000e+01
8.261808753013610840e-01 -1.111237406730652078e+00 1.211464852094649991e-01 9.200000000000000000e+01
8.884549736976623535e-01 -1.195433616638184038e+00 -2.359031736850739081e-01 5.900000000000000000e+01
8.346068859100341797e-01 -1.123389482498168945e+00 1.718357801437377930e-01 9.500000000000000000e+01
8.817532658576965332e-01 -1.187281727790832964e+00 -1.815853267908096036e-01 7.600000000000000000e+01
8.442617058753967285e-01 -1.137213945388793945e+00 2.243270277976990024e-01 8.700000000000000000e+01
8.669720292091369629e-01 -1.167804598808289018e+00 -1.272473782300949097e-01 1.000000000000000000e+02
8.330335021018981934e-01 -1.122498869895935059e+00 2.717120051383972168e-01 9.300000000000000000e+01
8.591625690460205078e-01 -1.158129692077636941e+00 -7.557312399148941040e-02 9.400000000000000000e+01
8.125563859939575195e-01 -1.095705389976501021e+00 3.149314820766448975e-01 7.700000000000000000e+01
8.562331795692443848e-01 -1.155023336410522017e+00 -2.509655989706515919e-02 8.400000000000000000e+01
7.961211800575256348e-01 -1.073934793472290039e+00 3.582055568695067804e-01 6.100000000000000000e+01
9.645687341690063477e-01 -1.304968237876892090e+00 -4.348160028457642157e-01 9.000000000000000000e+00
8.389693498611450195e-01 -1.135458946228026900e+00 2.464279718697071075e-02 9.100000000000000000e+01
9.215989112854003906e-01 -1.247745156288146973e+00 -3.581220805644989014e-01 4.800000000000000000e+01
8.341894149780273438e-01 -1.129402160644531028e+00 7.358435541391372681e-02 8.500000000000000000e+01
9.037547111511230469e-01 -1.224033117294311968e+00 -2.957539558410645086e-01 9.500000000000000000e+01
8.293958902359008789e-01 -1.123732805252074973e+00 1.221923530101775984e-01 9.400000000000000000e+01
8.866222500801086426e-01 -1.201706767082213911e+00 -2.365289181470870972e-01 6.300000000000000000e+01
8.247891068458557129e-01 -1.118307948112488015e+00 1.706170737743377963e-01 1.000000000000000000e+02
8.728915452957153320e-01 -1.183961272239685059e+00 -1.806103736162185947e-01 7.400000000000000000e+01
8.393136858940124512e-01 -1.138417363166809082e+00 2.240141481161118109e-01 7.800000000000000000e+01
8.676185011863708496e-01 -1.177239298820496050e+00 -1.279446333646774014e-01 1.000000000000000000e+02
8.244522213935852051e-01 -1.119077444076538086e+00 2.701855301856995184e-01 1.000000000000000000e+02
8.480084538459777832e-01 -1.151472449302672896e+00 -7.494509220123291016e-02 9.400000000000000000e+01
8.029500842094421387e-01 -1.090688347816467063e+00 3.126819729804993231e-01 8.100000000000000000e+01
8.569371700286865234e-01 -1.164447426795959029e+00 -2.523618005216122021e-02 8.400000000000000000e+01
8.015279173851013184e-01 -1.089154720306396040e+00 3.623466491699218750e-01 6.800000000000000000e+01
9.634362459182739258e-01 -1.312999844551085982e+00 -4.363689124584197998e-01 3.500000000000000000e+01
8.373662233352661133e-01 -1.141605496406554954e+00 2.471260726451874126e-02 9.100000000000000000e+01
9.195424318313598633e-01 -1.254097700119018999e+00 -3.590218722820281982e-01 4.800000000000000000e+01
8.265022039413452148e-01 -1.127619385719299094e+00 7.327033579349517822e-02 9.000000000000000000e+01
8.925128579139709473e-01 -1.217679619789123979e+00 -2.934642434120178223e-01 9.500000000000000000e+01
8.254682421684265137e-01 -1.126621127128601074e+00 1.221923530101775984e-01 9.400000000000000000e+01
8.859238028526306152e-01 -1.209575176239013894e+00 -2.374675124883652011e-01 6.000000000000000000e+01
8.220531344413757324e-01 -1.122781872749329057e+00 1.708608120679855069e-01 1.000000000000000000e+02
8.664085865020751953e-01 -1.183797240257262962e+00 -1.801228821277618131e-01 7.600000000000000000e+01
8.258044123649597168e-01 -1.128731966018676980e+00 2.215112000703811923e-01 8.300000000000000000e+01
8.670332431793212891e-01 -1.185084581375122070e+00 -1.284675598144530972e-01 1.000000000000000000e+02
8.240177631378173828e-01 -1.126702547073364036e+00 2.713303864002227783e-01 1.000000000000000000e+02
8.463414311408996582e-01 -1.157650232315063032e+00 -7.515443116426467896e-02 9.400000000000000000e+01
7.899392843246459961e-01 -1.080897688865662065e+00 3.090827465057373047e-01 8.300000000000000000e+01
8.457895517349243164e-01 -1.157743334770203081e+00 -2.502675168216228138e-02 8.400000000000000000e+01
7.975305914878845215e-01 -1.092085123062134011e+00 3.623466491699218750e-01 7.000000000000000000e+01
9.474729299545288086e-01 -1.300739765167236106e+00 -4.311925172805786133e-01 5.100000000000000000e+01
8.357303142547607422e-01 -1.147754669189452903e+00 2.478241734206676136e-02 8.900000000000000000e+01
9.128655791282653809e-01 -1.254148721694946067e+00 -3.581220805644989014e-01 5.000000000000000000e+01
8.204075694084167480e-01 -1.127124428749084029e+00 7.306099683046340942e-02 9.000000000000000000e+01
8.905670642852783203e-01 -1.223962545394897017e+00 -2.942274808883666992e-01 9.500000000000000000e+01
8.191866874694824219e-01 -1.126273155212401900e+00 1.218437254428863942e-01 9.400000000000000000e+01
8.875044584274291992e-01 -1.220648884773253950e+00 -2.390318661928176880e-01 6.600000000000000000e+01
8.204630613327026367e-01 -1.128856182098388894e+00 1.713483035564422885e-01 9.800000000000000000e+01
8.646047115325927734e-01 -1.190026283264159934e+00 -1.806103736162185947e-01 7.400000000000000000e+01
8.172160983085632324e-01 -1.125214457511902078e+00 2.202597260475158969e-01 8.300000000000000000e+01
8.605495691299438477e-01 -1.184879660606384055e+00 -1.281189471483230868e-01 1.000000000000000000e+02
8.270003199577331543e-01 -1.139104247093200906e+00 2.736200988292694092e-01 1.000000000000000000e+02
8.493340015411376953e-01 -1.170296072959899902e+00 -7.578246295452117920e-02 9.400000000000000000e+01
7.861614227294921875e-01 -1.083648443222045898e+00 3.090827465057373047e-01 8.100000000000000000e+01
8.417431116104125977e-01 -1.160688638687134011e+00 -2.502675168216228138e-02 8.600000000000000000e+01
7.859656810760498047e-01 -1.083776593208312988e+00 3.587231934070587158e-01 7.200000000000000000e+01
9.293431639671325684e-01 -1.285253524780272993e+00 -4.249808788299561102e-01 5.100000000000000000e+01
8.293759226799011230e-01 -1.147423505783081055e+00 2.471260726451874126e-02 9.100000000000000000e+01
9.119061827659606934e-01 -1.262066245079040971e+00 -3.594717979431151789e-01 5.500000000000000000e+01
8.211470842361450195e-01 -1.136456847190856934e+00 7.347968220710754395e-02 8.800000000000000000e+01
8.862892389297485352e-01 -1.227063775062561035e+00 -2.942274808883666992e-01 9.500000000000000000e+01
8.082524538040161133e-01 -1.119433760643004927e+00 1.207978576421737948e-01 9.200000000000000000e+01
8.820821046829223633e-01 -1.222137570381164995e+00 -2.387189865112304965e-01 6.700000000000000000e+01
8.176791071891784668e-01 -1.133323073387145996e+00 1.715920418500899991e-01 8.400000000000000000e+01
8.697350621223449707e-01 -1.205917358398437944e+00 -1.825602799654006958e-01 7.800000000000000000e+01
8.132833838462829590e-01 -1.128060221672058105e+00 2.202597260475158969e-01 6.600000000000000000e+01
8.540779948234558105e-01 -1.184644103050231934e+00 -1.277703195810317993e-01 1.000000000000000000e+02
8.126882910728454590e-01 -1.127649545669556108e+00 2.701855301856995184e-01 1.000000000000000000e+02
8.475786447525024414e-01 -1.176494717597960982e+00 -7.599180936813354492e-02 9.900000000000000000e+01
7.846516370773315430e-01 -1.089548826217650923e+00 3.099825382232666016e-01 8.700000000000000000e+01
8.376864194869995117e-01 -1.163619875907897949e+00 -2.502675168216228138e-02 8.200000000000000000e+01
7.731482982635498047e-01 -1.073970794677733931e+00 3.545821011066436768e-01 7.300000000000000000e+01
9.214716553688049316e-01 -1.283781409263611062e+00 -4.234279692173004150e-01 5.000000000000000000e+01
8.230341076850891113e-01 -1.147062182426453081e+00 2.464279718697071075e-02 9.300000000000000000e+01
9.018162488937377930e-01 -1.257323980331420898e+00 -3.572222888469696045e-01 6.300000000000000000e+01
8.181400299072265625e-01 -1.141082048416137917e+00 7.358435541391372681e-02 8.500000000000000000e+01
8.888643980026245117e-01 -1.239723205566406028e+00 -2.965171933174132746e-01 9.200000000000000000e+01
8.055006265640258789e-01 -1.123867630958556907e+00 1.209721714258193970e-01 9.700000000000000000e+01
8.743592500686645508e-01 -1.220391869544982910e+00 -2.377803921699523926e-01 6.600000000000000000e+01
8.137180805206298828e-01 -1.136170387268065962e+00 1.715920418500899991e-01 9.000000000000000000e+01
8.678314089775085449e-01 -1.212174177169800027e+00 -1.830477565526962003e-01 7.800000000000000000e+01
8.049384951591491699e-01 -1.124326229095458984e+00 2.190082520246506015e-01 6.400000000000000000e+01
8.510971069335937500e-01 -1.189238309860229048e+00 -1.279446333646774014e-01 1.000000000000000000e+02
8.007510304450988770e-01 -1.119302392005919966e+00 2.675141990184783936e-01 1.000000000000000000e+02
8.388195633888244629e-01 -1.172947764396667036e+00 -7.557312399148941040e-02 9.900000000000000000e+01
7.887767553329467773e-01 -1.103378295898437944e+00 3.131318688392639160e-01 8.900000000000000000e+01
8.359448313713073730e-01 -1.169790744781493919e+00 -2.509655989706515919e-02 8.800000000000000000e+01
7.703297734260559082e-01 -1.078369259834289995e+00 3.550997376441956122e-01 8.200000000000000000e+01
8.867175579071044922e-01 -1.244510054588318093e+00 -4.094517230987548828e-01 3.600000000000000000e+01
8.190250992774963379e-01 -1.149928092956542969e+00 2.464279718697071075e-02 9.500000000000000000e+01
8.906403183937072754e-01 -1.250939369201659934e+00 -3.545228540897368830e-01 6.700000000000000000e+01
8.097180128097534180e-01 -1.137280821800231934e+00 7.316567003726959229e-02 8.200000000000000000e+01
8.879467248916625977e-01 -1.247616887092590110e+00 -2.976620197296143133e-01 8.500000000000000000e+01
8.096576929092407227e-01 -1.138036608695984109e+00 1.221923530101775984e-01 1.000000000000000000e+02
8.689491152763366699e-01 -1.221826791763306108e+00 -2.374675124883652011e-01 6.700000000000000000e+01
8.039960861206054688e-01 -1.130914330482482910e+00 1.703733354806900024e-01 8.200000000000000000e+01
8.647447824478149414e-01 -1.216814160346985085e+00 -1.832914948463439941e-01 8.200000000000000000e+01
7.950921654701232910e-01 -1.119216918945312944e+00 2.174439132213593084e-01 6.600000000000000000e+01
8.538639545440673828e-01 -1.201947450637816939e+00 -1.289905011653899869e-01 1.000000000000000000e+02
7.968390583992004395e-01 -1.122090816497802956e+00 2.675141990184783936e-01 1.000000000000000000e+02
8.312516808509826660e-01 -1.170982718467711958e+00 -7.525910437107086182e-02 1.000000000000000000e+02
7.781538963317871094e-01 -1.096589326858520952e+00 3.104324638843535822e-01 9.200000000000000000e+01
8.341703414916992188e-01 -1.175963640213012917e+00 -2.516636997461318970e-02 8.800000000000000000e+01
7.687957286834716797e-01 -1.084203362464905007e+00 3.561350107192993164e-01 8.600000000000000000e+01
8.221305012702941895e-01 -1.162426710128783958e+00 -3.814992606639862061e-01 4.500000000000000000e+01
8.184692859649658203e-01 -1.157678484916687012e+00 2.474751323461532940e-02 1.000000000000000000e+02
8.896424174308776855e-01 -1.258814930915832964e+00 -3.558725714683533270e-01 7.300000000000000000e+01
8.092013597488403320e-01 -1.144993424415587935e+00 7.347968220710754395e-02 7.200000000000000000e+01
