3.233897018432617188e+01 1.554284572601318004e+01 8.283597946166992188e+00 1.000000000000000000e+01
1.256331729888916016e+01 6.035517692565917969e+00 -2.432865500450134000e-01 2.000000000000000000e+00
3.505126190185546875e+01 1.683890533447265980e+01 1.041953754425049006e+01 8.000000000000000000e+00
2.061375141143798828e+00 9.867608547210693359e-01 -6.123658418655395508e-01 1.600000000000000000e+01
2.348721027374268022e+00 1.123303055763245073e+00 -6.010692119598388672e-01 1.700000000000000000e+01
2.724207401275635210e+00 1.302299737930298074e+00 -5.869284868240356445e-01 1.200000000000000000e+01
3.251280784606934038e+00 1.552871584892272949e+00 -5.706729292869567871e-01 1.000000000000000000e+01
3.859249114990233664e+01 1.842421150207519887e+01 5.250862598419188565e+00 3.000000000000000000e+01
4.059688568115234375e+00 1.937241792678833008e+00 -5.523118376731872559e-01 6.000000000000000000e+00
5.297795772552490234e+00 2.526918888092041016e+00 -5.135216116905212402e-01 9.000000000000000000e+00
7.614055156707763672e+00 3.628455877304077148e+00 -4.420294761657714844e-01 2.000000000000000000e+00
3.206930923461914062e+01 1.527566909790039062e+01 8.200815200805664062e+00 1.000000000000000000e+01
1.256264305114745916e+01 5.981310844421386719e+00 -2.428676933050155917e-01 2.000000000000000000e+00
3.499819564819335938e+01 1.666330146789551137e+01 1.038640785217284979e+01 1.700000000000000000e+01
2.068126440048218218e+00 9.815763235092163086e-01 -6.134011149406433105e-01 1.600000000000000000e+01
2.350672245025635210e+00 1.114673256874084029e+00 -6.006193161010742188e-01 1.600000000000000000e+01
2.721414804458618164e+00 1.289895296096801980e+00 -5.854020118713378906e-01 1.100000000000000000e+01
3.265338897705078125e+00 1.546308517456054910e+00 -5.722372531890869141e-01 1.000000000000000000e+01
4.024819374084472656e+00 1.904242396354675071e+00 -5.467059016227722168e-01 6.000000000000000000e+00
3.453010177612304688e+01 1.633705329895019887e+01 6.050259590148925781e+00 1.400000000000000000e+01
5.309748649597167969e+00 2.511040449142456055e+00 -5.138702392578125000e-01 9.000000000000000000e+00
7.633268833160400391e+00 3.606599807739257812e+00 -4.424481689929962158e-01 2.000000000000000000e+00
3.210569000244141336e+01 1.516258144378661932e+01 8.197216033935546875e+00 1.000000000000000000e+01
1.257517528533936080e+01 5.936204433441162109e+00 -2.427280694246292114e-01 2.000000000000000000e+00
3.489890670776367188e+01 1.646684074401855113e+01 1.033982086181640980e+01 8.000000000000000000e+00
2.061051368713378906e+00 9.694178104400634766e-01 -6.102952957153320312e-01 1.500000000000000000e+01
2.363367319107056108e+00 1.110605120658874956e+00 -6.028688549995422363e-01 1.400000000000000000e+01
2.725900888442993164e+00 1.280387878417968972e+00 -5.854020118713378906e-01 1.200000000000000000e+01
3.276081323623656782e+00 1.537418603897094949e+00 -5.731759071350097656e-01 1.100000000000000000e+01
4.045820236206054688e+00 1.896923184394835982e+00 -5.486558079719543457e-01 1.000000000000000000e+01
3.481512451171875000e+01 1.631600570678710938e+01 6.089680671691895419e+00 1.400000000000000000e+01
5.302244186401367188e+00 2.484881401062012163e+00 -5.123014450073242188e-01 9.000000000000000000e+00
7.656664371490479404e+00 3.585014343261719194e+00 -4.430761933326721191e-01 2.000000000000000000e+00
3.214077377319335938e+01 1.504215908050536932e+01 8.192717552185058594e+00 1.000000000000000000e+01
1.258857440948485973e+01 5.888883590698242188e+00 -2.425884455442428866e-01 7.000000000000000000e+00
3.500167465209960938e+01 1.636619567871094105e+01 1.035327911376952947e+01 8.000000000000000000e+00
2.062503814697266069e+00 9.617613554000854492e-01 -6.097776889801025391e-01 1.600000000000000000e+01
2.375869512557982954e+00 1.106876611709594949e+00 -6.051183342933654785e-01 1.200000000000000000e+01
2.733691215515137163e+00 1.272999048233032005e+00 -5.861652493476867676e-01 1.100000000000000000e+01
3.281161785125731978e+00 1.526546239852905051e+00 -5.731759071350097656e-01 1.100000000000000000e+01
4.070089817047119141e+00 1.891863703727721946e+00 -5.510931611061096191e-01 1.000000000000000000e+01
5.328524112701416016e+00 2.475679874420166016e+00 -5.140445828437805176e-01 9.000000000000000000e+00
3.354676437377929688e+01 1.557900714874267933e+01 7.189682960510253906e+00 6.100000000000000000e+01
7.664887428283691406e+00 3.557922363281250000e+00 -4.428668618202208918e-01 2.000000000000000000e+00
3.214451599121093750e+01 1.491416931152343928e+01 8.181019783020019531e+00 1.000000000000000000e+01
1.264431571960449041e+01 5.863932132720947266e+00 -2.432865500450134000e-01 5.000000000000000000e+00
3.515040206909179688e+01 1.629390716552734020e+01 1.038123226165770951e+01 8.000000000000000000e+00
2.069355964660644975e+00 9.561766386032104492e-01 -6.108129620552062988e-01 1.600000000000000000e+01
2.377949476242064986e+00 1.097759723663330078e+00 -6.046684384346008301e-01 1.300000000000000000e+01
2.745248794555664062e+00 1.266739130020142046e+00 -5.876917243003845215e-01 1.100000000000000000e+01
3.272118806838988814e+00 1.508467435836791992e+00 -5.706729292869567871e-01 1.100000000000000000e+01
4.091093063354492188e+00 1.884288549423217995e+00 -5.530430674552917480e-01 1.100000000000000000e+01
5.338943481445313388e+00 2.457897901535034180e+00 -5.142188668251037598e-01 9.000000000000000000e+00
7.670002460479736328e+00 3.527806758880614790e+00 -4.424481689929962158e-01 2.000000000000000000e+00
3.227782821655272727e+01 1.483931732177734020e+01 8.201715469360351562e+00 1.000000000000000000e+01
1.269196319580077947e+01 5.832283973693847656e+00 -2.438101172447204867e-01 7.000000000000000000e+00
3.505960083007813211e+01 1.610337829589844105e+01 1.033775043487549006e+01 8.000000000000000000e+00
2.079706907272338867e+00 9.521641731262207031e-01 -6.128835082054138184e-01 1.600000000000000000e+01
2.364045381546020952e+00 1.081346511840820090e+00 -6.001694202423095703e-01 1.200000000000000000e+01
2.749653816223144975e+00 1.257148742675781028e+00 -5.876917243003845215e-01 1.200000000000000000e+01
3.282754898071289062e+00 1.499498724937438965e+00 -5.716115236282348633e-01 1.000000000000000000e+01
4.095839977264404297e+00 1.869172334671020952e+00 -5.527993440628051758e-01 1.300000000000000000e+01
5.351116180419921875e+00 2.440900325775146040e+00 -5.145674943923950195e-01 9.000000000000000000e+00
3.352251815795897727e+01 1.528415870666504084e+01 7.161443233489990234e+00 6.100000000000000000e+01
7.696809291839599609e+00 3.507637977600098100e+00 -4.432855546474456787e-01 2.000000000000000000e+00
1.272498321533202947e+01 5.793745517730712891e+00 -2.440544515848160068e-01 5.000000000000000000e+00
2.088295936584473100e+00 9.472930431365966797e-01 -6.144363880157470703e-01 1.600000000000000000e+01
3.839525604248046875e+01 1.740878105163573863e+01 7.358632683753967285e-01 4.000000000000000000e+01
2.382005214691162109e+00 1.079523086547852007e+00 -6.037686467170715332e-01 1.100000000000000000e+01
3.848976898193358664e+01 1.744353485107421875e+01 2.214648246765137163e+00 2.800000000000000000e+01
2.743295192718505859e+00 1.242682337760925071e+00 -5.854020118713378906e-01 1.200000000000000000e+01
3.291568517684936968e+00 1.489659547805785911e+00 -5.722372531890869141e-01 1.000000000000000000e+01
4.095104217529296875e+00 1.851592421531677024e+00 -5.518243908882141113e-01 1.200000000000000000e+01
5.366866111755371094e+00 2.425488710403441939e+00 -5.152647495269775391e-01 9.000000000000000000e+00
7.705365657806395596e+00 3.479105949401855025e+00 -4.430761933326721191e-01 2.000000000000000000e+00
1.277429485321044922e+01 5.762447834014892578e+00 -2.446129322052001953e-01 2.000000000000000000e+00
3.510776519775391336e+01 1.582963943481444957e+01 1.031911563873291016e+01 8.000000000000000000e+00
2.086303710937500000e+00 9.376220107078552246e-01 -6.128835082054138184e-01 1.800000000000000000e+01
3.845579147338867188e+01 1.727465057373046875e+01 7.358632683753967285e-01 4.000000000000000000e+01
2.385759115219116211e+00 1.071201801300049050e+00 -6.037686467170715332e-01 1.100000000000000000e+01
2.754781007766724077e+00 1.236314296722412109e+00 -5.869284868240356445e-01 1.300000000000000000e+01
3.314773082733153853e+00 1.486242532730102983e+00 -5.753659605979919434e-01 1.000000000000000000e+01
4.114223957061767578e+00 1.842967271804810014e+00 -5.535305738449096680e-01 1.300000000000000000e+01
5.377118110656738281e+00 2.407554149627685991e+00 -5.154390335083007812e-01 9.000000000000000000e+00
7.724755764007568359e+00 3.455450296401977983e+00 -4.434948861598969061e-01 2.000000000000000000e+00
1.283084583282471058e+01 5.734140396118164062e+00 -2.453110218048095981e-01 2.000000000000000000e+00
3.453570556640625000e+01 1.543410205841063920e+01 1.013587188720702947e+01 8.000000000000000000e+00
2.084269285202025923e+00 9.279764890670776367e-01 -6.113305687904357910e-01 1.900000000000000000e+01
2.396605730056763139e+00 1.066035389900207964e+00 -6.055682301521301270e-01 1.400000000000000000e+01
2.757285833358765093e+00 1.225893259048461914e+00 -5.865468382835388184e-01 1.200000000000000000e+01
3.310914516448975053e+00 1.470653414726257102e+00 -5.738016366958618164e-01 1.100000000000000000e+01
4.118817806243895596e+00 1.827789425849914995e+00 -5.532867908477783203e-01 1.200000000000000000e+01
5.387310981750488281e+00 2.389577627182006836e+00 -5.156133770942687988e-01 9.000000000000000000e+00
7.744074344635009766e+00 3.431701421737670898e+00 -4.439135789871215820e-01 2.000000000000000000e+00
3.297007751464843750e+01 1.460344409942626953e+01 8.324988365173339844e+00 1.000000000000000000e+01
1.285078334808349965e+01 5.689317226409912109e+00 -2.453110218048095981e-01 2.000000000000000000e+00
3.515382385253906250e+01 1.555601406097411932e+01 1.030047988891601918e+01 8.000000000000000000e+00
2.085728406906127930e+00 9.199157953262329102e-01 -6.108129620552062988e-01 1.700000000000000000e+01
2.394962549209595171e+00 1.055305838584899902e+00 -6.042185425758361816e-01 1.600000000000000000e+01
2.783108711242675781e+00 1.225756883621216042e+00 -5.911262631416320801e-01 1.400000000000000000e+01
3.306987285614014116e+00 1.455109238624572976e+00 -5.722372531890869141e-01 1.000000000000000000e+01
3.466514587402343750e+01 1.524580860137938920e+01 4.649803161621093750e+00 1.900000000000000000e+01
4.126989841461181641e+00 1.814199805259705034e+00 -5.535305738449096680e-01 1.300000000000000000e+01
5.388322830200195312e+00 2.367552042007445845e+00 -5.149161219596862793e-01 9.000000000000000000e+00
7.781609535217285156e+00 3.415887832641602007e+00 -4.453789889812468927e-01 1.000000000000000000e+00
3.657562637329102273e+01 1.604796409606933949e+01 9.221193313598632812e+00 1.200000000000000000e+01
1.294748020172118963e+01 5.678156852722167969e+00 -2.467770278453826904e-01 2.000000000000000000e+00
3.525121688842772727e+01 1.545952796936034979e+01 1.031393909454346058e+01 8.000000000000000000e+00
2.101318597793579102e+00 9.180435538291931152e-01 -6.144363880157470703e-01 1.600000000000000000e+01
2.387915372848511186e+00 1.042262196540832964e+00 -6.015191078186035156e-01 1.500000000000000000e+01
2.792768716812133789e+00 1.218389630317687988e+00 -5.922711491584777832e-01 1.400000000000000000e+01
3.310235738754272017e+00 1.442767620086669922e+00 -5.719243884086608887e-01 1.100000000000000000e+01
3.474727249145507812e+01 1.513739681243895951e+01 4.653702735900878906e+00 1.900000000000000000e+01
4.146038055419921875e+00 1.805330395698546919e+00 -5.552367568016052246e-01 1.200000000000000000e+01
3.625063705444335938e+01 1.577727413177490057e+01 6.261758804321289062e+00 1.400000000000000000e+01
5.403861522674561435e+00 2.351909160614014116e+00 -5.156133770942687988e-01 9.000000000000000000e+00
7.789822578430175781e+00 3.387111186981201172e+00 -4.451696574687957764e-01 2.000000000000000000e+00
3.401846694946289062e+01 1.478459072113036932e+01 8.563436508178710938e+00 1.100000000000000000e+01
1.300390434265137074e+01 5.648861885070800781e+00 -2.474751174449920932e-01 2.000000000000000000e+00
3.692727279663085938e+01 1.603344917297362926e+01 1.078705978393555043e+01 9.000000000000000000e+00
2.109829187393188032e+00 9.130046367645263672e-01 -6.159893274307250977e-01 1.700000000000000000e+01
2.398694038391112837e+00 1.037013649940490945e+00 -6.033187508583068848e-01 1.500000000000000000e+01
2.789795875549315962e+00 1.205518603324889915e+00 -5.907446742057800293e-01 1.400000000000000000e+01
3.324319601058959961e+00 1.435118556022644043e+00 -5.734887719154357910e-01 1.000000000000000000e+01
4.145023345947265625e+00 1.787702441215514915e+00 -5.542617440223693848e-01 1.200000000000000000e+01
3.639345169067382812e+01 1.569609165191650035e+01 6.277402400970458984e+00 1.400000000000000000e+01
5.426675319671630859e+00 2.339341640472412109e+00 -5.170078873634338379e-01 9.000000000000000000e+00
7.797929763793945312e+00 3.358319044113159180e+00 -4.449602961540222168e-01 1.000000000000000000e+00
1.302354335784911932e+01 5.603435039520263672e+00 -2.474751174449920932e-01 2.000000000000000000e+00
3.711155700683593750e+01 1.596740627288818004e+01 1.082536506652832031e+01 9.000000000000000000e+00
2.105901002883911133e+00 9.025902748107910156e-01 -6.139187812805175781e-01 1.700000000000000000e+01
2.413047790527344194e+00 1.033236742019653098e+00 -6.060181260108947754e-01 1.500000000000000000e+01
2.786767482757567915e+00 1.192683219909667969e+00 -5.892181992530822754e-01 1.600000000000000000e+01
3.334757804870605025e+00 1.425835609436034934e+00 -5.744273662567138672e-01 1.100000000000000000e+01
4.162191390991210938e+00 1.777901411056518999e+00 -5.557242035865783691e-01 1.200000000000000000e+01
5.442137718200683594e+00 2.323513984680175781e+00 -5.177050828933715820e-01 9.000000000000000000e+00
7.820627689361572266e+00 3.335780382156372070e+00 -4.455883204936981201e-01 2.000000000000000000e+00
1.307245731353759943e+01 5.570483207702636719e+00 -2.480335980653763095e-01 2.000000000000000000e+00
3.515431213378906250e+01 1.497283363342284979e+01 1.023836421966552912e+01 8.000000000000000000e+00
2.094812393188477007e+00 8.891951441764831543e-01 -6.097776889801025391e-01 1.600000000000000000e+01
2.418433904647827148e+00 1.025568127632140891e+00 -6.064680218696594238e-01 1.400000000000000000e+01
2.781875848770142046e+00 1.179117560386657937e+00 -5.873100757598876953e-01 1.400000000000000000e+01
3.345171689987183061e+00 1.416497230529784934e+00 -5.753659605979919434e-01 1.000000000000000000e+01
4.175684928894042969e+00 1.766455531120300071e+00 -5.566991567611694336e-01 1.300000000000000000e+01
5.439204692840576172e+00 2.299847841262816939e+00 -5.166592597961425781e-01 9.000000000000000000e+00
7.813825607299804688e+00 3.300689220428466797e+00 -4.445416033267974854e-01 1.000000000000000000e+00
1.311761569976806996e+01 5.535702705383300781e+00 -2.485222667455672940e-01 2.000000000000000000e+00
3.521088790893554688e+01 1.485917949676514027e+01 1.024043464660645064e+01 8.000000000000000000e+00
2.105027198791503906e+00 8.848719596862792969e-01 -6.118482351303100586e-01 1.600000000000000000e+01
2.413015365600585938e+00 1.013347268104553001e+00 -6.042185425758361816e-01 1.500000000000000000e+01
2.804077148437500000e+00 1.176998257637023926e+00 -5.911262631416320801e-01 1.300000000000000000e+01
3.331878900527954102e+00 1.397172808647155984e+00 -5.722372531890869141e-01 1.100000000000000000e+01
4.185487270355224609e+00 1.753402948379517046e+00 -5.571866631507873535e-01 1.200000000000000000e+01
5.456388473510742188e+00 2.284694910049438032e+00 -5.175307989120483398e-01 9.000000000000000000e+00
3.484449768066406250e+01 1.458291625976563033e+01 7.342329978942871094e+00 6.200000000000000000e+01
7.832669734954833984e+00 3.276476621627808061e+00 -4.449602961540222168e-01 2.000000000000000000e+00
1.319959068298340021e+01 5.516095638275145596e+00 -2.497090250253677091e-01 2.000000000000000000e+00
3.763596725463867188e+01 1.572031688690186080e+01 1.092889308929443004e+01 1.000000000000000000e+01
2.111670255661011186e+00 8.790034651756286621e-01 -6.128835082054138184e-01 1.500000000000000000e+01
2.402143001556396040e+00 9.989320039749145508e-01 -6.006193161010742188e-01 1.600000000000000000e+01
2.808168649673461914e+00 1.167203068733215110e+00 -5.911262631416320801e-01 1.300000000000000000e+01
3.354979038238524947e+00 1.393109202384948953e+00 -5.753659605979919434e-01 1.100000000000000000e+01
3.641425704956054688e+01 1.511307144165039062e+01 4.840894222259520596e+00 2.000000000000000000e+01
4.197083473205566406e+00 1.741063952445984109e+00 -5.579178333282470703e-01 1.100000000000000000e+01
5.466170787811279297e+00 2.266397714614868164e+00 -5.177050828933715820e-01 9.000000000000000000e+00
7.858820915222167969e+00 3.255230188369750977e+00 -4.457976818084716797e-01 2.000000000000000000e+00
1.324832916259765980e+01 5.482220649719238281e+00 -2.502675056457520086e-01 2.000000000000000000e+00
3.759863662719727273e+01 1.555849170684813920e+01 1.090301132202148082e+01 1.000000000000000000e+01
2.121869802474976030e+00 8.745716810226440430e-01 -6.149540543556213379e-01 1.600000000000000000e+01
2.421833038330078125e+00 9.972186684608459473e-01 -6.046684384346008301e-01 1.600000000000000000e+01
2.810410261154174805e+00 1.156646370887755904e+00 -5.907446742057800293e-01 1.400000000000000000e+01
3.359821557998656782e+00 1.381389617919922097e+00 -5.753659605979919434e-01 1.000000000000000000e+01
3.652187347412108664e+01 1.500850582122802912e+01 4.848206043243408203e+00 2.000000000000000000e+01
4.197626590728759766e+00 1.724140167236327903e+00 -5.571866631507873535e-01 1.100000000000000000e+01
3.556549453735352273e+01 1.460823249816895064e+01 6.089680671691895419e+00 1.400000000000000000e+01
5.488793373107910156e+00 2.253356933593750000e+00 -5.190995931625366211e-01 9.000000000000000000e+00
7.873831748962402344e+00 3.229293584823607954e+00 -4.460070133209229071e-01 2.000000000000000000e+00
3.331088256835938211e+01 1.365499687194824041e+01 8.311491966247558594e+00 1.000000000000000000e+01
1.330439281463623047e+01 5.451104640960693359e+00 -2.509655952453612726e-01 2.000000000000000000e+00
3.766701889038085938e+01 1.543301296234131037e+01 1.090715217590332031e+01 1.000000000000000000e+01
2.121030092239379883e+00 8.664401769638061523e-01 -6.139187812805175781e-01 1.500000000000000000e+01
2.430366754531859907e+00 9.918143153190612793e-01 -6.060181260108947754e-01 1.500000000000000000e+01
2.812212228775023970e+00 1.147070050239562988e+00 -5.903630256652832031e-01 1.200000000000000000e+01
3.362315416336060014e+00 1.370082259178162065e+00 -5.750530958175659180e-01 1.100000000000000000e+01
4.212215423583984375e+00 1.714686632156372070e+00 -5.584053397178649902e-01 1.100000000000000000e+01
5.495845794677734375e+00 2.236102104187012163e+00 -5.190995931625366211e-01 9.000000000000000000e+00
7.880237579345703125e+00 3.203037261962891069e+00 -4.457976818084716797e-01 2.000000000000000000e+00
1.333998012542724965e+01 5.416804313659667969e+00 -2.513146400451660156e-01 2.000000000000000000e+00
3.774395751953125000e+01 1.532623100280762074e+01 1.091543483734131037e+01 1.000000000000000000e+01
2.116878032684326172e+00 8.561338782310485840e-01 -6.118482351303100586e-01 1.600000000000000000e+01
2.444654941558837891e+00 9.877047538757324219e-01 -6.087175607681274414e-01 1.600000000000000000e+01
2.814378738403319868e+00 1.136511445045470969e+00 -5.899814367294311523e-01 1.300000000000000000e+01
3.381732702255249023e+00 1.364249467849731001e+00 -5.775560736656188965e-01 1.100000000000000000e+01
4.227380752563476562e+00 1.703683018684386985e+00 -5.596240162849426270e-01 1.100000000000000000e+01
5.512857913970947266e+00 2.220626592636107954e+00 -5.199711322784423828e-01 9.000000000000000000e+00
7.906192779541015625e+00 3.181475400924683061e+00 -4.466350376605988104e-01 2.000000000000000000e+00
3.468437957763671875e+01 1.395006465911865057e+01 8.630922317504882812e+00 1.100000000000000000e+01
1.337736129760742010e+01 5.377664566040039062e+00 -2.516637146472930908e-01 2.000000000000000000e+00
3.769590759277343750e+01 1.514601516723632990e+01 1.088541126251221058e+01 1.000000000000000000e+01
2.119853496551514116e+00 8.487393856048583984e-01 -6.118482351303100586e-01 1.800000000000000000e+01
2.433612823486328125e+00 9.733756780624389648e-01 -6.051183342933654785e-01 1.500000000000000000e+01
2.838381528854370117e+00 1.134696960449218972e+00 -5.941792130470275879e-01 1.400000000000000000e+01
3.364460468292235884e+00 1.343645095825195090e+00 -5.738016366958618164e-01 1.100000000000000000e+01
4.225926876068115234e+00 1.685973882675170898e+00 -5.586490631103515625e-01 1.100000000000000000e+01
5.526127815246582031e+00 2.203583478927611861e+00 -5.204941034317016602e-01 9.000000000000000000e+00
3.964453125000000000e+01 1.580052471160889027e+01 8.295612335205078125e+00 6.300000000000000000e+01
7.917250156402587891e+00 3.153858184814453125e+00 -4.466350376605988104e-01 2.000000000000000000e+00
3.657958602905272727e+01 1.456418132781982067e+01 9.089821815490722656e+00 1.200000000000000000e+01
1.339976692199707031e+01 5.332415103912354404e+00 -2.517335116863250732e-01 2.000000000000000000e+00
3.763643264770507812e+01 1.497735595703125000e+01 1.085383510589599965e+01 1.900000000000000000e+01
2.131783008575439009e+00 8.448935151100158691e-01 -6.144363880157470703e-01 1.600000000000000000e+01
2.429748058319091797e+00 9.620053768157958984e-01 -6.033187508583068848e-01 1.600000000000000000e+01
2.840499639511107954e+00 1.124059915542602983e+00 -5.937975645065307617e-01 1.700000000000000000e+01
3.378315210342406782e+00 1.335523843765259011e+00 -5.753659605979919434e-01 1.000000000000000000e+01
4.231786251068115234e+00 1.671212434768676980e+00 -5.586490631103515625e-01 1.100000000000000000e+01
5.537492752075195312e+00 2.185743331909180132e+00 -5.208427309989929199e-01 9.000000000000000000e+00
7.939359188079833984e+00 3.130598545074462891e+00 -4.472630918025969904e-01 2.000000000000000000e+00
3.659394073486328125e+01 1.442211532592773082e+01 9.080823898315429688e+00 1.200000000000000000e+01
1.352621078491210938e+01 5.328116416931152344e+00 -2.537579834461212158e-01 2.000000000000000000e+00
3.756446456909179688e+01 1.479703521728515980e+01 1.081811809539794922e+01 9.000000000000000000e+00
2.140260934829711914e+00 8.391900658607482910e-01 -6.159893274307250977e-01 1.600000000000000000e+01
2.438701391220093218e+00 9.552256464958190918e-01 -6.046684384346008301e-01 1.400000000000000000e+01
2.840944051742554155e+00 1.112210035324096902e+00 -5.930343866348266602e-01 1.400000000000000000e+01
3.392385959625244141e+00 1.326730251312256081e+00 -5.769302845001220703e-01 1.100000000000000000e+01
4.033664703369141336e+01 1.576716613769531072e+01 5.317646980285645419e+00 3.200000000000000000e+01
4.248977184295654297e+00 1.660025238990783913e+00 -5.601115226745605469e-01 1.100000000000000000e+01
5.541754722595214844e+00 2.163983345031737837e+00 -5.204941034317016602e-01 9.000000000000000000e+00
7.932173252105712891e+00 3.094219923019409180e+00 -4.462163746356964111e-01 1.000000000000000000e+00
3.661206054687500000e+01 1.427444553375243963e+01 9.072276115417480469e+00 1.200000000000000000e+01
1.357546043395995916e+01 5.290121555328369141e+00 -2.543164789676666260e-01 2.000000000000000000e+00
2.134172439575194868e+00 8.282194733619689941e-01 -6.134011149406433105e-01 1.600000000000000000e+01
2.440203905105590820e+00 9.460027813911437988e-01 -6.042185425758361816e-01 1.300000000000000000e+01
3.754485702514647727e+01 1.454761600494384943e+01 2.110185861587523970e+00 2.300000000000000000e+01
2.846639633178710938e+00 1.102995753288269043e+00 -5.934159755706787109e-01 1.300000000000000000e+01
3.404365301132202148e+00 1.317732691764831987e+00 -5.781818032264709473e-01 1.100000000000000000e+01
4.251042842864990234e+00 1.643751502037047896e+00 -5.596240162849426270e-01 1.200000000000000000e+01
3.531085968017578125e+01 1.364657211303710938e+01 5.995820045471191406e+00 1.300000000000000000e+01
5.532548904418945312e+00 2.138161659240723100e+00 -5.189253091812133789e-01 9.000000000000000000e+00
7.950378417968750000e+00 3.069390058517456055e+00 -4.466350376605988104e-01 2.000000000000000000e+00
3.577080154418945312e+01 1.380280399322509943e+01 8.851823806762695312e+00 1.200000000000000000e+01
1.360130691528319957e+01 5.245580196380615234e+00 -2.544560730457305908e-01 2.000000000000000000e+00
3.760702896118164062e+01 1.449626445770264027e+01 1.079948329925536932e+01 9.000000000000000000e+00
2.131354093551636186e+00 8.194308876991271973e-01 -6.118482351303100586e-01 1.700000000000000000e+01
2.466813087463378906e+00 9.474148750305175781e-01 -6.100672483444213867e-01 1.300000000000000000e+01
2.855589389801024947e+00 1.096158027648926003e+00 -5.945608019828796387e-01 1.400000000000000000e+01
3.406643629074097124e+00 1.306323885917664018e+00 -5.778689384460449219e-01 1.100000000000000000e+01
4.263600826263427734e+00 1.633228778839111106e+00 -5.605989694595336914e-01 1.100000000000000000e+01
5.559706211090087891e+00 2.128606557846068892e+00 -5.208427309989929199e-01 9.000000000000000000e+00
8.012215614318847656e+00 3.064375400543212891e+00 -4.495658576488494873e-01 1.000000000000000000e+00
3.572297668457031250e+01 1.365556716918944957e+01 8.829328536987304688e+00 1.200000000000000000e+01
1.363266277313232067e+01 5.208534240722656250e+00 -2.547353208065032959e-01 2.000000000000000000e+00
2.141423940658568892e+00 8.147339224815368652e-01 -6.139187812805175781e-01 1.500000000000000000e+01
2.466461896896361861e+00 9.374136328697204590e-01 -6.091674566268920898e-01 1.300000000000000000e+01
2.861233711242675781e+00 1.086880683898926003e+00 -5.949424505233764648e-01 1.400000000000000000e+01
3.409336090087891069e+00 1.293723583221435991e+00 -5.775560736656188965e-01 1.100000000000000000e+01
4.272988319396972656e+00 1.619743347167968972e+00 -5.610864758491516113e-01 1.100000000000000000e+01
5.559649944305419922e+00 2.106363058090209961e+00 -5.201454758644104004e-01 9.000000000000000000e+00
8.007919311523437500e+00 3.030733108520507812e+00 -4.487285017967224121e-01 2.000000000000000000e+00
3.629900741577147727e+01 1.373073291778563920e+01 8.959800720214843750e+00 1.200000000000000000e+01
1.363579750061034979e+01 5.155258178710938388e+00 -2.544560730457305908e-01 2.000000000000000000e+00
3.732218933105468750e+01 1.411032485961914062e+01 1.069129753112792969e+01 1.900000000000000000e+01
2.148011922836304155e+00 8.082404136657714844e-01 -6.149540543556213379e-01 1.600000000000000000e+01
2.449815750122069868e+00 9.208251833915710449e-01 -6.042185425758361816e-01 1.300000000000000000e+01
2.881738662719727007e+00 1.082600355148314986e+00 -5.983769893646240234e-01 1.200000000000000000e+01
3.410356044769287109e+00 1.279831051826477051e+00 -5.769302845001220703e-01 1.100000000000000000e+01
4.267743587493895596e+00 1.599890232086182085e+00 -5.596240162849426270e-01 1.100000000000000000e+01
5.574795722961425781e+00 2.088767766952515093e+00 -5.208427309989929199e-01 9.000000000000000000e+00
8.007750511169433594e+00 2.997161626815795898e+00 -4.481004476547241211e-01 2.000000000000000000e+00
3.556424713134766336e+01 1.330400276184082031e+01 8.766342163085937500e+00 1.100000000000000000e+01
1.371079254150390980e+01 5.126255035400390625e+00 -2.555032372474669855e-01 2.000000000000000000e+00
3.730189895629882812e+01 1.393918800354004084e+01 1.067007350921631037e+01 9.000000000000000000e+00
2.161682844161986861e+00 8.047816753387451172e-01 -6.180598735809326172e-01 1.500000000000000000e+01
2.463974237442017046e+00 9.163437485694885254e-01 -6.069179177284240723e-01 1.600000000000000000e+01
2.872618436813354048e+00 1.067746520042418990e+00 -5.957056879997253418e-01 1.300000000000000000e+01
3.424061775207519975e+00 1.271356821060181108e+00 -5.784946680068969727e-01 1.000000000000000000e+01
4.275163650512695312e+00 1.585673689842223899e+00 -5.598677396774291992e-01 1.100000000000000000e+01
5.589525699615479404e+00 2.072065591812133789e+00 -5.215399861335754395e-01 9.000000000000000000e+00
8.010672569274902344e+00 2.966416835784912109e+00 -4.476817548274993896e-01 2.000000000000000000e+00
3.550812530517578125e+01 1.314190006256104049e+01 8.741147994995117188e+00 1.100000000000000000e+01
1.374360656738281072e+01 5.083914279937744141e+00 -2.557824552059174139e-01 2.000000000000000000e+00
3.724160766601563211e+01 1.376870059967041016e+01 1.063901519775390980e+01 9.000000000000000000e+00
2.155414819717406782e+00 7.938925623893737793e-01 -6.154716610908508301e-01 1.500000000000000000e+01
2.467157840728760210e+00 9.077373147010803223e-01 -6.069179177284240723e-01 1.600000000000000000e+01
3.748077774047852273e+01 1.379024028778075994e+01 2.093019485473632812e+00 2.300000000000000000e+01
2.867114782333374023e+00 1.054324746131896973e+00 -5.937975645065307617e-01 1.300000000000000000e+01
3.435895919799805132e+00 1.262121319770812988e+00 -5.797461271286010742e-01 1.000000000000000000e+01
4.288126945495604581e+00 1.573476195335387962e+00 -5.608426928520202637e-01 1.000000000000000000e+01
5.600465297698974609e+00 2.053913831710814986e+00 -5.218886137008666992e-01 9.000000000000000000e+00
8.032230377197265625e+00 2.942558526992797852e+00 -4.483098089694976807e-01 2.000000000000000000e+00
1.374624633789063033e+01 5.030411720275878906e+00 -2.555032372474669855e-01 2.000000000000000000e+00
3.721687316894531250e+01 1.361207580566406072e+01 1.061830997467041016e+01 9.000000000000000000e+00
2.143651962280272993e+00 7.810730338096618652e-01 -6.113305687904357910e-01 1.600000000000000000e+01
2.479467391967772993e+00 9.024523496627807617e-01 -6.091674566268920898e-01 1.600000000000000000e+01
2.874467611312866211e+00 1.045652508735656960e+00 -5.945608019828796387e-01 1.300000000000000000e+01
3.447706937789916992e+00 1.252818703651428001e+00 -5.809975862503051758e-01 1.100000000000000000e+01
4.301056861877441406e+00 1.561207532882689986e+00 -5.618176460266113281e-01 1.100000000000000000e+01
5.605728149414063388e+00 2.033672571182250977e+00 -5.217142701148986816e-01 9.000000000000000000e+00
8.068741798400878906e+00 2.924029588699340820e+00 -4.497752189636229914e-01 2.000000000000000000e+00
3.862956619262695312e+01 1.399133396148681996e+01 9.485285758972167969e+00 1.200000000000000000e+01
1.379380607604979936e+01 4.993288040161132812e+00 -2.560617029666901190e-01 2.000000000000000000e+00
3.708250045776367188e+01 1.341635704040526988e+01 1.056654644012450994e+01 9.000000000000000000e+00
2.158951520919799805e+00 7.785475254058837891e-01 -6.149540543556213379e-01 1.500000000000000000e+01
2.476946115493773970e+00 8.922438621520996094e-01 -6.078177690505981445e-01 1.500000000000000000e+01
2.876072168350220171e+00 1.035449743270874023e+00 -5.941792130470275879e-01 1.200000000000000000e+01
3.438830614089965820e+00 1.236699461936950906e+00 -5.788075327873229980e-01 9.000000000000000000e+00
4.309947013854979581e+00 1.548278331756592019e+00 -5.623051524162292480e-01 1.100000000000000000e+01
5.610565662384033203e+00 2.014399051666260210e+00 -5.215399861335754395e-01 9.000000000000000000e+00
8.074633598327636719e+00 2.895908117294311968e+00 -4.495658576488494873e-01 1.000000000000000000e+00
1.389688587188721058e+01 4.978541851043701172e+00 -2.576673328876494806e-01 2.000000000000000000e+00
3.700443267822266336e+01 1.325679206848145064e+01 1.053238201141357067e+01 9.000000000000000000e+00
2.158016681671143022e+00 7.697086334228515625e-01 -6.139187812805175781e-01 1.400000000000000000e+01
2.463524103164672852e+00 8.777060508728027344e-01 -6.037686467170715332e-01 1.400000000000000000e+01
2.900013446807860884e+00 1.032648324966431108e+00 -5.983769893646240234e-01 1.200000000000000000e+01
3.446848869323730025e+00 1.226012110710144043e+00 -5.794332623481750488e-01 9.000000000000000000e+00
4.311583995819091797e+00 1.531895160675049050e+00 -5.618176460266113281e-01 1.100000000000000000e+01
5.602542877197265625e+00 1.989468455314636008e+00 -5.201454758644104004e-01 9.000000000000000000e+00
8.084692955017089844e+00 2.867704868316649947e+00 -4.495658576488494873e-01 1.000000000000000000e+00
3.668145751953125000e+01 1.300399684906006037e+01 8.984994888305664062e+00 1.200000000000000000e+01
1.392171859741210938e+01 4.932673931121826172e+00 -2.578069567680358887e-01 2.000000000000000000e+00
2.164200782775878906e+00 7.638340592384338379e-01 -6.149540543556213379e-01 1.500000000000000000e+01
2.471934795379639116e+00 8.714756965637207031e-01 -6.051183342933654785e-01 1.500000000000000000e+01
2.892311811447143999e+00 1.019111275672913042e+00 -5.960872769355773926e-01 1.300000000000000000e+01
3.469528913497924805e+00 1.221133351325988992e+00 -5.825619697570800781e-01 9.000000000000000000e+00
4.305404186248779297e+00 1.513638734817505105e+00 -5.603552460670471191e-01 1.200000000000000000e+01
5.657982349395751953e+00 1.988051414489746094e+00 -5.246775746345520020e-01 9.000000000000000000e+00
8.128080368041992188e+00 2.852785110473632812e+00 -4.514499604701995850e-01 1.000000000000000000e+00
3.668024444580078125e+01 1.286680412292479936e+01 8.974197387695312500e+00 1.200000000000000000e+01
1.395309638977050959e+01 4.891773223876953125e+00 -2.580861747264862061e-01 2.000000000000000000e+00
2.174149751663208008e+00 7.588213682174682617e-01 -6.170246005058288574e-01 1.700000000000000000e+01
2.480482101440430132e+00 8.647662401199340820e-01 -6.064680218696594238e-01 1.300000000000000000e+01
2.888435840606689009e+00 1.006425142288208008e+00 -5.945608019828796387e-01 1.300000000000000000e+01
3.466307878494263139e+00 1.206417798995971902e+00 -5.813104510307312012e-01 9.000000000000000000e+00
4.323786735534667969e+00 1.503163695335387962e+00 -5.620614290237426758e-01 1.100000000000000000e+01
5.657359600067138672e+00 1.965673565864562988e+00 -5.239803194999694824e-01 3.000000000000000000e+00
8.137989044189453125e+00 2.824395418167113814e+00 -4.514499604701995850e-01 1.000000000000000000e+00
1.398898029327392933e+01 4.849587917327880859e+00 -2.584352493286132812e-01 2.000000000000000000e+00
2.169480562210083008e+00 7.487066388130187988e-01 -6.149540543556213379e-01 1.600000000000000000e+01
2.505593776702880859e+00 8.637235760688781738e-01 -6.118668913841247559e-01 1.200000000000000000e+01
2.893787622451781782e+00 9.969759583473205566e-01 -5.949424505233764648e-01 1.300000000000000000e+01
3.474233627319335938e+00 1.195596337318419966e+00 -5.819361805915832520e-01 1.000000000000000000e+01
4.330884456634520596e+00 1.488707065582274947e+00 -5.623051524162292480e-01 1.200000000000000000e+01
5.639690876007080078e+00 1.937498211860656960e+00 -5.217142701148986816e-01 4.000000000000000000e+00
8.147797584533691406e+00 2.795971393585205078e+00 -4.514499604701995850e-01 1.000000000000000000e+00
1.399825668334960938e+01 4.798134326934813565e+00 -2.582956254482268732e-01 2.000000000000000000e+00
2.170252561569213867e+00 7.405053377151489258e-01 -6.144363880157470703e-01 1.500000000000000000e+01
2.490148067474364790e+00 8.486856222152709961e-01 -6.073678731918334961e-01 1.300000000000000000e+01
2.904683589935303178e+00 9.894007444381713867e-01 -5.964689254760742188e-01 1.300000000000000000e+01
3.474645614624022993e+00 1.182189226150512917e+00 -5.813104510307312012e-01 9.000000000000000000e+00
4.347331523895263672e+00 1.477412819862365945e+00 -5.637676119804382324e-01 1.200000000000000000e+01
5.652079105377197266e+00 1.919722557067871094e+00 -5.222371816635131836e-01 9.000000000000000000e+00
8.183987617492675781e+00 2.776496410369873047e+00 -4.529153704643250067e-01 1.000000000000000000e+00
3.684619140625000000e+01 1.249325466156006037e+01 8.982295989990234375e+00 1.200000000000000000e+01
1.402628326416015980e+01 4.753092765808104581e+00 -2.585050463676453192e-01 2.000000000000000000e+00
2.176613330841064009e+00 7.337802648544311523e-01 -6.154716610908508301e-01 1.600000000000000000e+01
2.484007596969604048e+00 8.364436030387878418e-01 -6.051183342933654785e-01 1.300000000000000000e+01
3.900968933105468750e+01 1.312821006774901988e+01 2.157078742980957031e+00 2.600000000000000000e+01
2.915733337402344194e+00 9.812526702880859375e-01 -5.979954004287719727e-01 1.300000000000000000e+01
3.471465587615966797e+00 1.166928410530090110e+00 -5.800589919090270996e-01 9.000000000000000000e+00
4.352717399597167969e+00 1.461469173431396040e+00 -5.637676119804382324e-01 1.100000000000000000e+01
5.662855148315429688e+00 1.900261402130126953e+00 -5.225858092308044434e-01 9.000000000000000000e+00
8.148659706115722656e+00 2.731248617172241211e+00 -4.504032433032990057e-01 2.000000000000000000e+00
1.409670543670653942e+01 4.719427585601806641e+00 -2.594823837280272882e-01 2.000000000000000000e+00
2.191990613937377930e+00 7.304531931877136230e-01 -6.190951466560363770e-01 1.700000000000000000e+01
2.492459297180175781e+00 8.296140432357788086e-01 -6.064680218696594238e-01 1.100000000000000000e+01
2.915415048599243164e+00 9.698294997215270996e-01 -5.972321629524230957e-01 1.300000000000000000e+01
3.498013019561768022e+00 1.162278056144713911e+00 -5.838134288787841797e-01 9.000000000000000000e+00
3.630152893066406250e+01 1.205480480194091975e+01 4.696600914001464844e+00 2.000000000000000000e+01
4.355908393859863281e+00 1.445641160011291948e+00 -5.635238289833068848e-01 1.100000000000000000e+01
5.695928573608398438e+00 1.889264225959778054e+00 -5.250262022018432617e-01 9.000000000000000000e+00
8.188478469848632812e+00 2.712837696075439009e+00 -4.520779848098754883e-01 2.000000000000000000e+00
3.900291442871093750e+01 1.291408634185791016e+01 9.485285758972167969e+00 1.200000000000000000e+01
1.415865612030028942e+01 4.685269355773925781e+00 -2.603200972080231268e-01 2.000000000000000000e+00
2.183266639709473100e+00 7.199333310127258301e-01 -6.159893274307250977e-01 1.700000000000000000e+01
2.513562440872191939e+00 8.278759121894836426e-01 -6.109670400619506836e-01 1.300000000000000000e+01
2.901664018630981001e+00 9.551410675048828125e-01 -5.937975645065307617e-01 1.200000000000000000e+01
3.499770641326903853e+00 1.150665998458862083e+00 -5.835005640983581543e-01 9.000000000000000000e+00
4.354770660400390625e+00 1.430091500282288042e+00 -5.627925992012023926e-01 1.100000000000000000e+01
5.663975238800048828e+00 1.858934640884398970e+00 -5.215399861335754395e-01 9.000000000000000000e+00
8.223530769348144531e+00 2.695809602737427202e+00 -4.535433948040009100e-01 1.000000000000000000e+00
3.915810775756835938e+01 1.282910823822020951e+01 9.513179779052734375e+00 1.200000000000000000e+01
1.415810203552245916e+01 4.635787487030029297e+00 -2.600408494472504217e-01 2.000000000000000000e+00
3.670963668823242188e+01 1.201983737945556996e+01 1.035017395019531072e+01 8.000000000000000000e+00
2.176582574844359907e+00 7.093150615692138672e-01 -6.134011149406433105e-01 1.500000000000000000e+01
2.527555227279663086e+00 8.227158784866333008e-01 -6.136664748191833496e-01 1.300000000000000000e+01
2.918049097061156782e+00 9.492578506469726562e-01 -5.964689254760742188e-01 1.300000000000000000e+01
3.498129844665526900e+00 1.136611342430114968e+00 -5.825619697570800781e-01 9.000000000000000000e+00
4.369176864624023438e+00 1.417945623397826926e+00 -5.640113353729248047e-01 1.100000000000000000e+01
5.676115036010742188e+00 1.840996384620666948e+00 -5.220628976821899414e-01 8.000000000000000000e+00
8.259491920471191406e+00 2.675705194473267046e+00 -4.550088047981262207e-01 2.000000000000000000e+00
3.927310562133789062e+01 1.271515178680419922e+01 9.530276298522949219e+00 1.200000000000000000e+01
1.419702816009520951e+01 4.593725681304931641e+00 -2.604597210884094238e-01 2.000000000000000000e+00
3.677182769775391336e+01 1.189115333557129084e+01 1.035534954071044922e+01 8.000000000000000000e+00
2.188362360000609907e+00 7.042919397354125977e-01 -6.159893274307250977e-01 1.400000000000000000e+01
2.513856649398804155e+00 8.080791234970092773e-01 -6.096173524856567383e-01 1.300000000000000000e+01
2.932723760604857954e+00 9.421592354774475098e-01 -5.987586379051208496e-01 1.300000000000000000e+01
3.502272129058837891e+00 1.123782396316528098e+00 -5.825619697570800781e-01 9.000000000000000000e+00
3.661276245117188211e+01 1.174097633361816051e+01 4.720974445343017578e+00 2.000000000000000000e+01
4.393248081207275391e+00 1.407980680465698020e+00 -5.664486885070800781e-01 1.100000000000000000e+01
5.690414428710938388e+00 1.822610974311829057e+00 -5.227601528167724609e-01 8.000000000000000000e+00
8.246416091918945312e+00 2.638111829757689986e+00 -4.537527263164520264e-01 2.000000000000000000e+00
1.427472400665283025e+01 4.561136722564697266e+00 -2.615766823291779120e-01 2.000000000000000000e+00
2.194489479064940962e+00 6.978196501731872559e-01 -6.170246005058288574e-01 1.500000000000000000e+01
2.514804601669311968e+00 7.987092733383178711e-01 -6.091674566268920898e-01 1.300000000000000000e+01
2.935994625091553178e+00 9.319163560867309570e-01 -5.987586379051208496e-01 1.300000000000000000e+01
3.506173610687255859e+00 1.111550331115723100e+00 -5.825619697570800781e-01 9.000000000000000000e+00
3.660810852050781250e+01 1.159871292114257990e+01 4.715125083923339844e+00 2.000000000000000000e+01
4.381103992462158203e+00 1.387243628501892090e+00 -5.642550587654113770e-01 1.000000000000000000e+01
5.727134704589843750e+00 1.812354445457458052e+00 -5.255491137504577637e-01 8.000000000000000000e+00
8.274618148803710938e+00 2.615329504013061968e+00 -4.547994732856749933e-01 2.000000000000000000e+00
3.917726135253906250e+01 1.237509918212890980e+01 9.485285758972167969e+00 1.200000000000000000e+01
1.427530288696289062e+01 4.506464958190917969e+00 -2.612974345684052069e-01 2.000000000000000000e+00
3.479432678222656250e+01 1.098396301269531072e+01 9.776630401611328125e+00 7.000000000000000000e+00
2.204284191131591797e+00 6.924712061882019043e-01 -6.190951466560363770e-01 1.600000000000000000e+01
2.510139942169189009e+00 7.875925302505493164e-01 -6.073678731918334961e-01 1.300000000000000000e+01
2.929862976074219194e+00 9.187250733375549316e-01 -5.968505144119262695e-01 1.300000000000000000e+01
3.513802528381348100e+00 1.100485444068908913e+00 -5.831876993179321289e-01 9.000000000000000000e+00
3.659911727905272727e+01 1.145543861389159979e+01 4.708787918090820312e+00 2.000000000000000000e+01
4.384025096893311435e+00 1.371349692344665971e+00 -5.640113353729248047e-01 1.100000000000000000e+01
5.725819587707520419e+00 1.789973974227905051e+00 -5.248518586158752441e-01 8.000000000000000000e+00
8.279884338378906250e+00 2.585239410400391069e+00 -4.545901119709014893e-01 2.000000000000000000e+00
3.881840133666992188e+01 1.211288547515868963e+01 9.388107299804687500e+00 1.200000000000000000e+01
1.432530879974365057e+01 4.467323303222656250e+00 -2.619257271289824884e-01 2.000000000000000000e+00
3.479188156127929688e+01 1.084978866577148082e+01 9.765242576599121094e+00 7.000000000000000000e+00
2.193772554397583008e+00 6.807647347450256348e-01 -6.154716610908508301e-01 1.500000000000000000e+01
2.520319461822510210e+00 7.811333537101745605e-01 -6.091674566268920898e-01 1.100000000000000000e+01
3.998441314697266336e+01 1.238489055633544922e+01 2.193713903427124023e+00 2.700000000000000000e+01
2.931176900863647017e+00 9.079114198684692383e-01 -5.964689254760742188e-01 1.300000000000000000e+01
3.521396636962891069e+00 1.089380979537964089e+00 -5.838134288787841797e-01 9.000000000000000000e+00
3.625957489013671875e+01 1.121034526824950994e+01 4.660039901733398438e+00 2.000000000000000000e+01
4.394474983215332031e+00 1.357796311378479004e+00 -5.647425651550292969e-01 1.100000000000000000e+01
3.911912155151367188e+01 1.207947063446044922e+01 6.484521389007568359e+00 1.400000000000000000e+01
5.712995529174804688e+00 1.764097929000854048e+00 -5.231087803840637207e-01 9.000000000000000000e+00
8.315577507019042969e+00 2.564561843872069868e+00 -4.560555219650269110e-01 1.000000000000000000e+00
3.895355987548828125e+01 1.200601005554199041e+01 9.410602569580078125e+00 1.200000000000000000e+01
1.435610485076903942e+01 4.422000408172607422e+00 -2.622049450874329168e-01 2.000000000000000000e+00
3.396363067626953125e+01 1.045506572723389027e+01 9.521952629089355469e+00 7.000000000000000000e+00
2.192441463470458984e+00 6.719706654548645020e-01 -6.144363880157470703e-01 1.600000000000000000e+01
2.526757478713988814e+00 7.734718322753906250e-01 -6.100672483444213867e-01 1.400000000000000000e+01
3.964542007446289062e+01 1.212838840484618963e+01 2.172779560089110884e+00 2.600000000000000000e+01
2.934328079223632812e+00 8.976742029190063477e-01 -5.964689254760742188e-01 1.200000000000000000e+01
3.530845403671265093e+00 1.078813910484313965e+00 -5.847520232200622559e-01 1.000000000000000000e+01
4.404883861541748047e+00 1.344186544418334961e+00 -5.654737353324890137e-01 1.100000000000000000e+01
3.904012298583983664e+01 1.190596675872802912e+01 6.464498043060302734e+00 1.400000000000000000e+01
5.724835872650145596e+00 1.745888710021973100e+00 -5.236316919326782227e-01 9.000000000000000000e+00
8.335942268371582031e+00 2.539011240005493164e+00 -4.566835463047028143e-01 1.000000000000000000e+00
3.911827468872070312e+01 1.190741729736327947e+01 9.440296173095703125e+00 1.200000000000000000e+01
1.434849548339843928e+01 4.364877700805664062e+00 -2.617861032485961914e-01 2.000000000000000000e+00
3.436036682128906250e+01 1.045257949829101918e+01 9.623409271240234375e+00 7.000000000000000000e+00
2.202169656753540039e+00 6.665521264076232910e-01 -6.165069937705993652e-01 1.500000000000000000e+01
2.535037994384766069e+00 7.663387656211853027e-01 -6.114169359207153320e-01 1.200000000000000000e+01
2.944961309432982954e+00 8.896970748901367188e-01 -5.979954004287719727e-01 1.300000000000000000e+01
3.530807256698607954e+00 1.065341234207153098e+00 -5.841262936592102051e-01 1.000000000000000000e+01
4.411449909210205078e+00 1.329375267028809038e+00 -5.657175183296203613e-01 1.000000000000000000e+01
5.749972820281982422e+00 1.731639981269835982e+00 -5.253748297691345215e-01 9.000000000000000000e+00
8.340929031372070312e+00 2.508747339248656782e+00 -4.564742147922515869e-01 1.000000000000000000e+00
3.926411056518554688e+01 1.180221080780028942e+01 9.465490341186523438e+00 1.200000000000000000e+01
1.440194702148438033e+01 4.326271533966063565e+00 -2.624841928482056219e-01 2.000000000000000000e+00
3.447805023193358664e+01 1.035703086853026988e+01 9.646185874938964844e+00 7.000000000000000000e+00
2.208069562911986861e+00 6.603528857231140137e-01 -6.175422668457031250e-01 1.500000000000000000e+01
2.509557008743286133e+00 7.495624423027038574e-01 -6.046684384346008301e-01 1.200000000000000000e+01
2.951657772064208984e+00 8.810494542121887207e-01 -5.987586379051208496e-01 1.200000000000000000e+01
3.534320831298828125e+00 1.053626775741576926e+00 -5.841262936592102051e-01 1.000000000000000000e+01
3.710363388061522727e+01 1.105402278900145951e+01 4.753635406494140625e+00 2.000000000000000000e+01
4.415833950042724609e+00 1.314738988876342995e+00 -5.657175183296203613e-01 1.000000000000000000e+01
3.855403900146483664e+01 1.147880649566650035e+01 6.371263027191162109e+00 1.400000000000000000e+01
5.755683422088623047e+00 1.712562799453734907e+00 -5.253748297691345215e-01 9.000000000000000000e+00
8.333887100219726562e+00 2.476522445678710938e+00 -4.556368291378021240e-01 2.000000000000000000e+00
3.941511917114257812e+01 1.170522785186767933e+01 9.492485046386718750e+00 1.200000000000000000e+01
1.445072078704833984e+01 4.288730144500732422e+00 -2.631124854087830145e-01 2.000000000000000000e+00
3.456776428222656250e+01 1.025912952423096058e+01 9.661714553833007812e+00 7.000000000000000000e+00
2.219625234603881836e+00 6.553765535354614258e-01 -6.201304197311401367e-01 1.600000000000000000e+01
2.534588098526000977e+00 7.474121451377868652e-01 -6.100672483444213867e-01 1.400000000000000000e+01
2.956598520278931108e+00 8.712958097457885742e-01 -5.991402268409729004e-01 1.300000000000000000e+01
3.537976980209351030e+00 1.041283249855041948e+00 -5.841262936592102051e-01 1.000000000000000000e+01
3.728672790527343750e+01 1.096700954437256037e+01 4.772159576416015625e+00 2.000000000000000000e+01
4.416587352752686435e+00 1.298197269439697044e+00 -5.652300119400024414e-01 1.000000000000000000e+01
