4.784420132637023926e-01 2.183345794677733931e+00 -5.989072918891906738e-01 1.700000000000000000e+01
5.448098182678222656e-01 2.482068061828612837e+00 -5.866723656654357910e-01 1.200000000000000000e+01
6.314468383789062500e-01 2.874377012252808061e+00 -5.720453858375549316e-01 1.000000000000000000e+01
7.577679753303527832e-01 3.443660497665404829e+00 -5.584710240364074707e-01 9.000000000000000000e+00
9.310529828071594238e-01 4.224124908447265625e+00 -5.311065912246704102e-01 1.000000000000000000e+01
1.212475299835205078e+00 5.496355056762695312e+00 -4.924299418926239014e-01 9.000000000000000000e+00
1.745675444602966087e+00 7.900330543518066406e+00 -4.240259230136870783e-01 2.000000000000000000e+00
3.177897214889525923e+00 1.435828495025634943e+01 -2.566899955272675116e-01 2.000000000000000000e+00
4.831609725952147882e-01 2.170433044433594194e+00 -5.958014130592346191e-01 1.600000000000000000e+01
5.547341108322143555e-01 2.487855911254882812e+00 -5.884719491004943848e-01 1.100000000000000000e+01
6.384095549583435059e-01 2.860770463943481001e+00 -5.697556734085083008e-01 1.100000000000000000e+01
7.657361030578613281e-01 3.425706386566162109e+00 -5.559681057929992676e-01 8.000000000000000000e+00
9.441881775856018066e-01 4.217139720916748047e+00 -5.306191444396972656e-01 9.000000000000000000e+00
1.227210044860840066e+00 5.476750373840332031e+00 -4.910354614257813055e-01 9.000000000000000000e+00
1.777112960815429910e+00 7.917883396148681641e+00 -4.252819716930388849e-01 2.000000000000000000e+00
3.232511281967163086e+00 1.437888336181640980e+01 -2.572484612464904785e-01 2.000000000000000000e+00
4.932923913002014160e-01 2.180038690567017046e+00 -5.989072918891906738e-01 1.700000000000000000e+01
5.608304738998413086e-01 2.474501132965087891e+00 -5.857725739479064941e-01 1.100000000000000000e+01
6.505630612373352051e-01 2.868097782135010210e+00 -5.716637372970581055e-01 1.000000000000000000e+01
7.741882205009460449e-01 3.407602310180664062e+00 -5.534651279449462891e-01 8.000000000000000000e+00
9.615457653999328613e-01 4.225431919097900391e+00 -5.320815443992614746e-01 9.000000000000000000e+00
1.246762394905090110e+00 5.474376201629638672e+00 -4.912097752094268799e-01 9.000000000000000000e+00
1.805629134178162065e+00 7.915526390075683594e+00 -4.254913330078125000e-01 1.000000000000000000e+00
3.282683134078979048e+00 1.436751270294188920e+01 -2.572484612464904785e-01 2.000000000000000000e+00
4.991674125194550116e-01 2.170772552490233931e+00 -5.968367457389831543e-01 1.700000000000000000e+01
5.677151679992675781e-01 2.464932203292847124e+00 -5.839729309082031250e-01 1.100000000000000000e+01
6.601296663284301758e-01 2.863896131515502930e+00 -5.712821483612060547e-01 1.000000000000000000e+01
7.869669795036315918e-01 3.408728599548339844e+00 -5.540908575057983398e-01 8.000000000000000000e+00
9.771838784217834473e-01 4.225917816162109375e+00 -5.325690507888793945e-01 9.000000000000000000e+00
1.265414714813231978e+00 5.468049526214599609e+00 -4.910354614257813055e-01 9.000000000000000000e+00
1.832346439361572044e+00 7.905283927917479581e+00 -4.252819716930388849e-01 2.000000000000000000e+00
3.318344354629517046e+00 1.429363346099854049e+01 -2.561315298080443781e-01 2.000000000000000000e+00
5.111367702484130859e-01 2.187829017639160156e+00 -6.020131111145019531e-01 1.700000000000000000e+01
5.772039294242858887e-01 2.466730594635010210e+00 -5.848727226257324219e-01 1.100000000000000000e+01
6.705701351165771484e-01 2.863486051559447798e+00 -5.716637372970581055e-01 9.000000000000000000e+00
8.011162877082824707e-01 3.415576696395874023e+00 -5.556552410125732422e-01 9.000000000000000000e+00
9.873894453048706055e-01 4.203156471252441406e+00 -5.301316380500793457e-01 9.000000000000000000e+00
1.287685990333556907e+00 5.477175712585449219e+00 -4.922556281089783270e-01 9.000000000000000000e+00
1.854436635971068892e+00 7.875510692596436435e+00 -4.240259230136870783e-01 1.000000000000000000e+00
3.359956026077270952e+00 1.424693012237549006e+01 -2.555032372474669855e-01 2.000000000000000000e+00
5.156481862068176270e-01 2.172873973846435991e+00 -5.983896255493164062e-01 1.600000000000000000e+01
5.885146856307983398e-01 2.476076126098632812e+00 -5.875721573829650879e-01 1.000000000000000000e+01
6.787442564964294434e-01 2.853487968444824219e+00 -5.701372623443603516e-01 9.000000000000000000e+00
8.125761747360229492e-01 3.410837888717650923e+00 -5.553423762321472168e-01 9.000000000000000000e+00
1.003898024559020996e+00 4.207407474517822266e+00 -5.311065912246704102e-01 9.000000000000000000e+00
1.305408716201782005e+00 5.466833591461181641e+00 -4.917326867580413818e-01 8.000000000000000000e+00
1.884703397750854048e+00 7.880644321441650391e+00 -4.246539473533629816e-01 1.000000000000000000e+00
3.432956695556641069e+00 1.433234882354735973e+01 -2.572484612464904785e-01 2.000000000000000000e+00
5.218719244003295898e-01 2.165426492691040039e+00 -5.968367457389831543e-01 1.700000000000000000e+01
5.971542000770568848e-01 2.474006891250609907e+00 -5.875721573829650879e-01 1.000000000000000000e+01
6.882396340370178223e-01 2.849193096160889116e+00 -5.697556734085083008e-01 1.000000000000000000e+01
8.240128159523010254e-01 3.406060695648192915e+00 -5.550295114517211914e-01 9.000000000000000000e+00
1.018578529357909934e+00 4.203877925872802734e+00 -5.311065912246704102e-01 1.000000000000000000e+01
1.322136044502258079e+00 5.452562332153320312e+00 -4.908611476421356201e-01 9.000000000000000000e+00
1.911257743835448997e+00 7.870135784149169922e+00 -4.244446158409119207e-01 2.000000000000000000e+00
3.449883937835692915e+00 1.418426513671875000e+01 -2.548051476478577215e-01 2.000000000000000000e+00
5.299675464630126953e-01 2.167437076568603960e+00 -5.978720188140869141e-01 1.600000000000000000e+01
6.044279932975769043e-01 2.468227386474608931e+00 -5.866723656654357910e-01 1.000000000000000000e+01
6.981514096260070801e-01 2.848801851272583008e+00 -5.701372623443603516e-01 1.100000000000000000e+01
8.338906168937683105e-01 3.397554159164429155e+00 -5.540908575057983398e-01 9.000000000000000000e+00
1.037251949310302956e+00 4.219753742218017578e+00 -5.335440039634704590e-01 9.000000000000000000e+00
1.340686082839966042e+00 5.450082778930664062e+00 -4.910354614257813055e-01 9.000000000000000000e+00
1.944989800453186035e+00 7.894783020019531250e+00 -4.261193573474884033e-01 2.000000000000000000e+00
3.501691818237305132e+00 1.419216156005859020e+01 -2.551541924476624090e-01 2.000000000000000000e+00
5.375300645828247070e-01 2.165573835372924805e+00 -5.978720188140869141e-01 1.700000000000000000e+01
6.120997667312622070e-01 2.462320089340209961e+00 -5.857725739479064941e-01 1.100000000000000000e+01
7.118830084800720215e-01 2.861588954925537109e+00 -5.731902122497558594e-01 1.200000000000000000e+01
8.462227582931518555e-01 3.396539449691772017e+00 -5.544037222862243652e-01 9.000000000000000000e+00
1.047169566154479980e+00 4.196846961975097656e+00 -5.311065912246704102e-01 9.000000000000000000e+00
1.359219551086426003e+00 5.443436622619628906e+00 -4.908611476421356201e-01 8.000000000000000000e+00
1.967206120491028054e+00 7.866631984710693359e+00 -4.249679744243621826e-01 3.000000000000000000e+00
3.564812898635863814e+00 1.423416614532471058e+01 -2.561315298080443781e-01 2.000000000000000000e+00
5.473527312278747559e-01 2.171082258224486861e+00 -5.999425649642944336e-01 1.600000000000000000e+01
6.211205124855041504e-01 2.460060119628905806e+00 -5.857725739479064941e-01 1.100000000000000000e+01
7.204427123069763184e-01 2.851346731185913086e+00 -5.716637372970581055e-01 1.100000000000000000e+01
8.586660027503967285e-01 3.393414974212646040e+00 -5.544037222862243652e-01 9.000000000000000000e+00
1.062544703483581987e+00 4.192980766296386719e+00 -5.311065912246704102e-01 9.000000000000000000e+00
1.381610393524169922e+00 5.448074340820313388e+00 -4.917326867580413818e-01 9.000000000000000000e+00
1.994058966636657937e+00 7.851625919342041016e+00 -4.245492815971375067e-01 3.000000000000000000e+00
3.591328620910644975e+00 1.412022876739501953e+01 -2.543164789676666260e-01 2.000000000000000000e+00
5.554066896438598633e-01 2.171030044555664062e+00 -6.004601716995239258e-01 1.600000000000000000e+01
6.306712627410888672e-01 2.461652517318726030e+00 -5.866723656654357910e-01 1.000000000000000000e+01
7.279534935951232910e-01 2.839305877685546875e+00 -5.697556734085083008e-01 1.000000000000000000e+01
8.724710345268249512e-01 3.398050308227539062e+00 -5.556552410125732422e-01 9.000000000000000000e+00
1.075197100639343040e+00 4.181556224822998047e+00 -5.301316380500793457e-01 9.000000000000000000e+00
1.398136854171752930e+00 5.433570861816406250e+00 -4.908611476421356201e-01 9.000000000000000000e+00
2.020457267761230025e+00 7.840749263763427734e+00 -4.243399202823638916e-01 3.000000000000000000e+00
3.640595436096190962e+00 1.410760688781737926e+01 -2.543164789676666260e-01 2.000000000000000000e+00
5.593163967132568359e-01 2.158053874969481978e+00 -5.973543524742126465e-01 1.600000000000000000e+01
6.384016275405883789e-01 2.459659099578856978e+00 -5.866723656654357910e-01 1.100000000000000000e+01
7.388440370559692383e-01 2.844605922698975053e+00 -5.712821483612060547e-01 1.000000000000000000e+01
8.821474313735961914e-01 3.391469001770019975e+00 -5.550295114517211914e-01 9.000000000000000000e+00
1.092331647872925027e+00 4.193525791168212891e+00 -5.320815443992614746e-01 9.000000000000000000e+00
1.415199995040893999e+00 5.429151535034179688e+00 -4.908611476421356201e-01 9.000000000000000000e+00
2.047097682952880859e+00 7.842093467712402344e+00 -4.247586131095886230e-01 3.000000000000000000e+00
3.686920881271361861e+00 1.410383892059325994e+01 -2.544560730457305908e-01 2.000000000000000000e+00
5.653724074363708496e-01 2.150483369827270952e+00 -5.958014130592346191e-01 1.500000000000000000e+01
6.469835638999938965e-01 2.457415580749512163e+00 -5.866723656654357910e-01 1.100000000000000000e+01
7.502695918083190918e-01 2.847704887390137163e+00 -5.724269747734069824e-01 1.100000000000000000e+01
8.909568786621093750e-01 3.376909017562866211e+00 -5.531522631645202637e-01 9.000000000000000000e+00
1.104934692382812944e+00 4.182010173797607422e+00 -5.311065912246704102e-01 1.000000000000000000e+01
1.429049849510193093e+00 5.404916763305664062e+00 -4.891180396080017090e-01 9.000000000000000000e+00
2.075992822647095171e+00 7.840692043304443359e+00 -4.250726401805878241e-01 2.000000000000000000e+00
3.751504898071289062e+00 1.414887046813965021e+01 -2.555032372474669855e-01 2.000000000000000000e+00
5.762388110160827637e-01 2.159595966339110884e+00 -5.989072918891906738e-01 1.700000000000000000e+01
6.539738774299621582e-01 2.447497129440308061e+00 -5.848727226257324219e-01 1.000000000000000000e+01
7.596876621246337891e-01 2.841142654418944868e+00 -5.716637372970581055e-01 1.200000000000000000e+01
9.012841582298278809e-01 3.365988254547119141e+00 -5.519008040428161621e-01 9.000000000000000000e+00
1.120255112648010032e+00 4.177932262420654297e+00 -5.311065912246704102e-01 9.000000000000000000e+00
1.458144307136536089e+00 5.434280395507813388e+00 -4.922556281089783270e-01 9.000000000000000000e+00
2.105752944946289062e+00 7.836888313293457031e+00 -4.252819716930388849e-01 2.000000000000000000e+00
3.790868043899536133e+00 1.408868122100830078e+01 -2.546655237674713135e-01 2.000000000000000000e+00
5.868010520935058594e-01 2.168760299682617188e+00 -6.020131111145019531e-01 1.600000000000000000e+01
6.625132560729980469e-01 2.445199489593505859e+00 -5.848727226257324219e-01 1.200000000000000000e+01
7.670317292213439941e-01 2.828999280929564986e+00 -5.697556734085083008e-01 1.000000000000000000e+01
9.171689152717590332e-01 3.378072500228881836e+00 -5.544037222862243652e-01 9.000000000000000000e+00
1.133790373802185059e+00 4.170165061950683594e+00 -5.306191444396972656e-01 9.000000000000000000e+00
1.472920179367064986e+00 5.413777351379395419e+00 -4.908611476421356201e-01 9.000000000000000000e+00
2.133095979690552202e+00 7.829490184783936435e+00 -4.252819716930388849e-01 2.000000000000000000e+00
3.840023517608643022e+00 1.407536220550536932e+01 -2.546655237674713135e-01 2.000000000000000000e+00
5.918124914169311523e-01 2.157383441925048828e+00 -5.994248986244201660e-01 1.400000000000000000e+01
6.720769405364990234e-01 2.446630239486693892e+00 -5.857725739479064941e-01 1.100000000000000000e+01
7.774224281311035156e-01 2.828197717666625977e+00 -5.701372623443603516e-01 9.000000000000000000e+00
9.294792413711547852e-01 3.376754999160767046e+00 -5.547165870666503906e-01 8.000000000000000000e+00
1.145175218582153098e+00 4.154699802398681641e+00 -5.291566848754882812e-01 9.000000000000000000e+00
1.492338657379149947e+00 5.410523414611816406e+00 -4.910354614257813055e-01 8.000000000000000000e+00
2.149778366088867188e+00 7.783493041992188388e+00 -4.231885373592377264e-01 2.000000000000000000e+00
3.875272989273070845e+00 1.401176166534424006e+01 -2.537579834461212158e-01 2.000000000000000000e+00
5.962342023849487305e-01 2.144137144088745117e+00 -5.963190793991088867e-01 1.300000000000000000e+01
6.827041506767272949e-01 2.451778650283813032e+00 -5.875721573829650879e-01 1.100000000000000000e+01
7.857090830802917480e-01 2.819792985916138139e+00 -5.689924359321594238e-01 1.100000000000000000e+01
9.396679997444152832e-01 3.367781877517700195e+00 -5.537779927253723145e-01 9.000000000000000000e+00
1.161807537078856978e+00 4.158324718475341797e+00 -5.301316380500793457e-01 9.000000000000000000e+00
1.506387591361999956e+00 5.388011932373046875e+00 -4.894666373729705811e-01 9.000000000000000000e+00
2.187703609466553178e+00 7.814407348632813388e+00 -4.252819716930388849e-01 2.000000000000000000e+00
3.924159526824951172e+00 1.399814891815186080e+01 -2.537579834461212158e-01 2.000000000000000000e+00
6.031909584999084473e-01 2.140183448791503906e+00 -5.958014130592346191e-01 1.600000000000000000e+01
6.912582516670227051e-01 2.449380636215209961e+00 -5.875721573829650879e-01 1.000000000000000000e+01
7.982150316238403320e-01 2.826480150222777876e+00 -5.709004998207092285e-01 9.000000000000000000e+00
9.503429532051086426e-01 3.360679626464844194e+00 -5.531522631645202637e-01 9.000000000000000000e+00
1.179560661315917969e+00 4.165703773498535156e+00 -5.315940976142883301e-01 1.000000000000000000e+01
1.528445005416869895e+00 5.394222736358642578e+00 -4.905125200748444159e-01 9.000000000000000000e+00
2.209516286849976030e+00 7.787508964538574219e+00 -4.242352545261383057e-01 2.000000000000000000e+00
3.956357479095458984e+00 1.393504333496093928e+01 -2.528504729270935059e-01 2.000000000000000000e+00
6.127800941467285156e-01 2.145495176315308061e+00 -5.978720188140869141e-01 1.500000000000000000e+01
6.950928568840026855e-01 2.432085037231444868e+00 -5.839729309082031250e-01 1.000000000000000000e+01
8.091567158699035645e-01 2.827451467514038086e+00 -5.716637372970581055e-01 9.000000000000000000e+00
9.614821672439575195e-01 3.357509613037108931e+00 -5.531522631645202637e-01 9.000000000000000000e+00
1.191179513931273970e+00 4.154136657714843750e+00 -5.306191444396972656e-01 9.000000000000000000e+00
1.547265052795409934e+00 5.388854503631591797e+00 -4.905125200748444159e-01 9.000000000000000000e+00
2.238637447357178178e+00 7.791656970977783203e+00 -4.248632788658142090e-01 2.000000000000000000e+00
4.001658439636229581e+00 1.390961837768555043e+01 -2.526410222053527832e-01 2.000000000000000000e+00
6.227356195449829102e-01 2.154694795608520952e+00 -6.009778380393981934e-01 1.800000000000000000e+01
7.053209543228149414e-01 2.437254428863524947e+00 -5.857725739479064941e-01 1.000000000000000000e+01
8.169432282447814941e-01 2.821123838424683061e+00 -5.709004998207092285e-01 1.000000000000000000e+01
9.742611050605773926e-01 3.359994411468505859e+00 -5.540908575057983398e-01 9.000000000000000000e+00
1.203841567039489968e+00 4.146350860595703125e+00 -5.301316380500793457e-01 9.000000000000000000e+00
1.565298676490783913e+00 5.387793540954589844e+00 -4.908611476421356201e-01 9.000000000000000000e+00
2.266694784164429155e+00 7.791861534118652344e+00 -4.252819716930388849e-01 2.000000000000000000e+00
4.045337200164794922e+00 1.389697837829590021e+01 -2.526410222053527832e-01 2.000000000000000000e+00
6.291673779487609863e-01 2.148799896240233931e+00 -5.999425649642944336e-01 1.600000000000000000e+01
7.133993506431579590e-01 2.434901952743529829e+00 -5.857725739479064941e-01 1.000000000000000000e+01
8.229171633720397949e-01 2.805068016052246094e+00 -5.682291984558105469e-01 9.000000000000000000e+00
9.859543442726135254e-01 3.358640670776367188e+00 -5.544037222862243652e-01 9.000000000000000000e+00
1.218704342842102051e+00 4.146144866943359375e+00 -5.306191444396972656e-01 9.000000000000000000e+00
1.584658622741698997e+00 5.384208202362061435e+00 -4.910354614257813055e-01 9.000000000000000000e+00
2.288007020950316939e+00 7.768974781036376953e+00 -4.244446158409119207e-01 2.000000000000000000e+00
4.083641052246093750e+00 1.384824752807617010e+01 -2.520127594470977783e-01 2.000000000000000000e+00
6.318976283073425293e-01 2.131884098052978960e+00 -5.958014130592346191e-01 1.600000000000000000e+01
7.241121530532836914e-01 2.439869880676269975e+00 -5.875721573829650879e-01 1.100000000000000000e+01
8.344502449035644531e-01 2.809851884841918945e+00 -5.697556734085083008e-01 9.000000000000000000e+00
9.959831237792968750e-01 3.349498271942139116e+00 -5.534651279449462891e-01 8.000000000000000000e+00
1.233579039573668990e+00 4.145886421203613281e+00 -5.311065912246704102e-01 9.000000000000000000e+00
1.596247076988219993e+00 5.357919692993164062e+00 -4.891180396080017090e-01 9.000000000000000000e+00
2.315111875534058061e+00 7.760941028594970703e+00 -4.244446158409119207e-01 2.000000000000000000e+00
4.123821735382080078e+00 1.381546783447265980e+01 -2.516637146472930908e-01 2.000000000000000000e+00
6.404463648796081543e-01 2.133365869522095171e+00 -5.968367457389831543e-01 1.500000000000000000e+01
7.321990728378295898e-01 2.437455177307128906e+00 -5.875721573829650879e-01 1.000000000000000000e+01
8.470807671546936035e-01 2.816322326660155806e+00 -5.716637372970581055e-01 1.000000000000000000e+01
1.008223533630371094e+00 3.349960088729857954e+00 -5.540908575057983398e-01 8.000000000000000000e+00
1.249188899993896040e+00 4.145356178283691406e+00 -5.315940976142883301e-01 9.000000000000000000e+00
1.616666555404663086e+00 5.358037471771240234e+00 -4.896409511566162109e-01 9.000000000000000000e+00
2.338526248931885210e+00 7.745573043823242188e+00 -4.240259230136870783e-01 1.000000000000000000e+00
4.168549537658691406e+00 1.378950405120849965e+01 -2.514542639255524237e-01 2.000000000000000000e+00
6.491957306861877441e-01 2.132739305496215820e+00 -5.973543524742126465e-01 1.500000000000000000e+01
7.374327182769775391e-01 2.419583559036254883e+00 -5.839729309082031250e-01 1.100000000000000000e+01
8.618971705436706543e-01 2.826194047927856001e+00 -5.743350982666015625e-01 9.000000000000000000e+00
1.021086096763611062e+00 3.343996524810791016e+00 -5.537779927253723145e-01 8.000000000000000000e+00
1.262336969375609907e+00 4.128918170928955078e+00 -5.301316380500793457e-01 9.000000000000000000e+00
1.636645078659058061e+00 5.349884986877441406e+00 -4.894666373729705811e-01 9.000000000000000000e+00
2.369600057601929155e+00 7.736123085021972656e+00 -4.240259230136870783e-01 2.000000000000000000e+00
4.217950820922851562e+00 1.376192474365234020e+01 -2.512448430061339777e-01 2.000000000000000000e+00
6.577743887901306152e-01 2.134152412414550781e+00 -5.983896255493164062e-01 1.600000000000000000e+01
7.477495074272155762e-01 2.424573659896851030e+00 -5.857725739479064941e-01 1.100000000000000000e+01
8.665440082550048828e-01 2.806285381317139116e+00 -5.709004998207092285e-01 9.000000000000000000e+00
1.033335924148560014e+00 3.344366788864136186e+00 -5.544037222862243652e-01 9.000000000000000000e+00
1.273675322532654031e+00 4.117123603820800781e+00 -5.291566848754882812e-01 9.000000000000000000e+00
1.660615205764770952e+00 5.361268043518066406e+00 -4.910354614257813055e-01 9.000000000000000000e+00
2.395241022109984907e+00 7.728222846984863281e+00 -4.240259230136870783e-01 2.000000000000000000e+00
4.267148494720458984e+00 1.375093746185302912e+01 -2.513146400451660156e-01 2.000000000000000000e+00
6.642727851867675781e-01 2.130115270614624023e+00 -5.978720188140869141e-01 1.500000000000000000e+01
7.585315108299255371e-01 2.429389476776123047e+00 -5.875721573829650879e-01 1.100000000000000000e+01
8.752598166465759277e-01 2.801522493362427202e+00 -5.705189108848571777e-01 9.000000000000000000e+00
1.045593380928039995e+00 3.342624664306641069e+00 -5.547165870666503906e-01 8.000000000000000000e+00
1.289225578308105025e+00 4.116441249847412109e+00 -5.296441912651062012e-01 9.000000000000000000e+00
1.675405621528625044e+00 5.346225738525390625e+00 -4.901638925075531006e-01 8.000000000000000000e+00
2.426986455917357954e+00 7.735059738159179688e+00 -4.248632788658142090e-01 2.000000000000000000e+00
4.315120697021484375e+00 1.374434280395507990e+01 -2.514542639255524237e-01 5.000000000000000000e+00
6.724953055381774902e-01 2.131585359573363814e+00 -5.989072918891906738e-01 1.500000000000000000e+01
7.654095292091369629e-01 2.423144102096558061e+00 -5.866723656654357910e-01 1.000000000000000000e+01
8.844416141510009766e-01 2.796578407287598100e+00 -5.701372623443603516e-01 9.000000000000000000e+00
1.054884195327759011e+00 3.333488941192626953e+00 -5.537779927253723145e-01 9.000000000000000000e+00
1.301669955253601074e+00 4.108358860015869141e+00 -5.291566848754882812e-01 9.000000000000000000e+00
1.691647529602051003e+00 5.332748413085938388e+00 -4.894666373729705811e-01 9.000000000000000000e+00
2.452623367309569868e+00 7.726969242095947266e+00 -4.248632788658142090e-01 2.000000000000000000e+00
4.372761249542236328e+00 1.375968933105468928e+01 -2.520127594470977783e-01 2.000000000000000000e+00
6.775811910629272461e-01 2.121863842010498047e+00 -5.968367457389831543e-01 1.300000000000000000e+01
7.756435871124267578e-01 2.426026105880736861e+00 -5.880220532417297363e-01 1.000000000000000000e+01
8.943087458610534668e-01 2.795500040054320845e+00 -5.705189108848571777e-01 1.000000000000000000e+01
1.064103603363037109e+00 3.322261571884154829e+00 -5.525265336036682129e-01 9.000000000000000000e+00
1.320852279663085938e+00 4.118912220001220703e+00 -5.311065912246704102e-01 9.000000000000000000e+00
1.711757183074950950e+00 5.334698200225830078e+00 -4.901638925075531006e-01 9.000000000000000000e+00
2.471028327941894975e+00 7.691739082336425781e+00 -4.233978986740111750e-01 2.000000000000000000e+00
4.384096145629882812e+00 1.363850307464599965e+01 -2.500580847263336182e-01 5.000000000000000000e+00
6.879541873931884766e-01 2.128676891326903853e+00 -5.994248986244201660e-01 1.500000000000000000e+01
7.770886421203613281e-01 2.403044462203979048e+00 -5.830731391906738281e-01 1.100000000000000000e+01
9.070850014686584473e-01 2.801700115203856978e+00 -5.724269747734069824e-01 9.000000000000000000e+00
1.074506044387816939e+00 3.316835403442382812e+00 -5.522136688232421875e-01 8.000000000000000000e+00
1.331441640853882058e+00 4.105068206787109375e+00 -5.298879146575927734e-01 9.000000000000000000e+00
1.726676225662231001e+00 5.317320346832275391e+00 -4.891180396080017090e-01 9.000000000000000000e+00
2.496521472930908203e+00 7.683502674102783203e+00 -4.233978986740111750e-01 2.000000000000000000e+00
4.458895206451416016e+00 1.370678710937500000e+01 -2.515938878059387207e-01 2.000000000000000000e+00
6.968098878860473633e-01 2.131892442703247070e+00 -6.009778380393981934e-01 1.400000000000000000e+01
7.866842746734619141e-01 2.404021501541138139e+00 -5.839729309082031250e-01 1.000000000000000000e+01
9.133162498474121094e-01 2.789347887039185014e+00 -5.705189108848571777e-01 1.100000000000000000e+01
1.090384721755981001e+00 3.326204061508179155e+00 -5.544037222862243652e-01 9.000000000000000000e+00
1.343905806541443093e+00 4.094737529754638672e+00 -5.291566848754882812e-01 9.000000000000000000e+00
1.749272584915160911e+00 5.326708793640136719e+00 -4.905125200748444159e-01 9.000000000000000000e+00
2.519583702087401900e+00 7.663357257843017578e+00 -4.227698445320128839e-01 1.000000000000000000e+00
4.520571708679199219e+00 1.374131393432617010e+01 -2.525014281272888184e-01 2.000000000000000000e+00
7.030341625213623047e-01 2.125778913497924805e+00 -5.999425649642944336e-01 1.500000000000000000e+01
7.971008419990539551e-01 2.408799886703491211e+00 -5.857725739479064941e-01 1.000000000000000000e+01
9.205775856971740723e-01 2.778688192367554155e+00 -5.689924359321594238e-01 9.000000000000000000e+00
1.102030396461487038e+00 3.324445009231566939e+00 -5.547165870666503906e-01 8.000000000000000000e+00
1.356226444244384988e+00 4.086490154266357422e+00 -5.286692380905151367e-01 9.000000000000000000e+00
1.770368576049804910e+00 5.328133106231688565e+00 -4.912097752094268799e-01 9.000000000000000000e+00
2.560104846954346147e+00 7.700446128845214844e+00 -4.252819716930388849e-01 2.000000000000000000e+00
4.637979030609130859e+00 1.393415927886963068e+01 -2.563409507274628241e-01 2.000000000000000000e+00
7.083675861358642578e-01 2.115860223770142046e+00 -5.978720188140869141e-01 1.600000000000000000e+01
8.075826764106750488e-01 2.409416913986206055e+00 -5.866723656654357910e-01 1.100000000000000000e+01
9.332528114318847656e-01 2.782741069793701172e+00 -5.705189108848571777e-01 1.000000000000000000e+01
1.112900972366333008e+00 3.314571142196654829e+00 -5.537779927253723145e-01 9.000000000000000000e+00
1.376967549324036089e+00 4.096305847167968750e+00 -5.306191444396972656e-01 9.000000000000000000e+00
1.778452396392822044e+00 5.287616729736328125e+00 -4.880721569061278742e-01 9.000000000000000000e+00
2.587104082107543945e+00 7.682988166809082031e+00 -4.248632788658142090e-01 2.000000000000000000e+00
4.689019203186035156e+00 1.391706657409667969e+01 -2.563409507274628241e-01 2.000000000000000000e+00
7.151293158531188965e-01 2.111544847488402876e+00 -5.973543524742126465e-01 1.600000000000000000e+01
8.155681490898132324e-01 2.406725645065308061e+00 -5.866723656654357910e-01 1.100000000000000000e+01
9.416992068290710449e-01 2.775748014450072798e+00 -5.697556734085083008e-01 1.100000000000000000e+01
1.123251318931580034e+00 3.308991909027100053e+00 -5.534651279449462891e-01 9.000000000000000000e+00
1.390543818473815918e+00 4.091716766357421875e+00 -5.306191444396972656e-01 9.000000000000000000e+00
1.802674531936645952e+00 5.298352718353270596e+00 -4.896409511566162109e-01 9.000000000000000000e+00
2.602269172668457031e+00 7.644115447998046875e+00 -4.231885373592377264e-01 1.000000000000000000e+00
4.728538990020751953e+00 1.387411499023438033e+01 -2.558522820472716730e-01 2.000000000000000000e+00
7.233790159225463867e-01 2.112817287445067915e+00 -5.983896255493164062e-01 1.500000000000000000e+01
8.227004408836364746e-01 2.400177240371704102e+00 -5.857725739479064941e-01 1.000000000000000000e+01
9.534463882446289062e-01 2.780038356781005859e+00 -5.712821483612060547e-01 1.000000000000000000e+01
1.134795069694519043e+00 3.305050849914550781e+00 -5.534651279449462891e-01 9.000000000000000000e+00
1.403527498245239036e+00 4.083083629608154297e+00 -5.301316380500793457e-01 1.000000000000000000e+01
1.822178602218627930e+00 5.297997951507568359e+00 -4.901638925075531006e-01 9.000000000000000000e+00
2.625034809112548828e+00 7.623654842376708984e+00 -4.225605130195618231e-01 2.000000000000000000e+00
4.760190963745117188e+00 1.381676387786865057e+01 -2.550843656063079834e-01 2.000000000000000000e+00
7.332782745361328125e-01 2.117581367492675781e+00 -6.004601716995239258e-01 1.500000000000000000e+01
8.293792605400085449e-01 2.393753051757812944e+00 -5.848727226257324219e-01 1.100000000000000000e+01
9.618579745292663574e-01 2.772983551025391069e+00 -5.705189108848571777e-01 1.100000000000000000e+01
1.145748734474181907e+00 3.301269531250000000e+00 -5.534651279449462891e-01 8.000000000000000000e+00
1.414453625679015891e+00 4.070906162261962891e+00 -5.291566848754882812e-01 9.000000000000000000e+00
1.839351773262023926e+00 5.287841320037841797e+00 -4.898152649402617853e-01 9.000000000000000000e+00
2.650301456451416016e+00 7.614907741546630859e+00 -4.225605130195618231e-01 1.000000000000000000e+00
4.803127765655517578e+00 1.378495693206786932e+01 -2.548051476478577215e-01 2.000000000000000000e+00
7.400270104408264160e-01 2.113185405731201172e+00 -5.999425649642944336e-01 1.600000000000000000e+01
8.420155644416809082e-01 2.401731252670288086e+00 -5.875721573829650879e-01 1.100000000000000000e+01
9.695820808410644531e-01 2.764051437377930132e+00 -5.693740248680114746e-01 1.000000000000000000e+01
1.159149885177612083e+00 3.300775527954102007e+00 -5.540908575057983398e-01 9.000000000000000000e+00
1.428048014640808105e+00 4.061949253082275391e+00 -5.286692380905151367e-01 9.000000000000000000e+00
1.855154037475585938e+00 5.273870468139648438e+00 -4.891180396080017090e-01 9.000000000000000000e+00
2.688808202743529829e+00 7.635284423828125000e+00 -4.242352545261383057e-01 2.000000000000000000e+00
4.857862472534179688e+00 1.378696727752686080e+01 -2.551541924476624090e-01 2.000000000000000000e+00
7.448194622993469238e-01 2.103305339813231978e+00 -5.978720188140869141e-01 1.500000000000000000e+01
8.499754071235656738e-01 2.398925781250000000e+00 -5.875721573829650879e-01 1.100000000000000000e+01
9.811934232711791992e-01 2.766201019287108931e+00 -5.705189108848571777e-01 1.000000000000000000e+01
1.169428586959839089e+00 3.295051813125609907e+00 -5.537779927253723145e-01 9.000000000000000000e+00
1.445497632026671919e+00 4.068414688110351562e+00 -5.301316380500793457e-01 9.000000000000000000e+00
1.869545817375183105e+00 5.256099700927734375e+00 -4.880721569061278742e-01 9.000000000000000000e+00
2.710094928741455078e+00 7.615036487579345703e+00 -4.236072301864624023e-01 2.000000000000000000e+00
4.889851093292236328e+00 1.372471714019775035e+01 -2.543164789676666260e-01 2.000000000000000000e+00
7.514234781265258789e-01 2.100955009460449219e+00 -5.978720188140869141e-01 1.500000000000000000e+01
8.552982211112976074e-01 2.388755321502685991e+00 -5.857725739479064941e-01 1.100000000000000000e+01
9.918652176856994629e-01 2.768649578094481978e+00 -5.716637372970581055e-01 9.000000000000000000e+00
1.179015159606934038e+00 3.287436962127685991e+00 -5.531522631645202637e-01 9.000000000000000000e+00
1.460322618484497070e+00 4.067335605621337891e+00 -5.306191444396972656e-01 1.000000000000000000e+01
1.888743400573730025e+00 5.257700920104979581e+00 -4.887694120407103937e-01 9.000000000000000000e+00
2.735332489013671875e+00 7.606007575988770419e+00 -4.236072301864624023e-01 1.000000000000000000e+00
4.922111988067626953e+00 1.367918205261229936e+01 -2.537579834461212158e-01 2.000000000000000000e+00
7.613803148269653320e-01 2.105586051940917969e+00 -5.999425649642944336e-01 1.500000000000000000e+01
8.605629205703735352e-01 2.378575801849364790e+00 -5.839729309082031250e-01 1.000000000000000000e+01
1.002192139625549094e+00 2.767016172409058061e+00 -5.720453858375549316e-01 1.000000000000000000e+01
1.189237236976623979e+00 3.281651973724364790e+00 -5.528393983840942383e-01 8.000000000000000000e+00
1.468386411666869895e+00 4.047541618347167969e+00 -5.286692380905151367e-01 9.000000000000000000e+00
1.911165475845336914e+00 5.262311935424804688e+00 -4.898152649402617853e-01 9.000000000000000000e+00
2.765996694564818892e+00 7.611912250518798828e+00 -4.244446158409119207e-01 1.000000000000000000e+00
4.969830989837645596e+00 1.366191768646240057e+01 -2.537579834461212158e-01 2.000000000000000000e+00
7.680622935295104980e-01 2.101101160049438032e+00 -5.994248986244201660e-01 1.500000000000000000e+01
8.692750334739685059e-01 2.375405788421630859e+00 -5.839729309082031250e-01 1.100000000000000000e+01
1.009819746017456055e+00 2.757970333099364790e+00 -5.709004998207092285e-01 1.000000000000000000e+01
1.202616691589355025e+00 3.280980587005614790e+00 -5.534651279449462891e-01 8.000000000000000000e+00
1.480476260185241921e+00 4.034678459167479581e+00 -5.276942849159240723e-01 9.000000000000000000e+00
1.930896043777466042e+00 5.259349346160888672e+00 -4.901638925075531006e-01 9.000000000000000000e+00
2.778719425201416016e+00 7.560481071472167969e+00 -4.221418201923369806e-01 2.000000000000000000e+00
5.017489910125732422e+00 1.364448642730713068e+01 -2.537579834461212158e-01 2.000000000000000000e+00
7.753918170928955078e-01 2.098407268524169922e+00 -5.994248986244201660e-01 1.600000000000000000e+01
8.825535774230957031e-01 2.387132644653319868e+00 -5.875721573829650879e-01 1.100000000000000000e+01
1.015352010726928933e+00 2.743381500244141069e+00 -5.686107873916625977e-01 9.000000000000000000e+00
1.214862227439879927e+00 3.280679464340209961e+00 -5.540908575057983398e-01 8.000000000000000000e+00
1.497987627983093040e+00 4.040914535522460938e+00 -5.291566848754882812e-01 9.000000000000000000e+00
1.943697333335876021e+00 5.237633705139160156e+00 -4.887694120407103937e-01 8.000000000000000000e+00
2.810727596282958984e+00 7.569948196411132812e+00 -4.231885373592377264e-01 1.000000000000000000e+00
5.046972751617431641e+00 1.357815456390381037e+01 -2.528504729270935059e-01 2.000000000000000000e+00
7.796965241432189941e-01 2.086503028869628906e+00 -5.968367457389831543e-01 1.700000000000000000e+01
8.917129635810852051e-01 2.383726358413695845e+00 -5.875721573829650879e-01 1.100000000000000000e+01
1.026776552200316939e+00 2.743319034576416016e+00 -5.693740248680114746e-01 9.000000000000000000e+00
1.226063966751099077e+00 3.272290945053101030e+00 -5.534651279449462891e-01 8.000000000000000000e+00
1.513492584228516069e+00 4.035132884979248047e+00 -5.291566848754882812e-01 9.000000000000000000e+00
1.962181210517883079e+00 5.228609561920166016e+00 -4.885950982570648193e-01 9.000000000000000000e+00
2.845392465591431108e+00 7.574057579040527344e+00 -4.240259230136870783e-01 1.000000000000000000e+00
5.079362869262695312e+00 1.350626754760742010e+01 -2.518731355667114258e-01 5.000000000000000000e+00
7.924354076385498047e-01 2.098226785659790039e+00 -6.009778380393981934e-01 1.800000000000000000e+01
9.014065861701965332e-01 2.384244680404663086e+00 -5.884719491004943848e-01 1.100000000000000000e+01
1.039124727249145952e+00 2.747063159942626953e+00 -5.709004998207092285e-01 9.000000000000000000e+00
1.234680771827697976e+00 3.260601758956909180e+00 -5.522136688232421875e-01 9.000000000000000000e+00
1.531790256500243919e+00 4.040962696075438565e+00 -5.306191444396972656e-01 9.000000000000000000e+00
1.986779332160949929e+00 5.238494396209716797e+00 -4.901638925075531006e-01 9.000000000000000000e+00
2.863306522369385210e+00 7.541672706604003906e+00 -4.227698445320128839e-01 2.000000000000000000e+00
5.099481105804443359e+00 1.341742324829101918e+01 -2.505467534065247137e-01 5.000000000000000000e+00
7.976468205451965332e-01 2.092116832733153853e+00 -5.999425649642944336e-01 2.000000000000000000e+01
9.061129689216613770e-01 2.374118566513061968e+00 -5.866723656654357910e-01 1.100000000000000000e+01
1.048449993133544922e+00 2.745619297027587891e+00 -5.712821483612060547e-01 1.000000000000000000e+01
1.247034192085265891e+00 3.262242317199707031e+00 -5.531522631645202637e-01 9.000000000000000000e+00
1.537383198738097922e+00 4.017590522766113281e+00 -5.281817317008972168e-01 9.000000000000000000e+00
2.001801967620850053e+00 5.228505611419677734e+00 -4.898152649402617853e-01 9.000000000000000000e+00
2.892703533172606978e+00 7.547559738159179688e+00 -4.236072301864624023e-01 2.000000000000000000e+00
5.153068542480468750e+00 1.343120861053466975e+01 -2.511052191257476807e-01 2.000000000000000000e+00
8.070283532142639160e-01 2.094727754592895952e+00 -6.014954447746276855e-01 1.900000000000000000e+01
9.115897417068481445e-01 2.363668441772460938e+00 -5.848727226257324219e-01 1.100000000000000000e+01
1.054493784904479980e+00 2.732784748077393022e+00 -5.693740248680114746e-01 1.000000000000000000e+01
1.261972784996032937e+00 3.267082929611206055e+00 -5.547165870666503906e-01 9.000000000000000000e+00
1.551397919654845969e+00 4.012199401855468750e+00 -5.281817317008972168e-01 9.000000000000000000e+00
2.019321680068970171e+00 5.219627857208251953e+00 -4.896409511566162109e-01 9.000000000000000000e+00
2.908933877944945845e+00 7.511342048645020419e+00 -4.221418201923369806e-01 2.000000000000000000e+00
5.182573318481445312e+00 1.336839199066161932e+01 -2.502675056457520086e-01 2.000000000000000000e+00
8.122329711914062500e-01 2.086497306823730025e+00 -5.999425649642944336e-01 1.500000000000000000e+01
9.212501049041748047e-01 2.364103317260742188e+00 -5.857725739479064941e-01 1.100000000000000000e+01
1.066166043281554954e+00 2.734574556350708008e+00 -5.705189108848571777e-01 1.000000000000000000e+01
1.272651076316833052e+00 3.260817527770996094e+00 -5.544037222862243652e-01 9.000000000000000000e+00
1.574062228202820046e+00 4.028947353363037109e+00 -5.311065912246704102e-01 9.000000000000000000e+00
2.033902645111083984e+00 5.203269004821777344e+00 -4.887694120407103937e-01 9.000000000000000000e+00
2.943868875503540039e+00 7.523461341857910156e+00 -4.233978986740111750e-01 1.000000000000000000e+00
5.243792533874511719e+00 1.338745880126952947e+01 -2.509655952453612726e-01 2.000000000000000000e+00
8.166829347610473633e-01 2.076457977294921875e+00 -5.978720188140869141e-01 1.300000000000000000e+01
9.337801337242126465e-01 2.371752738952637163e+00 -5.884719491004943848e-01 1.000000000000000000e+01
1.074265956878662109e+00 2.727183103561400923e+00 -5.697556734085083008e-01 1.000000000000000000e+01
1.282576441764831987e+00 3.252680063247681108e+00 -5.537779927253723145e-01 9.000000000000000000e+00
1.584472060203552024e+00 4.014196395874023438e+00 -5.298879146575927734e-01 1.000000000000000000e+01
2.047662019729613814e+00 5.185019016265869141e+00 -4.877235293388367254e-01 6.000000000000000000e+00
2.970112800598144975e+00 7.513139247894287109e+00 -4.233978986740111750e-01 1.000000000000000000e+00
5.284605026245117188e+00 1.335419750213623047e+01 -2.506863772869110107e-01 2.000000000000000000e+00
8.235743641853332520e-01 2.071655511856079102e+00 -5.973543524742126465e-01 1.600000000000000000e+01
9.381435513496398926e-01 2.357450485229492188e+00 -5.857725739479064941e-01 1.100000000000000000e+01
1.084980607032776101e+00 2.725051403045653853e+00 -5.701372623443603516e-01 9.000000000000000000e+00
1.293026804924011008e+00 3.244287252426147017e+00 -5.531522631645202637e-01 9.000000000000000000e+00
1.601380944252013938e+00 4.013893127441406250e+00 -5.306191444396972656e-01 1.000000000000000000e+01
2.076992988586425781e+00 5.203384876251220703e+00 -4.901638925075531006e-01 9.000000000000000000e+00
2.997629880905150923e+00 7.502202987670898438e+00 -4.233978986740111750e-01 2.000000000000000000e+00
5.339456081390380859e+00 1.334959220886229936e+01 -2.509655952453612726e-01 2.000000000000000000e+00
8.358402848243713379e-01 2.081316947937012163e+00 -6.009778380393981934e-01 1.700000000000000000e+01
9.449131488800048828e-01 2.350545167922974077e+00 -5.848727226257324219e-01 1.100000000000000000e+01
1.095951318740844949e+00 2.724890232086182085e+00 -5.709004998207092285e-01 9.000000000000000000e+00
1.304343700408935991e+00 3.239753961563109907e+00 -5.531522631645202637e-01 9.000000000000000000e+00
1.612414240837096946e+00 4.000914096832275391e+00 -5.296441912651062012e-01 9.000000000000000000e+00
2.092163085937500000e+00 5.188712120056152344e+00 -4.894666373729705811e-01 9.000000000000000000e+00
3.010343313217163086e+00 7.458355903625488281e+00 -4.215137958526610773e-01 2.000000000000000000e+00
5.371040344238281250e+00 1.329379177093506037e+01 -2.502675056457520086e-01 2.000000000000000000e+00
8.427376151084899902e-01 2.078533887863159180e+00 -6.009778380393981934e-01 1.700000000000000000e+01
9.541683197021484375e-01 2.351010322570800781e+00 -5.857725739479064941e-01 1.000000000000000000e+01
1.104242801666259988e+00 2.719422101974486861e+00 -5.705189108848571777e-01 1.000000000000000000e+01
1.319542884826659934e+00 3.246390819549560991e+00 -5.550295114517211914e-01 9.000000000000000000e+00
1.622680425643920898e+00 3.988190174102783203e+00 -5.286692380905151367e-01 9.000000000000000000e+00
2.110109329223632812e+00 5.183590888977050781e+00 -4.896409511566162109e-01 9.000000000000000000e+00
3.047118425369263139e+00 7.477925777435302734e+00 -4.231885373592377264e-01 2.000000000000000000e+00
5.403010845184326172e+00 1.324628162384033025e+01 -2.497090250253677091e-01 2.000000000000000000e+00
8.477915525436401367e-01 2.070216178894042969e+00 -5.994248986244201660e-01 1.900000000000000000e+01
9.623690843582153320e-01 2.347665309906005859e+00 -5.857725739479064941e-01 1.100000000000000000e+01
1.111493706703186035e+00 2.710101604461669922e+00 -5.693740248680114746e-01 1.100000000000000000e+01
1.327865958213805930e+00 3.234455347061156782e+00 -5.537779927253723145e-01 9.000000000000000000e+00
1.635082840919495073e+00 3.978829622268677202e+00 -5.281817317008972168e-01 1.000000000000000000e+01
2.124402284622191939e+00 5.166980266571044922e+00 -4.887694120407103937e-01 9.000000000000000000e+00
3.071682453155518022e+00 7.463550090789794922e+00 -4.229792058467864990e-01 2.000000000000000000e+00
5.446169376373291016e+00 1.321994495391846058e+01 -2.495694160461426059e-01 2.000000000000000000e+00
8.535360693931579590e-01 2.063673973083496094e+00 -5.983896255493164062e-01 1.900000000000000000e+01
9.735398292541503906e-01 2.351493835449219194e+00 -5.875721573829650879e-01 1.100000000000000000e+01
1.121698260307312012e+00 2.708019018173218218e+00 -5.697556734085083008e-01 1.000000000000000000e+01
1.335365295410156028e+00 3.220676898956298828e+00 -5.522136688232421875e-01 8.000000000000000000e+00
1.655809998512268066e+00 3.989598751068114790e+00 -5.303753614425659180e-01 1.000000000000000000e+01
2.143953561782836914e+00 5.163213253021240234e+00 -4.891180396080017090e-01 9.000000000000000000e+00
3.099249601364136186e+00 7.456470966339111328e+00 -4.231885373592377264e-01 2.000000000000000000e+00
5.463092327117919922e+00 1.313069534301757990e+01 -2.482430338859558105e-01 2.000000000000000000e+00
8.637127280235290527e-01 2.067812442779541016e+00 -6.004601716995239258e-01 2.200000000000000000e+01
9.802387356758117676e-01 2.344485282897949219e+00 -5.866723656654357910e-01 1.100000000000000000e+01
1.133417010307312012e+00 2.709520578384398970e+00 -5.709004998207092285e-01 1.000000000000000000e+01
1.346599459648132102e+00 3.215996026992797852e+00 -5.522136688232421875e-01 9.000000000000000000e+00
1.672028303146362083e+00 3.989287137985229048e+00 -5.311065912246704102e-01 9.000000000000000000e+00
2.158881664276123047e+00 5.148348331451416016e+00 -4.884207844734191895e-01 9.000000000000000000e+00
3.120620727539062944e+00 7.434557437896729404e+00 -4.225605130195618231e-01 2.000000000000000000e+00
5.530582427978515625e+00 1.316316604614257990e+01 -2.492203712463378906e-01 2.000000000000000000e+00
8.679541945457458496e-01 2.059747934341431108e+00 -5.989072918891906738e-01 2.000000000000000000e+01
9.845698475837707520e-01 2.334212064743041992e+00 -5.848727226257324219e-01 1.100000000000000000e+01
1.140397071838378906e+00 2.702328920364379883e+00 -5.701372623443603516e-01 9.000000000000000000e+00
1.357464790344238059e+00 3.213569402694702148e+00 -5.525265336036682129e-01 9.000000000000000000e+00
1.678367972373961958e+00 3.969387531280518022e+00 -5.291566848754882812e-01 9.000000000000000000e+00
2.181254863739014116e+00 5.156220436096191406e+00 -4.898152649402617853e-01 9.000000000000000000e+00
3.147076606750487837e+00 7.432073593139648438e+00 -4.229792058467864990e-01 2.000000000000000000e+00
5.562543869018554688e+00 1.312363243103026988e+01 -2.488014996051788053e-01 2.000000000000000000e+00
8.766515254974365234e-01 2.060261011123656782e+00 -5.999425649642944336e-01 1.900000000000000000e+01
9.942390322685241699e-01 2.334346771240233931e+00 -5.857725739479064941e-01 1.100000000000000000e+01
1.151362180709839089e+00 2.701944112777709961e+00 -5.709004998207092285e-01 1.100000000000000000e+01
1.373324036598206010e+00 3.219713211059569868e+00 -5.544037222862243652e-01 9.000000000000000000e+00
1.687536716461182085e+00 3.952550888061522993e+00 -5.276942849159240723e-01 9.000000000000000000e+00
2.196109533309936968e+00 5.141245841979979581e+00 -4.891180396080017090e-01 9.000000000000000000e+00
3.171429872512816939e+00 7.417370319366455078e+00 -4.227698445320128839e-01 1.000000000000000000e+00
5.586289405822753906e+00 1.305266094207764027e+01 -2.478241771459578913e-01 2.000000000000000000e+00
8.853629827499389648e-01 2.060738325119018999e+00 -6.009778380393981934e-01 1.800000000000000000e+01
1.002381324768065962e+00 2.330862045288085938e+00 -5.857725739479064941e-01 1.000000000000000000e+01
1.158458948135375977e+00 2.692498445510863814e+00 -5.697556734085083008e-01 1.000000000000000000e+01
1.384554624557494895e+00 3.214899778366088867e+00 -5.544037222862243652e-01 9.000000000000000000e+00
1.706038475036621094e+00 3.957573652267456055e+00 -5.291566848754882812e-01 9.000000000000000000e+00
2.214042663574219194e+00 5.133548736572265625e+00 -4.891180396080017090e-01 9.000000000000000000e+00
3.190969228744506836e+00 7.391585350036621094e+00 -4.219324886798859198e-01 2.000000000000000000e+00
5.627058506011962891e+00 1.302206802368164062e+01 -2.476147413253783902e-01 2.000000000000000000e+00
8.894758224487304688e-01 2.050545930862427202e+00 -5.989072918891906738e-01 1.700000000000000000e+01
1.015168190002440962e+00 2.338073968887329102e+00 -5.884719491004943848e-01 1.000000000000000000e+01
1.167850494384766069e+00 2.688438177108765093e+00 -5.697556734085083008e-01 1.100000000000000000e+01
1.396555900573730025e+00 3.211858749389647993e+00 -5.547165870666503906e-01 8.000000000000000000e+00
1.723011374473571999e+00 3.958875179290771040e+00 -5.301316380500793457e-01 9.000000000000000000e+00
2.231948614120482954e+00 5.125789165496826172e+00 -4.891180396080017090e-01 9.000000000000000000e+00
3.218347072601317915e+00 7.384063720703125000e+00 -4.221418201923369806e-01 2.000000000000000000e+00
5.253480434417724609e+00 1.204192447662354049e+01 -2.293246239423752109e-01 2.000000000000000000e+00
8.943032622337341309e-01 2.042119741439818892e+00 -5.973543524742126465e-01 1.600000000000000000e+01
1.021758675575255904e+00 2.330946683883666992e+00 -5.875721573829650879e-01 1.100000000000000000e+01
1.180381774902343972e+00 2.691537141799927202e+00 -5.712821483612060547e-01 1.000000000000000000e+01
1.408552885055541992e+00 3.208773136138916016e+00 -5.550295114517211914e-01 9.000000000000000000e+00
1.736819863319396973e+00 3.952836513519287109e+00 -5.301316380500793457e-01 9.000000000000000000e+00
2.248223781585692915e+00 5.114318847656250000e+00 -4.887694120407103937e-01 9.000000000000000000e+00
3.245711565017700195e+00 7.376440525054931641e+00 -4.223511815071105957e-01 2.000000000000000000e+00
5.711383819580078125e+00 1.296782588958740057e+01 -2.473355084657669067e-01 2.000000000000000000e+00
9.061129093170166016e-01 2.049587011337279829e+00 -6.004601716995239258e-01 1.600000000000000000e+01
1.023580312728882058e+00 2.313109397888184038e+00 -5.839729309082031250e-01 1.200000000000000000e+01
1.191359281539916992e+00 2.690990686416625977e+00 -5.720453858375549316e-01 1.000000000000000000e+01
1.417344093322753906e+00 3.198418855667113814e+00 -5.540908575057983398e-01 8.000000000000000000e+00
1.742558479309082031e+00 3.928603887557982954e+00 -5.276942849159240723e-01 1.000000000000000000e+01
2.270102977752685991e+00 5.115545749664306641e+00 -4.896409511566162109e-01 9.000000000000000000e+00
3.279547929763793945e+00 7.383318901062011719e+00 -4.233978986740111750e-01 1.000000000000000000e+00
5.753365516662597656e+00 1.294050121307373047e+01 -2.471958845853806097e-01 2.000000000000000000e+00
9.140490889549255371e-01 2.048175811767578125e+00 -6.009778380393981934e-01 1.600000000000000000e+01
1.034827589988708052e+00 2.316639423370360884e+00 -5.857725739479064941e-01 1.000000000000000000e+01
1.193536043167114036e+00 2.670684099197388139e+00 -5.686107873916625977e-01 9.000000000000000000e+00
