-3.446588134765625000e+01 -7.124995231628417969e+00 -6.143246889114379883e-01 7.000000000000000000e+00
-2.556624412536621094e+00 -5.247996449470520020e-01 -6.993290781974792480e-01 1.900000000000000000e+01
-4.513944625854492188e+01 -9.257587432861328125e+00 8.043115735054016113e-01 5.200000000000000000e+01
-3.004882812500000000e+00 -6.157208681106567383e-01 -7.081459164619445801e-01 1.500000000000000000e+01
-4.519137954711914062e+01 -9.251801490783691406e+00 2.417502403259276900e+00 3.700000000000000000e+01
-3.563989400863647017e+00 -7.296374440193176270e-01 -7.071381211280822754e-01 1.300000000000000000e+01
-4.464912414550781250e+00 -9.124550819396972656e-01 -7.217886447906494141e-01 1.100000000000000000e+01
-5.969307899475097656e+00 -1.217724680900573953e+00 -7.480340003967285156e-01 9.000000000000000000e+00
-8.921795845031738281e+00 -1.818403244018554910e+00 -7.966035008430480957e-01 1.000000000000000000e+00
-3.431417083740233664e+01 -6.968824386596679688e+00 -6.111832857131958008e-01 7.000000000000000000e+00
-2.556546926498413086e+00 -5.154902935028076172e-01 -6.988114118576049805e-01 1.800000000000000000e+01
-4.518716812133789062e+01 -9.103124618530273438e+00 8.045908212661743164e-01 5.200000000000000000e+01
-3.008924245834351030e+00 -6.056126356124877930e-01 -7.085958123207092285e-01 1.400000000000000000e+01
-4.518032073974608664e+01 -9.085334777832031250e+00 2.415199756622314009e+00 3.700000000000000000e+01
-3.579987764358520952e+00 -7.199016809463500977e-01 -7.098094820976257324e-01 1.400000000000000000e+01
-4.462260246276854581e+00 -8.956977725028991699e-01 -7.208499908447265625e-01 1.200000000000000000e+01
-5.957951068878173828e+00 -1.193760514259337935e+00 -7.460840940475463867e-01 9.000000000000000000e+00
-8.939809799194335938e+00 -1.789595723152161089e+00 -7.976493835449218750e-01 1.000000000000000000e+00
-3.436966323852539062e+01 -6.855261325836181641e+00 -6.117417216300964355e-01 7.000000000000000000e+00
-2.562120914459228960e+00 -5.073136091232299805e-01 -6.998466849327087402e-01 1.800000000000000000e+01
-4.515981674194335938e+01 -8.933693885803222656e+00 8.035436868667602539e-01 5.200000000000000000e+01
-2.993813991546630859e+00 -5.917052030563354492e-01 -7.045466899871826172e-01 1.600000000000000000e+01
-4.520392227172852273e+01 -8.926023483276367188e+00 2.414781093597412109e+00 3.700000000000000000e+01
-3.576700687408446822e+00 -7.062598466873168945e-01 -7.086645960807800293e-01 1.300000000000000000e+01
-4.455668926239013672e+00 -8.782061338424682617e-01 -7.192856669425964355e-01 1.100000000000000000e+01
-5.944551944732666016e+00 -1.169507384300231934e+00 -7.438904643058776855e-01 1.100000000000000000e+01
-8.887352943420410156e+00 -1.746851205825806108e+00 -7.924200296401977539e-01 2.000000000000000000e+00
-3.444048309326171875e+01 -6.744470119476318359e+00 -6.125794649124145508e-01 7.000000000000000000e+00
-2.569565296173096147e+00 -4.994728863239287775e-01 -7.013996243476867676e-01 1.900000000000000000e+01
-4.517109680175781250e+01 -8.772190093994140625e+00 8.031946420669555664e-01 5.200000000000000000e+01
-2.999687433242797852e+00 -5.819935798645019531e-01 -7.054464817047119141e-01 1.500000000000000000e+01
-4.518382263183593750e+01 -8.758296012878417969e+00 2.412059545516968218e+00 3.700000000000000000e+01
-3.588781118392943892e+00 -6.956384778022766113e-01 -7.105727195739746094e-01 1.300000000000000000e+01
-4.458707332611083984e+00 -8.626476526260375977e-01 -7.192856669425964355e-01 1.100000000000000000e+01
-5.948597908020020419e+00 -1.148749947547913042e+00 -7.438904643058776855e-01 1.100000000000000000e+01
-8.877746582031250000e+00 -1.712798476219177024e+00 -7.910255193710327148e-01 1.000000000000000000e+00
-3.443239593505858664e+01 -6.618170261383056641e+00 -6.120209693908691406e-01 1.400000000000000000e+01
-2.567497730255126953e+00 -4.897764027118682861e-01 -7.003643512725830078e-01 1.900000000000000000e+01
-4.520537185668945312e+01 -8.615209579467773438e+00 8.032644391059875488e-01 5.200000000000000000e+01
-3.013186693191527876e+00 -5.737060904502868652e-01 -7.081459164619445801e-01 1.500000000000000000e+01
-4.518515014648438211e+01 -8.603182792663574219e+00 2.410594224929810014e+00 3.700000000000000000e+01
-3.573829412460327148e+00 -6.798052787780761719e-01 -7.071381211280822754e-01 1.300000000000000000e+01
-4.477217197418212891e+00 -8.500261902809143066e-01 -7.217886447906494141e-01 1.100000000000000000e+01
-5.933067798614501953e+00 -1.124282598495482954e+00 -7.414531111717224121e-01 9.000000000000000000e+00
-8.891501426696777344e+00 -1.683281302452086958e+00 -7.917227745056152344e-01 2.000000000000000000e+00
-3.440812683105468750e+01 -6.489044189453125000e+00 -6.111832857131958008e-01 1.400000000000000000e+01
-2.563495159149169922e+00 -4.797450602054595947e-01 -6.988114118576049805e-01 1.900000000000000000e+01
-4.518406295776367188e+01 -8.447805404663085938e+00 8.023569583892822266e-01 5.100000000000000000e+01
-3.011339902877808061e+00 -5.624690055847167969e-01 -7.072461247444152832e-01 1.500000000000000000e+01
-4.520460128784179688e+01 -8.435315132141113281e+00 2.409966230392456055e+00 3.700000000000000000e+01
-3.580040454864501953e+00 -6.680464148521423340e-01 -7.079013586044311523e-01 1.400000000000000000e+01
-4.464621067047119141e+00 -8.314992189407348633e-01 -7.192856669425964355e-01 1.100000000000000000e+01
-5.935004234313964844e+00 -1.103202700614928977e+00 -7.412093281745910645e-01 9.000000000000000000e+00
-8.869897842407226562e+00 -1.647141218185425027e+00 -7.892823815345764160e-01 2.000000000000000000e+00
-3.438731002807617188e+01 -6.360896110534667969e+00 -6.104153394699096680e-01 1.400000000000000000e+01
-2.563254117965697798e+00 -4.704451560974121094e-01 -6.982938051223754883e-01 2.200000000000000000e+01
-4.513853454589843750e+01 -8.276328086853027344e+00 8.010305762290954590e-01 5.100000000000000000e+01
-3.005617380142211914e+00 -5.505496263504028320e-01 -7.054464817047119141e-01 1.600000000000000000e+01
-4.520874786376953125e+01 -8.281046867370605469e+00 2.408710002899169922e+00 3.700000000000000000e+01
-3.580419301986693892e+00 -6.551922559738159180e-01 -7.075197696685791016e-01 1.400000000000000000e+01
-4.459723472595214844e+00 -8.144901394844055176e-01 -7.180342078208923340e-01 1.100000000000000000e+01
-5.942724704742431641e+00 -1.083190798759460005e+00 -7.416968345642089844e-01 9.000000000000000000e+00
-8.883434295654296875e+00 -1.617597222328186035e+00 -7.899796366691589355e-01 1.000000000000000000e+00
-3.441323852539063211e+01 -6.241536617279052734e+00 -6.104851961135864258e-01 1.400000000000000000e+01
-2.566781997680664062e+00 -4.618369638919829767e-01 -6.988114118576049805e-01 1.900000000000000000e+01
-4.515533828735352273e+01 -8.116591453552246094e+00 8.008211255073547363e-01 5.100000000000000000e+01
-2.990258455276488814e+00 -5.369548797607421875e-01 -7.013973593711853027e-01 1.300000000000000000e+01
-4.523738098144531250e+01 -8.123188018798828125e+00 2.408710002899169922e+00 3.700000000000000000e+01
-3.594279050827025923e+00 -6.447701454162597656e-01 -7.098094820976257324e-01 1.300000000000000000e+01
-4.454761505126953125e+00 -7.975253462791442871e-01 -7.167826890945434570e-01 1.100000000000000000e+01
-5.950377941131591797e+00 -1.063138484954833984e+00 -7.421842813491821289e-01 9.000000000000000000e+00
-8.861567497253417969e+00 -1.581677198410033958e+00 -7.875393033027648926e-01 1.000000000000000000e+00
-3.445450210571289062e+01 -6.124874114990234375e+00 -6.108342409133911133e-01 1.400000000000000000e+01
-2.577811479568481001e+00 -4.550016224384307861e-01 -7.013996243476867676e-01 1.900000000000000000e+01
-4.517018890380858664e+01 -7.964723110198974609e+00 8.006116747856140137e-01 5.100000000000000000e+01
-3.005456924438477007e+00 -5.294023156166076660e-01 -7.045466899871826172e-01 1.500000000000000000e+01
-4.521431732177733664e+01 -7.956231594085693359e+00 2.405988693237305132e+00 3.700000000000000000e+01
-3.584796190261840820e+00 -6.308061480522155762e-01 -7.075197696685791016e-01 1.200000000000000000e+01
-4.465164184570313388e+00 -7.841151356697082520e-01 -7.180342078208923340e-01 1.100000000000000000e+01
-5.924541473388671875e+00 -1.038260579109191895e+00 -7.385281920433044434e-01 1.100000000000000000e+01
-8.874613761901855469e+00 -1.553656816482543945e+00 -7.882365584373474121e-01 2.000000000000000000e+00
-3.427368545532227273e+01 -5.975552082061767578e+00 -6.072739362716674805e-01 1.300000000000000000e+01
-2.571769714355469194e+00 -4.446839988231658936e-01 -6.993290781974792480e-01 2.100000000000000000e+01
-4.516224670410156250e+01 -7.800874710083007812e+00 7.999833822250366211e-01 5.100000000000000000e+01
-3.005366086959838867e+00 -5.185766816139221191e-01 -7.040967941284179688e-01 1.300000000000000000e+01
-4.520896148681641336e+01 -7.800817966461181641e+00 2.404313802719116211e+00 3.600000000000000000e+01
-3.583106756210327148e+00 -6.176220178604125977e-01 -7.067565321922302246e-01 1.200000000000000000e+01
-4.469820976257324219e+00 -7.688588500022888184e-01 -7.183470726013183594e-01 1.200000000000000000e+01
-5.935955524444580078e+00 -1.018917083740233931e+00 -7.395032048225402832e-01 1.100000000000000000e+01
-8.864273071289062500e+00 -1.519975304603577104e+00 -7.868420481681823730e-01 2.000000000000000000e+00
-3.443231964111328125e+01 -5.879438877105712891e+00 -6.097172498703002930e-01 1.400000000000000000e+01
-2.556087970733643022e+00 -4.332477450370789129e-01 -6.946703195571899414e-01 2.000000000000000000e+01
-4.517998123168945312e+01 -7.649733066558837891e+00 7.998437881469726562e-01 5.100000000000000000e+01
-3.014755010604857954e+00 -5.099076628684997559e-01 -7.058964371681213379e-01 1.400000000000000000e+01
-4.519519424438477273e+01 -7.644195079803466797e+00 2.402220487594604048e+00 3.600000000000000000e+01
-3.585135221481322798e+00 -6.057366132736206055e-01 -7.067565321922302246e-01 1.300000000000000000e+01
-4.474293708801270419e+00 -7.543606162071228027e-01 -7.186599373817443848e-01 1.100000000000000000e+01
-5.923641204833984375e+00 -9.965924024581909180e-01 -7.375532388687133789e-01 1.100000000000000000e+01
-8.833897590637207031e+00 -1.484628200531006081e+00 -7.837044596672058105e-01 2.000000000000000000e+00
-3.442401504516602273e+01 -5.760604381561279297e+00 -6.092286109924316406e-01 1.300000000000000000e+01
-2.563302040100098100e+00 -4.252712428569794256e-01 -6.962232589721679688e-01 2.100000000000000000e+01
-4.514722442626953125e+01 -7.482170581817626953e+00 7.987966537475585938e-01 5.100000000000000000e+01
-3.004981279373168945e+00 -4.974714219570159912e-01 -7.031970024108886719e-01 1.400000000000000000e+01
-4.522160339355468750e+01 -7.486387729644775391e+00 2.402220487594604048e+00 3.600000000000000000e+01
-3.577543020248413086e+00 -5.916169285774230957e-01 -7.048484086990356445e-01 1.200000000000000000e+01
-4.461307525634765625e+00 -7.361649274826049805e-01 -7.161569595336914062e-01 1.100000000000000000e+01
-5.938836097717285156e+00 -9.778440594673156738e-01 -7.390156984329223633e-01 1.100000000000000000e+01
-8.839026451110839844e+00 -1.453783035278320090e+00 -7.837044596672058105e-01 2.000000000000000000e+00
-3.442812347412108664e+01 -5.637821674346923828e+00 -6.089493632316589355e-01 1.300000000000000000e+01
-2.570491552352904829e+00 -4.172496497631072998e-01 -6.977761387825012207e-01 2.300000000000000000e+01
-4.516517257690429688e+01 -7.323251724243164062e+00 7.986570000648498535e-01 5.100000000000000000e+01
-2.997081041336060014e+00 -4.854212105274199884e-01 -7.009474635124206543e-01 1.500000000000000000e+01
-4.518436813354492188e+01 -7.318270683288574219e+00 2.398870944976807085e+00 3.600000000000000000e+01
-3.583462476730347124e+00 -5.797524452209472656e-01 -7.056116461753845215e-01 1.300000000000000000e+01
-4.463850021362304688e+00 -7.205875515937805176e-01 -7.161569595336914062e-01 1.100000000000000000e+01
-5.932414054870604581e+00 -9.555293321609497070e-01 -7.377970218658447266e-01 1.100000000000000000e+01
-8.851915359497070312e+00 -1.424186229705810991e+00 -7.844016551971435547e-01 2.000000000000000000e+00
-3.447523880004882812e+01 -5.522038459777832031e+00 -6.094380617141723633e-01 7.000000000000000000e+00
-2.571932315826416016e+00 -4.082744121551514227e-01 -6.977761387825012207e-01 2.000000000000000000e+01
-4.517860794067382812e+01 -7.163671970367431641e+00 7.984476089477539062e-01 5.100000000000000000e+01
-2.992983102798461914e+00 -4.740419387817382812e-01 -6.995977759361267090e-01 1.400000000000000000e+01
-4.521752929687500000e+01 -7.161753177642822266e+00 2.399289608001708984e+00 3.600000000000000000e+01
-3.581586122512816939e+00 -5.666267275810241699e-01 -7.048484086990356445e-01 1.200000000000000000e+01
-4.466338157653808594e+00 -7.050014138221740723e-01 -7.161569595336914062e-01 1.100000000000000000e+01
-5.918065071105957031e+00 -9.320361018180847168e-01 -7.356033325195312500e-01 1.100000000000000000e+01
-8.848959922790527344e+00 -1.392040133476257102e+00 -7.837044596672058105e-01 2.000000000000000000e+00
-3.470372009277343750e+01 -5.434457302093505859e+00 -6.131379604339599609e-01 1.400000000000000000e+01
-2.579138755798339844e+00 -3.997327089309691828e-01 -6.993290781974792480e-01 2.100000000000000000e+01
-4.515318298339843750e+01 -6.990081787109375000e+00 7.975400686264038086e-01 5.100000000000000000e+01
-3.004329681396483931e+00 -4.645578861236572266e-01 -7.018473148345947266e-01 1.500000000000000000e+01
-4.520127105712891336e+01 -6.981370925903320312e+00 2.396986722946166992e+00 3.600000000000000000e+01
-3.583638906478881836e+00 -5.534957647323608398e-01 -7.048484086990356445e-01 1.300000000000000000e+01
-4.480606079101563388e+00 -6.904317736625671387e-01 -7.180342078208923340e-01 1.100000000000000000e+01
-5.911631107330322266e+00 -9.088308811187744141e-01 -7.343846559524536133e-01 1.100000000000000000e+01
-8.842186927795410156e+00 -1.357783317565917969e+00 -7.826585769653320312e-01 2.000000000000000000e+00
-3.472735977172852273e+01 -5.307829856872558594e+00 -6.132077574729919434e-01 1.400000000000000000e+01
-2.567147731781005859e+00 -3.887028992176055908e-01 -6.957055926322937012e-01 2.000000000000000000e+01
-4.518521499633789062e+01 -6.833621501922607422e+00 7.976796627044677734e-01 5.100000000000000000e+01
-2.996298551559447798e+00 -4.526126384735106867e-01 -6.995977759361267090e-01 1.400000000000000000e+01
-4.520561599731445312e+01 -6.820566654205322266e+00 2.395940065383911133e+00 3.600000000000000000e+01
-3.583607673645019975e+00 -5.406902432441711426e-01 -7.044668197631835938e-01 1.300000000000000000e+01
-4.473221778869628906e+00 -6.733172535896301270e-01 -7.164698243141174316e-01 1.000000000000000000e+01
-5.928509235382080078e+00 -8.902533650398254395e-01 -7.360908389091491699e-01 9.000000000000000000e+00
-8.846872329711914062e+00 -1.326910018920897993e+00 -7.826585769653320312e-01 2.000000000000000000e+00
-3.474567413330078125e+01 -5.186576366424561435e+00 -6.132077574729919434e-01 1.400000000000000000e+01
-2.570399999618529829e+00 -3.800220787525177002e-01 -6.962232589721679688e-01 2.100000000000000000e+01
-4.518901062011718750e+01 -6.672932624816895419e+00 7.973306179046630859e-01 5.100000000000000000e+01
-3.011355400085449219e+00 -4.441412389278411865e-01 -7.027471065521240234e-01 1.200000000000000000e+01
-4.522124481201171875e+01 -6.661563873291015625e+00 2.395521402359008789e+00 3.600000000000000000e+01
-3.583530902862548828e+00 -5.278916954994201660e-01 -7.040851712226867676e-01 1.200000000000000000e+01
-4.463818550109863281e+00 -6.559754610061645508e-01 -7.145926356315612793e-01 1.000000000000000000e+01
-5.939436912536621094e+00 -8.707053065299987793e-01 -7.370657920837402344e-01 9.000000000000000000e+00
-8.835680007934570312e+00 -1.293711423873900923e+00 -7.812640666961669922e-01 2.000000000000000000e+00
-3.474773788452147727e+01 -5.062952995300292969e+00 -6.129285097122192383e-01 2.100000000000000000e+01
-2.575535058975220171e+00 -3.715991377830504816e-01 -6.972585320472717285e-01 2.200000000000000000e+01
-4.516056823730468750e+01 -6.507737636566162109e+00 7.964231371879577637e-01 5.000000000000000000e+01
-2.987812042236328125e+00 -4.300180077552794855e-01 -6.968983411788940430e-01 1.300000000000000000e+01
-4.522050094604492188e+01 -6.500261783599854404e+00 2.394265413284302202e+00 3.600000000000000000e+01
-3.591181755065917969e+00 -5.162176489830017090e-01 -7.052300572395324707e-01 1.200000000000000000e+01
-4.469992160797119141e+00 -6.409505605697631836e-01 -7.152183651924133301e-01 1.000000000000000000e+01
-5.926719188690186435e+00 -8.477188944816589355e-01 -7.351158857345581055e-01 1.100000000000000000e+01
-8.824362754821777344e+00 -1.260607123374938965e+00 -7.798695564270019531e-01 2.000000000000000000e+00
-3.473748016357421875e+01 -4.937690258026123047e+00 -6.124398708343505859e-01 1.400000000000000000e+01
-2.584404945373535156e+00 -3.641344308853148859e-01 -6.993290781974792480e-01 2.200000000000000000e+01
-4.518982315063477273e+01 -6.359058380126953125e+00 7.965627312660217285e-01 5.000000000000000000e+01
-2.991151332855225053e+00 -4.203789234161376953e-01 -6.973482966423034668e-01 1.200000000000000000e+01
-4.519829177856445312e+01 -6.344161510467529297e+00 2.391962528228760210e+00 3.600000000000000000e+01
-3.588985443115233931e+00 -5.037602782249450684e-01 -7.044668197631835938e-01 1.200000000000000000e+01
-4.476005554199218750e+00 -6.266717910766601562e-01 -7.158440947532653809e-01 1.000000000000000000e+01
-5.905905723571777344e+00 -8.247658610343933105e-01 -7.321910262107849121e-01 9.000000000000000000e+00
-8.852173805236816406e+00 -1.234640240669250044e+00 -7.819613218307495117e-01 2.000000000000000000e+00
-3.478139495849608664e+01 -4.826317310333251953e+00 -6.129285097122192383e-01 7.000000000000000000e+00
-2.570349216461182085e+00 -3.530081510543823242e-01 -6.951879262924194336e-01 1.900000000000000000e+01
-4.519193267822266336e+01 -6.198560237884520596e+00 7.962136864662170410e-01 5.000000000000000000e+01
-2.998392820358275923e+00 -4.107287228107451837e-01 -6.986979842185974121e-01 1.400000000000000000e+01
-4.518454360961914062e+01 -6.181478500366210938e+00 2.390078544616699219e+00 3.600000000000000000e+01
-3.573215723037720171e+00 -4.888343513011931818e-01 -7.010322213172912598e-01 1.200000000000000000e+01
-4.485994815826416016e+00 -6.121120452880859375e-01 -7.170956134796142578e-01 1.000000000000000000e+01
-5.920550346374511719e+00 -8.057515621185302734e-01 -7.336534261703491211e-01 9.000000000000000000e+00
-8.824841499328613281e+00 -1.199439525604248047e+00 -7.791723608970642090e-01 2.000000000000000000e+00
-3.479010391235352273e+01 -4.703806400299072266e+00 -6.127889156341552734e-01 7.000000000000000000e+00
-2.563906669616699219e+00 -3.430091142654418945e-01 -6.931173801422119141e-01 2.200000000000000000e+01
-4.518951034545897727e+01 -6.037595748901367188e+00 7.957948446273803711e-01 5.000000000000000000e+01
-3.007534742355347124e+00 -4.012908041477202814e-01 -7.004975676536560059e-01 1.300000000000000000e+01
-4.519001007080078125e+01 -6.021606922149658203e+00 2.389240980148314986e+00 3.600000000000000000e+01
-3.582684516906737837e+00 -4.773957729339600164e-01 -7.025586962699890137e-01 1.100000000000000000e+01
-4.484187602996826172e+00 -5.959288477897644043e-01 -7.164698243141174316e-01 1.000000000000000000e+01
-5.915455341339111328e+00 -7.840367555618286133e-01 -7.326784729957580566e-01 9.000000000000000000e+00
-8.805273056030273438e+00 -1.165490508079529031e+00 -7.770805954933166504e-01 2.000000000000000000e+00
-3.483406448364257812e+01 -4.585991859436035156e+00 -6.132775545120239258e-01 7.000000000000000000e+00
-2.574666738510131836e+00 -3.353047370910645086e-01 -6.957055926322937012e-01 1.900000000000000000e+01
-4.518651199340820312e+01 -5.876723289489746094e+00 7.953759431838989258e-01 5.000000000000000000e+01
-3.003119707107543945e+00 -3.900371491909027100e-01 -6.991478800773620605e-01 1.500000000000000000e+01
-4.522263717651367188e+01 -5.865369319915770596e+00 2.389869213104248047e+00 3.600000000000000000e+01
-3.576541423797606978e+00 -4.638768732547760010e-01 -7.010322213172912598e-01 1.200000000000000000e+01
-4.470568180084229404e+00 -5.782453417778015137e-01 -7.139669060707092285e-01 1.000000000000000000e+01
-5.920125007629395419e+00 -7.636371254920959473e-01 -7.329222559928894043e-01 7.000000000000000000e+00
-8.789526939392089844e+00 -1.132201910018920898e+00 -7.753375172615051270e-01 2.000000000000000000e+00
-1.807249450683594105e+01 -2.321552276611328125e+00 -9.549218416213989258e-01 6.000000000000000000e+00
-3.484986114501953125e+01 -4.464370250701904297e+00 -6.132775545120239258e-01 7.000000000000000000e+00
-2.573961734771728960e+00 -3.256234228610991877e-01 -6.951879262924194336e-01 1.900000000000000000e+01
-4.518394088745117188e+01 -5.708059310913085938e+00 7.949571013450622559e-01 5.000000000000000000e+01
-2.985194921493529829e+00 -3.765884935855864923e-01 -6.946488618850708008e-01 1.300000000000000000e+01
-4.502981948852539062e+01 -5.672620296478270596e+00 2.378564596176147017e+00 3.500000000000000000e+01
-3.580165386199951172e+00 -4.510104656219481867e-01 -7.014138698577880859e-01 1.200000000000000000e+01
-4.480043029785156250e+01 -5.635780334472656250e+00 3.950421094894409180e+00 5.400000000000000000e+01
-4.480497360229492188e+00 -5.628408193588256836e-01 -7.152183651924133301e-01 1.000000000000000000e+01
-5.922883987426757812e+00 -7.419337034225463867e-01 -7.329222559928894043e-01 1.100000000000000000e+01
-8.797572135925292969e+00 -1.100473642349242942e+00 -7.756860852241516113e-01 2.000000000000000000e+00
-1.808088111877441051e+01 -2.255297660827637163e+00 -9.549218416213989258e-01 6.000000000000000000e+00
-3.482431793212891336e+01 -4.331426143646240234e+00 -6.125445365905761719e-01 2.100000000000000000e+01
-2.577000141143798828e+00 -3.168723881244658869e-01 -6.957055926322937012e-01 2.000000000000000000e+01
-4.467563629150391336e+01 -5.485478401184082031e+00 7.856724262237548828e-01 4.900000000000000000e+01
-2.994228124618529829e+00 -3.671145439147949219e-01 -6.964484453201293945e-01 1.500000000000000000e+01
-4.470836257934570312e+01 -5.473655700683593750e+00 2.360560894012451172e+00 3.500000000000000000e+01
-3.575871706008911133e+00 -4.377948641777039129e-01 -7.002689838409423828e-01 1.300000000000000000e+01
-4.476840972900391336e+01 -5.473076820373535156e+00 3.945888996124268022e+00 5.400000000000000000e+01
-4.472630500793457031e+00 -5.460007190704345703e-01 -7.136540412902832031e-01 8.000000000000000000e+00
-5.917555809020996094e+00 -7.202950119972229004e-01 -7.319473028182983398e-01 1.100000000000000000e+01
-8.785536766052246094e+00 -1.067834496498107910e+00 -7.742916345596313477e-01 2.000000000000000000e+00
-3.482532882690429688e+01 -4.208160877227783203e+00 -6.123002171516418457e-01 1.400000000000000000e+01
-2.574200391769409180e+00 -3.078661859035491943e-01 -6.946703195571899414e-01 1.900000000000000000e+01
-4.468563842773438211e+01 -5.336349964141845703e+00 7.855328321456909180e-01 4.900000000000000000e+01
-2.995429039001464844e+00 -3.571833074092864990e-01 -6.964484453201293945e-01 1.500000000000000000e+01
-4.473419952392578125e+01 -5.326312065124511719e+00 2.360979557037353960e+00 3.500000000000000000e+01
-3.569505929946898970e+00 -4.250059723854064941e-01 -6.987425684928894043e-01 1.300000000000000000e+01
-4.475070190429688211e+01 -5.320355415344238281e+00 3.942751407623291016e+00 5.400000000000000000e+01
-4.482263088226318359e+00 -5.320973992347717285e-01 -7.149055004119873047e-01 8.000000000000000000e+00
-5.913997650146484375e+00 -6.999677419662475586e-01 -7.312160730361938477e-01 1.000000000000000000e+01
-8.796943664550781250e+00 -1.039630055427551047e+00 -7.749888896942138672e-01 2.000000000000000000e+00
-3.483313369750977273e+01 -4.091952800750732422e+00 -6.121954917907714844e-01 2.100000000000000000e+01
-2.567583560943603960e+00 -2.979878187179564875e-01 -6.925997734069824219e-01 2.000000000000000000e+01
-4.470399475097656250e+01 -5.180335521697998047e+00 7.855328321456909180e-01 4.900000000000000000e+01
-3.000529289245605025e+00 -3.471730947494506836e-01 -6.973482966423034668e-01 1.400000000000000000e+01
-4.472077560424804688e+01 -5.166460514068604404e+00 2.359304904937744141e+00 3.400000000000000000e+01
-3.580719232559204102e+00 -4.136700332164763849e-01 -7.006506323814392090e-01 1.300000000000000000e+01
-4.475712203979492188e+01 -5.162744045257568359e+00 3.941705703735352007e+00 5.400000000000000000e+01
-4.480168342590332031e+00 -5.159960985183715820e-01 -7.142797708511352539e-01 1.000000000000000000e+01
-5.924293518066406250e+00 -6.802255511283874512e-01 -7.321910262107849121e-01 9.000000000000000000e+00
-8.800519943237304688e+00 -1.008916735649109109e+00 -7.749888896942138672e-01 2.000000000000000000e+00
-3.478163909912108664e+01 -3.962867259979248047e+00 -6.110436320304870605e-01 2.100000000000000000e+01
-2.562798500061035156e+00 -2.888227403163909912e-01 -6.910468339920043945e-01 1.900000000000000000e+01
-4.470900344848632812e+01 -5.030721664428710938e+00 7.853233814239501953e-01 4.900000000000000000e+01
-2.991981267929077148e+00 -3.361332416534423828e-01 -6.950987577438354492e-01 1.300000000000000000e+01
-4.474560165405272727e+01 -5.019023418426513672e+00 2.359723567962646040e+00 3.400000000000000000e+01
-3.572316169738769975e+00 -4.006994664669036865e-01 -6.987425684928894043e-01 1.300000000000000000e+01
-4.478587722778320312e+01 -5.015626430511474609e+00 3.942751407623291016e+00 5.400000000000000000e+01
-4.470076084136962891e+00 -4.998194277286530096e-01 -7.124025821685791016e-01 1.000000000000000000e+01
-5.922570705413818359e+00 -6.601363420486450195e-01 -7.317035198211669922e-01 9.000000000000000000e+00
-8.768174171447753906e+00 -9.757610559463500977e-01 -7.718512415885925293e-01 2.000000000000000000e+00
-1.810990715026855113e+01 -2.008950948715209961e+00 -9.549218416213989258e-01 6.000000000000000000e+00
-3.481048965454102273e+01 -3.849263668060303178e+00 -6.113228797912597656e-01 1.400000000000000000e+01
-2.577234029769897017e+00 -2.813426554203032892e-01 -6.946703195571899414e-01 1.800000000000000000e+01
-4.471834182739257812e+01 -4.873760700225830078e+00 7.851837873458862305e-01 4.900000000000000000e+01
-2.991199016571044922e+00 -3.254764378070830744e-01 -6.946488618850708008e-01 1.400000000000000000e+01
-4.473505020141602273e+01 -4.859781742095947266e+00 2.358258247375487837e+00 3.400000000000000000e+01
-3.585403680801392046e+00 -3.894994854927062988e-01 -7.010322213172912598e-01 1.200000000000000000e+01
-4.481103515625000000e+01 -4.860123157501220703e+00 3.943448781967163086e+00 5.400000000000000000e+01
-4.471793651580811435e+00 -4.842129051685333252e-01 -7.124025821685791016e-01 8.000000000000000000e+00
-5.901155471801757812e+00 -6.369025707244873047e-01 -7.287786602973937988e-01 1.100000000000000000e+01
-8.763603210449218750e+00 -9.442946910858154297e-01 -7.711539864540100098e-01 2.000000000000000000e+00
-3.481576156616210938e+01 -3.726877450942993164e+00 -6.111832857131958008e-01 2.100000000000000000e+01
-2.576279163360596147e+00 -2.721417844295502264e-01 -6.941526532173156738e-01 1.900000000000000000e+01
-4.474303436279296875e+01 -4.718473911285400391e+00 7.853233814239501953e-01 4.900000000000000000e+01
-2.986502885818481001e+00 -3.144211173057556152e-01 -6.932991743087768555e-01 1.500000000000000000e+01
-4.480256271362304688e+01 -4.716845035552979404e+00 2.360979557037353960e+00 3.500000000000000000e+01
-3.584789037704468218e+00 -3.767765164375305176e-01 -7.006506323814392090e-01 1.300000000000000000e+01
-4.479007720947266336e+01 -4.699723243713378906e+00 3.940136909484862837e+00 5.400000000000000000e+01
-4.473456382751464844e+00 -4.686004817485808771e-01 -7.124025821685791016e-01 1.000000000000000000e+01
-5.903342723846436435e+00 -6.162998080253601074e-01 -7.287786602973937988e-01 1.100000000000000000e+01
-8.774772644042968750e+00 -9.145243763923645020e-01 -7.718512415885925293e-01 2.000000000000000000e+00
-3.478678894042968750e+01 -3.601001262664794922e+00 -6.104502677917480469e-01 2.100000000000000000e+01
-2.569526195526123047e+00 -2.623623013496398926e-01 -6.920821070671081543e-01 1.600000000000000000e+01
-2.995337247848511186e+00 -3.047834336757659912e-01 -6.950987577438354492e-01 1.600000000000000000e+01
-3.562644004821776900e+00 -3.618801832199097235e-01 -6.960712075233459473e-01 1.300000000000000000e+01
-4.480620956420897727e+01 -4.543348312377929688e+00 3.940136909484862837e+00 5.400000000000000000e+01
-4.486856937408447266e+00 -4.541759788990020752e-01 -7.142797708511352539e-01 8.000000000000000000e+00
-5.893607616424561435e+00 -5.944941639900207520e-01 -7.273162603378295898e-01 9.000000000000000000e+00
-8.758087158203125000e+00 -8.818930387496948242e-01 -7.701081633567810059e-01 2.000000000000000000e+00
-3.481506347656250000e+01 -3.481142282485961914e+00 -6.107295155525207520e-01 2.100000000000000000e+01
-2.560813665390015093e+00 -2.524437606334685724e-01 -6.894939541816711426e-01 1.700000000000000000e+01
-2.996382713317871094e+00 -2.943259179592133123e-01 -6.950987577438354492e-01 1.500000000000000000e+01
-3.571701049804687944e+00 -3.502083420753479004e-01 -6.975976824760437012e-01 1.200000000000000000e+01
-4.477420806884766336e+01 -4.382259845733642578e+00 3.935953378677368164e+00 5.400000000000000000e+01
-4.472686767578125000e+00 -4.369745552539824884e-01 -7.117767930030822754e-01 8.000000000000000000e+00
-5.911452770233154297e+00 -5.754566788673400879e-01 -7.292661666870117188e-01 9.000000000000000000e+00
-8.741281509399414062e+00 -8.493893146514892578e-01 -7.683650255203247070e-01 2.000000000000000000e+00
-3.478719329833983664e+01 -3.355753660202025923e+00 -6.100314259529113770e-01 2.100000000000000000e+01
-2.565525531768798828e+00 -2.438689470291137973e-01 -6.905292272567749023e-01 1.800000000000000000e+01
-3.005152225494385210e+00 -2.845997214317321777e-01 -6.968983411788940430e-01 1.500000000000000000e+01
-3.576810598373413086e+00 -3.381081521511077881e-01 -6.983609199523925781e-01 1.300000000000000000e+01
-4.476939773559570312e+01 -4.224070549011229581e+00 3.934210300445557085e+00 5.400000000000000000e+01
-4.462384700775145596e+00 -4.202480316162108820e-01 -7.098996043205261230e-01 8.000000000000000000e+00
-5.917378425598145419e+00 -5.551891922950744629e-01 -7.297536134719848633e-01 9.000000000000000000e+00
-8.748161315917968750e+00 -8.192428946495056152e-01 -7.687136530876159668e-01 2.000000000000000000e+00
-3.478475952148438211e+01 -3.233007907867432085e+00 -6.097871065139770508e-01 1.400000000000000000e+01
-2.574056386947631836e+00 -2.356164902448653897e-01 -6.925997734069824219e-01 1.900000000000000000e+01
-2.980898380279541016e+00 -2.718075811862946112e-01 -6.910496354103088379e-01 1.400000000000000000e+01
-3.577969074249268022e+00 -3.256207108497620184e-01 -6.983609199523925781e-01 1.200000000000000000e+01
-4.477593231201171875e+01 -4.067049503326416016e+00 3.933512926101685014e+00 5.400000000000000000e+01
-4.459889888763427734e+00 -4.043121337890625000e-01 -7.092738747596740723e-01 8.000000000000000000e+00
-5.915326118469238281e+00 -5.341732501983642578e-01 -7.292661666870117188e-01 1.100000000000000000e+01
-8.743029594421386719e+00 -7.879857420921325684e-01 -7.680163979530334473e-01 2.000000000000000000e+00
-3.480977249145507812e+01 -3.112813472747803178e+00 -6.100314259529113770e-01 2.100000000000000000e+01
-2.586409568786621094e+00 -2.276461869478225986e-01 -6.957055926322937012e-01 1.900000000000000000e+01
-2.989594221115111861e+00 -2.620813846588134766e-01 -6.928492188453674316e-01 1.300000000000000000e+01
-3.571260929107666016e+00 -3.124448359012603760e-01 -6.968344449996948242e-01 1.200000000000000000e+01
-4.482558059692382812e+01 -3.913846969604492188e+00 3.936650514602661133e+00 5.400000000000000000e+01
-4.471113681793212891e+00 -3.895991444587708075e-01 -7.108381986618041992e-01 1.000000000000000000e+01
-5.899355888366699219e+00 -5.119769573211669922e-01 -7.270724773406982422e-01 1.100000000000000000e+01
-8.745727539062500000e+00 -7.574620842933654785e-01 -7.680163979530334473e-01 2.000000000000000000e+00
-3.480448913574218750e+01 -2.989916563034058061e+00 -6.097521781921386719e-01 2.100000000000000000e+01
-2.577601671218872070e+00 -2.173533737659454068e-01 -6.931173801422119141e-01 2.100000000000000000e+01
-2.996360301971435991e+00 -2.516114115715026855e-01 -6.941989660263061523e-01 1.500000000000000000e+01
-3.558687210083007812e+00 -2.982058525085449219e-01 -6.941631436347961426e-01 1.300000000000000000e+01
-4.479991531372070312e+01 -3.746206283569335938e+00 3.933164358139038086e+00 5.400000000000000000e+01
-4.478417396545410156e+00 -3.737018704414368231e-01 -7.117767930030822754e-01 8.000000000000000000e+00
-5.897236347198486328e+00 -4.900225400924683172e-01 -7.265850305557250977e-01 1.100000000000000000e+01
-8.716675758361816406e+00 -7.227680683135986328e-01 -7.652274370193481445e-01 2.000000000000000000e+00
-3.482119369506835938e+01 -2.862823247909545898e+00 -6.098569035530090332e-01 2.100000000000000000e+01
-2.561014413833618164e+00 -2.069541066884995062e-01 -6.884586811065673828e-01 2.000000000000000000e+01
-2.995277881622314009e+00 -2.409943342208862027e-01 -6.937490701675415039e-01 1.400000000000000000e+01
-3.563620328903197798e+00 -2.860960960388184149e-01 -6.949263811111450195e-01 1.200000000000000000e+01
-4.477697372436522727e+01 -3.586938858032227007e+00 3.930026769638061968e+00 5.400000000000000000e+01
-4.475756168365479404e+00 -3.577522337436676025e-01 -7.111510634422302246e-01 8.000000000000000000e+00
-5.890995502471923828e+00 -4.688044786453247070e-01 -7.256100773811340332e-01 1.100000000000000000e+01
-8.687367439270019531e+00 -6.898134350776672363e-01 -7.624384164810180664e-01 2.000000000000000000e+00
-3.481502532958983664e+01 -2.740001916885375977e+00 -6.095776557922363281e-01 1.400000000000000000e+01
-2.565573453903197798e+00 -1.983110010623931885e-01 -6.894939541816711426e-01 1.800000000000000000e+01
-2.996100902557373047e+00 -2.305373996496201117e-01 -6.937490701675415039e-01 1.400000000000000000e+01
-3.558724880218505859e+00 -2.732041776180266779e-01 -6.937814950942993164e-01 1.100000000000000000e+01
-4.478921890258789062e+01 -3.430616140365601030e+00 3.930026769638061968e+00 5.400000000000000000e+01
-4.469099044799804688e+00 -3.415246605873107910e-01 -7.098996043205261230e-01 1.000000000000000000e+01
-5.892596244812011719e+00 -4.482381939887999933e-01 -7.256100773811340332e-01 1.100000000000000000e+01
-8.681775093078613281e+00 -6.588816046714782715e-01 -7.617412209510803223e-01 2.000000000000000000e+00
-3.479247283935546875e+01 -2.616059064865111861e+00 -6.090191602706909180e-01 2.000000000000000000e+01
-2.566250085830688032e+00 -1.893542706966399869e-01 -6.894939541816711426e-01 1.800000000000000000e+01
-4.493356323242188211e+01 -3.307599544525146040e+00 7.864403128623962402e-01 4.900000000000000000e+01
-2.979395866394042969e+00 -2.187931537628174106e-01 -6.896999478340148926e-01 1.500000000000000000e+01
-4.492919158935546875e+01 -3.299393653869628906e+00 2.360979557037353960e+00 3.500000000000000000e+01
-3.571404933929442915e+00 -2.616409063339232843e-01 -6.960712075233459473e-01 1.300000000000000000e+01
-4.475720596313477273e+01 -3.271056652069091797e+00 3.926191806793212891e+00 5.400000000000000000e+01
-4.464353561401367188e+00 -3.254916071891785223e-01 -7.089610099792480469e-01 1.000000000000000000e+01
-5.882245540618895596e+00 -4.268045127391815186e-01 -7.241476178169250488e-01 1.100000000000000000e+01
-8.699919700622558594e+00 -6.297232508659362793e-01 -7.631356716156005859e-01 2.000000000000000000e+00
-3.480139160156250000e+01 -2.494594812393188032e+00 -6.090191602706909180e-01 1.300000000000000000e+01
-2.578457832336425781e+00 -1.812078207731246948e-01 -6.925997734069824219e-01 1.800000000000000000e+01
-2.982085466384888139e+00 -2.085277289152145108e-01 -6.901498436927795410e-01 1.400000000000000000e+01
-3.566421031951903853e+00 -2.487629503011702936e-01 -6.949263811111450195e-01 1.300000000000000000e+01
-4.479220199584960938e+01 -3.116464376449584961e+00 3.928283691406250000e+00 5.400000000000000000e+01
-4.463491916656494141e+00 -3.097693324089049738e-01 -7.086481451988220215e-01 8.000000000000000000e+00
-5.871817111968994141e+00 -4.054485857486724854e-01 -7.226852178573608398e-01 1.100000000000000000e+01
-8.674237251281738281e+00 -5.974344015121459961e-01 -7.606953382492065430e-01 2.000000000000000000e+00
-3.475801467895507812e+01 -2.369563817977904829e+00 -6.081116795539855957e-01 1.300000000000000000e+01
-2.569437026977539062e+00 -1.715627014636993131e-01 -6.900115609169006348e-01 1.900000000000000000e+01
-2.986684083938599077e+00 -1.983753293752670011e-01 -6.910496354103088379e-01 1.400000000000000000e+01
-3.557472705841064009e+00 -2.356634587049483975e-01 -6.930182576179504395e-01 1.300000000000000000e+01
-4.480678558349608664e+01 -2.960354089736938032e+00 3.928632259368896040e+00 5.400000000000000000e+01
-4.476372718811035156e+00 -2.949662804603577215e-01 -7.105253338813781738e-01 8.000000000000000000e+00
-5.873196601867675781e+00 -3.849496543407440186e-01 -7.226852178573608398e-01 1.100000000000000000e+01
-8.644459724426269531e+00 -5.650726556777954102e-01 -7.579063177108764648e-01 2.000000000000000000e+00
-3.478602981567382812e+01 -2.249511718750000000e+00 -6.084607243537902832e-01 2.000000000000000000e+01
-2.564179420471190962e+00 -1.631217896938323975e-01 -6.884586811065673828e-01 2.000000000000000000e+01
-2.995071887969971147e+00 -1.894835978746413907e-01 -6.928492188453674316e-01 1.400000000000000000e+01
-3.552317380905150923e+00 -2.241153270006180087e-01 -6.918734312057495117e-01 1.200000000000000000e+01
-4.477609252929688211e+01 -2.817073106765747070e+00 3.925146102905272993e+00 5.400000000000000000e+01
-4.461505413055419922e+00 -2.799123525619506836e-01 -7.080224156379699707e-01 1.000000000000000000e+01
-5.878339767456054688e+00 -3.667438030242919922e-01 -7.231726646423339844e-01 1.100000000000000000e+01
-8.654146194458007812e+00 -5.384073853492736816e-01 -7.586035728454589844e-01 3.000000000000000000e+00
-3.476099014282227273e+01 -2.138252973556518999e+00 -6.079022288322448730e-01 2.000000000000000000e+01
-2.566661596298218218e+00 -1.542860567569732944e-01 -6.889762878417968750e-01 2.100000000000000000e+01
-2.987934112548828125e+00 -1.785626858472824097e-01 -6.910496354103088379e-01 1.400000000000000000e+01
-4.497041320800781250e+01 -2.679611444473267046e+00 2.360979557037353960e+00 3.500000000000000000e+01
-3.558957576751708984e+00 -2.120643854141235074e-01 -6.930182576179504395e-01 1.300000000000000000e+01
-4.482543182373046875e+01 -2.663121461868286133e+00 3.928632259368896040e+00 5.400000000000000000e+01
-4.452595710754395419e+00 -2.637530565261840820e-01 -7.064580321311950684e-01 1.000000000000000000e+01
-5.871657371520996094e+00 -3.457555770874022882e-01 -7.221977114677429199e-01 1.300000000000000000e+01
-8.632105827331542969e+00 -5.067942142486572266e-01 -7.565118670463562012e-01 2.000000000000000000e+00
-1.719311141967773082e+01 -1.003391981124877930e+00 -9.025859236717224121e-01 5.000000000000000000e+00
-3.473231124877929688e+01 -2.014816761016846147e+00 -6.072739362716674805e-01 2.000000000000000000e+01
-2.565280914306641069e+00 -1.447688937187195102e-01 -6.884586811065673828e-01 2.000000000000000000e+01
-2.984677076339722124e+00 -1.673919111490249911e-01 -6.901498436927795410e-01 2.000000000000000000e+01
-4.497993087768554688e+01 -2.514768600463867188e+00 2.360979557037353960e+00 3.500000000000000000e+01
-3.563631296157836914e+00 -1.992379128932952881e-01 -6.937814950942993164e-01 1.300000000000000000e+01
-4.480704116821289062e+01 -2.497257947921752930e+00 3.926191806793212891e+00 5.400000000000000000e+01
-4.459449291229248047e+00 -2.477604448795318881e-01 -7.073966264724731445e-01 8.000000000000000000e+00
-5.876849174499511719e+00 -3.244514167308806818e-01 -7.226852178573608398e-01 1.100000000000000000e+01
-8.633905410766601562e+00 -4.751525521278380793e-01 -7.565118670463562012e-01 2.000000000000000000e+00
-1.729638671875000000e+01 -9.458220005035400391e-01 -9.078195095062255859e-01 5.000000000000000000e+00
-3.473546600341796875e+01 -1.887286067008971946e+00 -6.072041392326354980e-01 2.000000000000000000e+01
-2.571558237075806108e+00 -1.361198574304580966e-01 -6.900115609169006348e-01 2.200000000000000000e+01
-2.987189292907714844e+00 -1.570747494697571078e-01 -6.905997395515441895e-01 2.400000000000000000e+01
-4.498843765258789062e+01 -2.357743978500366211e+00 2.360979557037353960e+00 3.500000000000000000e+01
-3.566265583038330078e+00 -1.869000643491744995e-01 -6.941631436347961426e-01 1.200000000000000000e+01
-4.481150817871093750e+01 -2.340629100799560991e+00 3.925843238830565962e+00 5.400000000000000000e+01
-4.450423717498779297e+00 -2.316790819168091098e-01 -7.058323025703430176e-01 1.000000000000000000e+01
-5.854156494140625000e+00 -3.027053177356719971e-01 -7.197603583335876465e-01 1.100000000000000000e+01
-8.635511398315429688e+00 -4.450117051601409912e-01 -7.565118670463562012e-01 2.000000000000000000e+00
-1.719985008239746094e+01 -8.803360462188720703e-01 -9.025859236717224121e-01 5.000000000000000000e+00
-3.474184417724608664e+01 -1.766025066375731978e+00 -6.072041392326354980e-01 2.000000000000000000e+01
-2.562392234802246094e+00 -1.262184828519820889e-01 -6.874234080314636230e-01 1.900000000000000000e+01
-2.991637706756591797e+00 -1.463155001401900968e-01 -6.914995312690734863e-01 2.200000000000000000e+01
-4.492894744873046875e+01 -2.189532041549683061e+00 2.357420921325684038e+00 3.400000000000000000e+01
-3.555160999298096147e+00 -1.732544153928756991e-01 -6.918734312057495117e-01 1.400000000000000000e+01
-4.478396224975585938e+01 -2.174631595611571822e+00 3.922705650329589844e+00 5.400000000000000000e+01
-4.449269771575927734e+00 -2.152704447507857999e-01 -7.055194377899169922e-01 8.000000000000000000e+00
-5.851261138916015625e+00 -2.810562252998352051e-01 -7.192728519439697266e-01 1.100000000000000000e+01
-8.609222412109375000e+00 -4.120245873928070068e-01 -7.540714740753173828e-01 3.000000000000000000e+00
-1.720296096801758168e+01 -8.172895312309265137e-01 -9.025859236717224121e-01 5.000000000000000000e+00
-3.473210525512695312e+01 -1.637924432754517046e+00 -6.069248914718627930e-01 1.300000000000000000e+01
-2.558957576751708984e+00 -1.170966848731040955e-01 -6.863881349563598633e-01 1.900000000000000000e+01
-2.990183591842650923e+00 -1.357834339141845981e-01 -6.910496354103088379e-01 2.000000000000000000e+01
-4.489242172241210938e+01 -2.030701637268065962e+00 2.355118036270142046e+00 3.400000000000000000e+01
-3.553782939910889116e+00 -1.607548147439956943e-01 -6.914917826652526855e-01 1.900000000000000000e+01
-4.479128265380858664e+01 -2.018293142318726030e+00 3.922705650329589844e+00 5.400000000000000000e+01
-4.438153743743895596e+00 -1.992068290710448941e-01 -7.036422491073608398e-01 1.000000000000000000e+01
-5.864105224609375000e+00 -2.611597180366516113e-01 -7.207353115081787109e-01 1.100000000000000000e+01
-8.590703964233398438e+00 -3.810873031616210938e-01 -7.523283958435058594e-01 2.000000000000000000e+00
-3.471763229370117188e+01 -1.515804529190063032e+00 -6.065758466720581055e-01 1.300000000000000000e+01
-2.555452585220336914e+00 -1.088924258947372020e-01 -6.853528022766113281e-01 2.000000000000000000e+01
-4.473891067504882812e+01 -1.898582935333251953e+00 7.816234827041625977e-01 4.800000000000000000e+01
-2.994489192962646040e+00 -1.265534162521362027e-01 -6.919494271278381348e-01 2.600000000000000000e+01
-3.566039562225341797e+00 -1.500848233699798862e-01 -6.937814950942993164e-01 1.900000000000000000e+01
-4.479740142822266336e+01 -1.877567410469054954e+00 3.922705650329589844e+00 5.400000000000000000e+01
-4.432836532592773438e+00 -1.850158721208572110e-01 -7.027035951614379883e-01 1.100000000000000000e+01
-5.856963157653808594e+00 -2.424074709415436069e-01 -7.197603583335876465e-01 1.100000000000000000e+01
-8.583896636962890625e+00 -3.537687957286835272e-01 -7.516311407089233398e-01 2.000000000000000000e+00
-1.700844383239746094e+01 -6.950232982635498047e-01 -8.921186923980712891e-01 5.000000000000000000e+00
-3.469824600219727273e+01 -1.405757188796997070e+00 -6.061570048332214355e-01 1.300000000000000000e+01
-2.563538551330565962e+00 -1.002735942602158009e-01 -6.874234080314636230e-01 1.900000000000000000e+01
-4.472128677368164062e+01 -1.741469621658324973e+00 7.812046408653259277e-01 4.800000000000000000e+01
-2.979334592819213867e+00 -1.154960244894027988e-01 -6.883502006530761719e-01 2.300000000000000000e+01
-3.566541671752930132e+00 -1.376361101865767878e-01 -6.937814950942993164e-01 1.900000000000000000e+01
-4.480368423461914062e+01 -1.721183896064758079e+00 3.922705650329589844e+00 5.400000000000000000e+01
-4.423585891723632812e+00 -1.691638231277466098e-01 -7.011392712593078613e-01 1.600000000000000000e+01
-5.859757423400878906e+00 -2.220365554094315130e-01 -7.200040817260742188e-01 1.100000000000000000e+01
-8.575123786926269531e+00 -3.234277963638306219e-01 -7.507595419883728027e-01 3.000000000000000000e+00
-1.701076698303223012e+01 -6.356485486030578613e-01 -8.921186923980712891e-01 5.000000000000000000e+00
-3.470693969726563211e+01 -1.284777045249938965e+00 -6.062268018722534180e-01 1.300000000000000000e+01
-2.569680929183959961e+00 -9.108237922191619873e-02 -6.889762878417968750e-01 1.900000000000000000e+01
-4.473936080932617188e+01 -1.577969193458556907e+00 7.814140319824218750e-01 4.800000000000000000e+01
-2.979737997055054155e+00 -1.045754402875899991e-01 -6.883502006530761719e-01 2.300000000000000000e+01
-3.559174060821533203e+00 -1.242890954017639021e-01 -6.922550201416015625e-01 1.900000000000000000e+01
-4.480968856811522727e+01 -1.556958556175231934e+00 3.922705650329589844e+00 5.400000000000000000e+01
-4.432073116302490234e+00 -1.532224416732788086e-01 -7.023907303810119629e-01 1.600000000000000000e+01
-5.832756996154785156e+00 -1.996074616909027100e-01 -7.165917158126831055e-01 1.100000000000000000e+01
-8.584217071533203125e+00 -2.922674119472504217e-01 -7.514567971229553223e-01 3.000000000000000000e+00
-1.701298332214355113e+01 -5.732966661453247070e-01 -8.921186923980712891e-01 5.000000000000000000e+00
-3.462747192382813211e+01 -1.154761910438538042e+00 -6.047607660293579102e-01 1.300000000000000000e+01
-2.560328722000122070e+00 -8.180350810289382935e-02 -6.863881349563598633e-01 1.900000000000000000e+01
-4.471661376953125000e+01 -1.420900940895081010e+00 7.809253931045532227e-01 4.800000000000000000e+01
-2.983980417251586914e+00 -9.429667890071868896e-02 -6.892500519752502441e-01 2.300000000000000000e+01
-3.545850038528441939e+00 -1.114328280091285983e-01 -6.895837187767028809e-01 2.000000000000000000e+01
-4.481485366821289062e+01 -1.400534152984618919e+00 3.922705650329589844e+00 5.400000000000000000e+01
-4.436529636383056641e+00 -1.378734111785888949e-01 -7.030164599418640137e-01 1.600000000000000000e+01
-5.815560817718505859e+00 -1.786974072456359863e-01 -7.143980860710144043e-01 1.300000000000000000e+01
-8.579210281372070312e+00 -2.621185779571533203e-01 -7.509338855743408203e-01 3.000000000000000000e+00
-3.464328765869141336e+01 -1.034240484237670898e+00 -6.049702167510986328e-01 2.000000000000000000e+01
-2.550930738449097124e+00 -7.303625345230102539e-02 -6.837999224662780762e-01 2.200000000000000000e+01
-4.473707199096679688e+01 -1.273062467575073020e+00 7.812046408653259277e-01 4.800000000000000000e+01
-2.994016408920288086e+00 -8.467638492584228516e-02 -6.914995312690734863e-01 2.500000000000000000e+01
-3.552087545394897017e+00 -9.983923286199569702e-02 -6.907285451889038086e-01 2.000000000000000000e+01
-4.481924819946289062e+01 -1.251914978027343972e+00 3.922705650329589844e+00 5.400000000000000000e+01
-4.425114631652832031e+00 -1.228317171335220059e-01 -7.011392712593078613e-01 1.700000000000000000e+01
-5.835964679718017578e+00 -1.599552184343338013e-01 -7.168354988098144531e-01 1.300000000000000000e+01
-8.536215782165527344e+00 -2.324741631746292114e-01 -7.470990419387817383e-01 2.000000000000000000e+00
