2.527161121368408203e+00 -4.234695434570313194e-02 -5.835230350494384766e-01 1.000000000000000000e+00
4.035482788085938211e+01 -6.832601428031921387e-01 2.115210056304932085e+00 2.400000000000000000e+01
3.191794157028197798e+00 -5.404125899076461792e-02 -6.205108761787414551e-01 1.300000000000000000e+01
3.853384494781494141e+00 -6.658833473920822144e-02 -6.104072928428649902e-01 1.000000000000000000e+01
4.938142299652099609e+00 -8.705773204565048218e-02 -6.064218282699584961e-01 1.100000000000000000e+01
6.450334548950195312e+00 -1.148433014750481068e-01 -5.644205808639526367e-01 7.000000000000000000e+00
9.770978927612304688e+00 -1.773766577243804932e-01 -5.121596455574035645e-01 2.000000000000000000e+00
1.833007049560546875e+01 -3.391539752483367920e-01 -3.200073242187500000e-01 3.000000000000000000e+00
2.360255479812622070e+00 -4.696761816740036011e-02 -6.325537562370300293e-01 1.600000000000000000e+01
5.952893829345703125e+01 -1.194982767105102983e+00 1.039290785789489968e+00 6.300000000000000000e+01
2.692606925964355025e+00 -5.452148243784903786e-02 -6.217647194862365723e-01 5.000000000000000000e+00
4.015664672851563211e+01 -8.131153583526611328e-01 2.104952096939086914e+00 2.300000000000000000e+01
3.185697555541992188e+00 -6.506210565567016602e-02 -6.193659901618957520e-01 1.300000000000000000e+01
3.866953372955321822e+00 -8.032592386007308960e-02 -6.125973463058471680e-01 9.000000000000000000e+00
4.943762302398681641e+00 -1.044202893972396989e-01 -6.071530580520629883e-01 9.000000000000000000e+00
6.447902679443359375e+00 -1.373160481452941895e-01 -5.642462968826293945e-01 7.000000000000000000e+00
9.766306877136230469e+00 -2.113962173461914062e-01 -5.119503140449523926e-01 2.000000000000000000e+00
1.842873573303223012e+01 -4.053343832492827814e-01 -3.217525780200958252e-01 3.000000000000000000e+00
2.352351903915404829e+00 -5.502545461058617332e-02 -6.304832100868225098e-01 1.600000000000000000e+01
5.962435913085938211e+01 -1.405125975608825906e+00 1.041036009788512962e+00 6.300000000000000000e+01
2.702141046524047852e+00 -6.415136158466339111e-02 -6.240141987800598145e-01 7.000000000000000000e+00
4.005373001098632812e+01 -9.509130716323852539e-01 2.099718570709228960e+00 2.300000000000000000e+01
3.199189901351929155e+00 -7.651044428348541260e-02 -6.220373511314392090e-01 1.400000000000000000e+01
3.866649389266968218e+00 -9.382361918687820435e-02 -6.125973463058471680e-01 9.000000000000000000e+00
4.943367481231688565e+00 -1.216766014695167958e-01 -6.071530580520629883e-01 9.000000000000000000e+00
6.435433387756347656e+00 -1.595263481140136996e-01 -5.632004141807556152e-01 9.000000000000000000e+00
9.737556457519531250e+00 -2.447830289602279941e-01 -5.104849338531494141e-01 2.000000000000000000e+00
1.844719886779785156e+01 -4.701697230339049738e-01 -3.221016228199005127e-01 3.000000000000000000e+00
2.352145433425902876e+00 -6.323635578155517578e-02 -6.304832100868225098e-01 1.900000000000000000e+01
5.971903991699218750e+01 -1.615949749946594016e+00 1.042781233787537065e+00 6.300000000000000000e+01
2.715536832809447798e+00 -7.395456731319427490e-02 -6.271635293960571289e-01 8.000000000000000000e+00
3.985051727294921875e+01 -1.085283637046813965e+00 2.089251279830933061e+00 2.300000000000000000e+01
3.202828407287598100e+00 -8.778481185436248779e-02 -6.228005886077880859e-01 1.200000000000000000e+01
3.860374450683594194e+00 -1.071557402610778947e-01 -6.116587519645690918e-01 1.000000000000000000e+01
4.962755680084229404e+00 -1.394891738891602118e-01 -6.095904707908630371e-01 1.000000000000000000e+01
6.442803382873535156e+00 -1.822145432233809870e-01 -5.638976693153381348e-01 9.000000000000000000e+00
9.816499710083007812e+00 -2.810583710670471191e-01 -5.146718025207519531e-01 2.000000000000000000e+00
1.856537628173828125e+01 -5.380352735519409180e-01 -3.241958916187285822e-01 3.000000000000000000e+00
2.363508701324462891e+00 -7.138593494892120361e-02 -6.335890293121337891e-01 2.400000000000000000e+01
2.707485437393188032e+00 -8.272115886211395264e-02 -6.253639459609985352e-01 8.000000000000000000e+00
3.984669876098632812e+01 -1.217426657676696999e+00 2.089251279830933061e+00 2.300000000000000000e+01
3.204481840133666992e+00 -9.846559166908264160e-02 -6.231821775436401367e-01 1.200000000000000000e+01
3.858023405075072798e+00 -1.198952570557594022e-01 -6.113458871841430664e-01 9.000000000000000000e+00
4.952345371246337891e+00 -1.556337326765059870e-01 -6.083717346191406250e-01 1.100000000000000000e+01
3.763802337646483664e+01 -1.182822585105895996e+00 5.964220523834229404e+00 1.300000000000000000e+01
6.456103801727294922e+00 -2.040191590785979947e-01 -5.651178359985351562e-01 9.000000000000000000e+00
9.767604827880859375e+00 -3.120787739753723145e-01 -5.121596455574035645e-01 2.000000000000000000e+00
1.859946632385253906e+01 -6.007593274116516113e-01 -3.248241841793059748e-01 3.000000000000000000e+00
2.363245010375977007e+00 -7.963568717241287231e-02 -6.335890293121337891e-01 1.900000000000000000e+01
2.718865871429442915e+00 -9.256940335035324097e-02 -6.280633211135864258e-01 1.000000000000000000e+01
3.944298553466796875e+01 -1.342917919158935991e+00 2.068316936492919922e+00 2.200000000000000000e+01
3.198232412338256836e+00 -1.094492822885513028e-01 -6.220373511314392090e-01 1.200000000000000000e+01
3.863504171371459961e+00 -1.335662901401520053e-01 -6.122844815254211426e-01 1.000000000000000000e+01
4.945820331573486328e+00 -1.727118492126465121e-01 -6.076405644416809082e-01 9.000000000000000000e+00
3.743624877929688211e+01 -1.307302594184875044e+00 5.932933330535888672e+00 1.300000000000000000e+01
6.471281528472900391e+00 -2.271129637956618985e-01 -5.665123462677001953e-01 9.000000000000000000e+00
9.814359664916992188e+00 -3.478701412677764893e-01 -5.146718025207519531e-01 2.000000000000000000e+00
1.872115707397460938e+01 -6.701149344444274902e-01 -3.269882798194885254e-01 3.000000000000000000e+00
2.359076261520386186e+00 -8.815260231494903564e-02 -6.325537562370300293e-01 1.600000000000000000e+01
2.737981796264647993e+00 -1.032684072852134982e-01 -6.325623393058776855e-01 1.100000000000000000e+01
3.943753814697266336e+01 -1.494357824325561968e+00 2.068316936492919922e+00 2.200000000000000000e+01
3.189962387084960938e+00 -1.208733022212982039e-01 -6.205108761787414551e-01 1.100000000000000000e+01
3.876806020736693892e+00 -1.482542455196380893e-01 -6.144745945930480957e-01 9.000000000000000000e+00
4.961023330688476562e+00 -1.914504319429398138e-01 -6.095904707908630371e-01 1.000000000000000000e+01
3.743120574951171875e+01 -1.444504499435425027e+00 5.932933330535888672e+00 1.300000000000000000e+01
6.478369235992431641e+00 -2.511385977268218994e-01 -5.672096014022827148e-01 9.000000000000000000e+00
9.832976341247558594e+00 -3.846198618412017822e-01 -5.157185196876525879e-01 2.000000000000000000e+00
1.871857452392578125e+01 -7.387269139289855957e-01 -3.269882798194885254e-01 3.000000000000000000e+00
2.372265815734862837e+00 -9.693891555070877075e-02 -6.361772418022155762e-01 1.800000000000000000e+01
2.745393037796020952e+00 -1.131461039185523987e-01 -6.343619823455810547e-01 1.200000000000000000e+01
3.193444252014160156e+00 -1.321699768304825107e-01 -6.212741136550903320e-01 1.200000000000000000e+01
3.866396665573120117e+00 -1.613740473985671997e-01 -6.129102110862731934e-01 1.000000000000000000e+01
4.960324764251708984e+00 -2.087664604187011996e-01 -6.095904707908630371e-01 1.000000000000000000e+01
3.730724334716796875e+01 -1.576682567596435991e+00 5.914161205291748047e+00 1.300000000000000000e+01
6.469490528106688565e+00 -2.734142839908599854e-01 -5.665123462677001953e-01 7.000000000000000000e+00
9.871482849121093750e+00 -4.206416010856627863e-01 -5.178119540214538574e-01 2.000000000000000000e+00
1.881577491760253906e+01 -8.083539605140686035e-01 -3.287335336208344061e-01 3.000000000000000000e+00
2.370001316070557085e+00 -1.047198176383972029e-01 -6.356595754623413086e-01 1.600000000000000000e+01
2.735268592834473100e+00 -1.218160241842270036e-01 -6.321124434471130371e-01 1.300000000000000000e+01
3.895557022094727273e+01 -1.741710662841797097e+00 2.043614387512207031e+00 2.200000000000000000e+01
3.196910858154296875e+00 -1.429344713687897006e-01 -6.220373511314392090e-01 1.300000000000000000e+01
3.861893653869628906e+00 -1.740167438983916959e-01 -6.122844815254211426e-01 1.000000000000000000e+01
4.975469589233398438e+00 -2.259347438812256137e-01 -6.115403771400451660e-01 1.000000000000000000e+01
6.468548297882080078e+00 -2.948663830757141113e-01 -5.665123462677001953e-01 9.000000000000000000e+00
9.889985084533691406e+00 -4.542907774448394775e-01 -5.188586711883544922e-01 2.000000000000000000e+00
1.881299018859862926e+01 -8.707448840141296387e-01 -3.287335336208344061e-01 3.000000000000000000e+00
2.373480796813964844e+00 -1.131760552525520047e-01 -6.366948485374450684e-01 1.600000000000000000e+01
2.734826803207397017e+00 -1.313631534576416016e-01 -6.321124434471130371e-01 1.200000000000000000e+01
3.212080240249633789e+00 -1.548491865396499911e-01 -6.250902414321899414e-01 1.200000000000000000e+01
3.861262559890747070e+00 -1.874962151050567905e-01 -6.122844815254211426e-01 1.000000000000000000e+01
4.958788871765136719e+00 -2.425252199172973910e-01 -6.095904707908630371e-01 1.000000000000000000e+01
6.485389709472656250e+00 -3.183231055736541748e-01 -5.680811405181884766e-01 7.000000000000000000e+00
9.876369476318359375e+00 -4.882188439369202215e-01 -5.182306170463562012e-01 2.000000000000000000e+00
1.898159790039062855e+01 -9.449599385261535645e-01 -3.317353427410125732e-01 3.000000000000000000e+00
2.378859281539916992e+00 -1.217566058039664945e-01 -6.382477879524230957e-01 1.600000000000000000e+01
2.740190029144287109e+00 -1.412095427513123114e-01 -6.334621906280517578e-01 1.100000000000000000e+01
3.209559679031372070e+00 -1.659591197967529019e-01 -6.247086524963378906e-01 1.300000000000000000e+01
3.874393463134766069e+00 -2.016922533512114923e-01 -6.144745945930480957e-01 9.000000000000000000e+00
4.951964855194091797e+00 -2.595214843750000000e-01 -6.088592410087585449e-01 1.100000000000000000e+01
6.494187355041503906e+00 -3.414824903011322021e-01 -5.689526796340942383e-01 6.000000000000000000e+00
9.886572837829589844e+00 -5.233242511749267578e-01 -5.188586711883544922e-01 2.000000000000000000e+00
1.898217773437500000e+01 -1.011425137519835982e+00 -3.318051397800446112e-01 3.000000000000000000e+00
2.380348682403564009e+00 -1.301651149988173883e-01 -6.387653946876525879e-01 1.600000000000000000e+01
2.747463703155518022e+00 -1.512020677328110019e-01 -6.352617740631103516e-01 1.100000000000000000e+01
3.880756378173828125e+01 -2.142503261566162109e+00 2.036915302276610884e+00 2.200000000000000000e+01
3.197199106216431108e+00 -1.765122264623641968e-01 -6.224189400672912598e-01 1.300000000000000000e+01
3.877610445022583008e+00 -2.154343426227570135e-01 -6.151003241539001465e-01 1.000000000000000000e+01
4.960938453674316406e+00 -2.773595452308654785e-01 -6.100779175758361816e-01 1.300000000000000000e+01
6.506880283355712891e+00 -3.649303317070006769e-01 -5.701728463172912598e-01 9.000000000000000000e+00
9.892662048339843750e+00 -5.582817792892456055e-01 -5.192773342132568359e-01 2.000000000000000000e+00
1.903043937683105113e+01 -1.080626726150512917e+00 -3.327126801013947088e-01 3.000000000000000000e+00
2.370260953903197798e+00 -1.374985277652739923e-01 -6.361772418022155762e-01 1.600000000000000000e+01
2.750838041305541992e+00 -1.605392247438431064e-01 -6.361615657806396484e-01 1.100000000000000000e+01
3.899962997436522727e+01 -2.282853126525878906e+00 2.047382593154906782e+00 2.200000000000000000e+01
3.208355665206909180e+00 -1.878018826246261874e-01 -6.247086524963378906e-01 1.400000000000000000e+01
3.872931003570557085e+00 -2.280595302581787109e-01 -6.144745945930480957e-01 1.100000000000000000e+01
4.961973190307617188e+00 -2.939264476299285889e-01 -6.103217005729675293e-01 1.200000000000000000e+01
6.499667644500732422e+00 -3.861514329910277765e-01 -5.696499347686767578e-01 9.000000000000000000e+00
9.922655105590820312e+00 -5.929902791976928711e-01 -5.209521055221557617e-01 2.000000000000000000e+00
1.909861183166503906e+01 -1.148047566413878950e+00 -3.339692354202271063e-01 3.000000000000000000e+00
2.367838382720946822e+00 -1.456528306007384976e-01 -6.356595754623413086e-01 1.500000000000000000e+01
2.746370792388916016e+00 -1.698998212814331055e-01 -6.352617740631103516e-01 1.200000000000000000e+01
3.213558912277222124e+00 -1.993646919727324884e-01 -6.258534789085388184e-01 1.300000000000000000e+01
3.864225149154663086e+00 -2.410851866006850919e-01 -6.132230758666992188e-01 9.000000000000000000e+00
4.958935737609863281e+00 -3.111208975315093994e-01 -6.100779175758361816e-01 1.000000000000000000e+01
6.518165111541748047e+00 -4.100881814956665039e-01 -5.713930726051330566e-01 9.000000000000000000e+00
9.960390090942382812e+00 -6.301453113555908203e-01 -5.230455398559570312e-01 2.000000000000000000e+00
1.917032241821289062e+01 -1.219531416893004927e+00 -3.352956175804138184e-01 3.000000000000000000e+00
2.373098850250244141e+00 -1.542932689189910889e-01 -6.372125148773193359e-01 1.700000000000000000e+01
2.741871833801269975e+00 -1.792311817407608032e-01 -6.343619823455810547e-01 1.100000000000000000e+01
3.220679759979248047e+00 -2.110944986343384067e-01 -6.273799538612365723e-01 1.400000000000000000e+01
3.877157688140869141e+00 -2.554815709590911865e-01 -6.154131889343261719e-01 1.000000000000000000e+01
4.957819461822509766e+00 -3.284288942813872736e-01 -6.100779175758361816e-01 1.000000000000000000e+01
6.538561820983886719e+00 -4.342907965183258057e-01 -5.733104944229125977e-01 8.000000000000000000e+00
9.946172714233398438e+00 -6.641113758087158203e-01 -5.224174857139587402e-01 2.000000000000000000e+00
3.595173263549804688e+01 -2.406819343566894975e+00 8.318690299987792969e+00 2.100000000000000000e+01
1.909013175964355113e+01 -1.281351923942565918e+00 -3.339692354202271063e-01 3.000000000000000000e+00
2.384109735488892046e+00 -1.633683890104294101e-01 -6.403183341026306152e-01 1.900000000000000000e+01
2.749006032943726030e+00 -1.893366128206253052e-01 -6.361615657806396484e-01 1.100000000000000000e+01
3.202295780181885210e+00 -2.211183160543442050e-01 -6.239454150199890137e-01 1.400000000000000000e+01
3.880183458328247070e+00 -2.692873477935791016e-01 -6.160389184951782227e-01 1.000000000000000000e+01
4.948721885681152344e+00 -3.451804220676422119e-01 -6.091029644012451172e-01 9.000000000000000000e+00
6.540981292724609375e+00 -4.573899507522583008e-01 -5.736591219902038574e-01 8.000000000000000000e+00
9.983641624450683594e+00 -7.016263008117675781e-01 -5.245109796524047852e-01 2.000000000000000000e+00
1.923315238952637074e+01 -1.358406543731689009e+00 -3.365522027015686035e-01 3.000000000000000000e+00
3.902471542358397727e+01 -2.756252765655518022e+00 1.048268890380859020e+01 9.000000000000000000e+00
2.381597995758057085e+00 -1.715507060289382935e-01 -6.398006677627563477e-01 1.700000000000000000e+01
2.748328447341918945e+00 -1.989312767982482910e-01 -6.361615657806396484e-01 1.100000000000000000e+01
3.213253259658813032e+00 -2.331475317478179932e-01 -6.262351274490356445e-01 1.300000000000000000e+01
3.883160114288330078e+00 -2.831173539161682129e-01 -6.166646480560302734e-01 1.100000000000000000e+01
4.955406188964843750e+00 -3.630327284336090088e-01 -6.100779175758361816e-01 1.000000000000000000e+01
6.535370349884033203e+00 -4.799276292324066162e-01 -5.733104944229125977e-01 8.000000000000000000e+00
9.989098548889160156e+00 -7.370592951774597168e-01 -5.249296426773071289e-01 2.000000000000000000e+00
1.928014183044433949e+01 -1.429378509521483931e+00 -3.374597430229187012e-01 3.000000000000000000e+00
3.786662292480468750e+01 -2.807330846786499023e+00 1.017417621612549006e+01 8.000000000000000000e+00
2.367500305175780806e+00 -1.788443475961684903e-01 -6.361772418022155762e-01 1.900000000000000000e+01
2.755389928817749023e+00 -2.091134041547774991e-01 -6.379612088203430176e-01 1.100000000000000000e+01
3.208504438400268999e+00 -2.440646290779114047e-01 -6.254718899726867676e-01 1.300000000000000000e+01
3.886087656021118164e+00 -2.969714403152465820e-01 -6.172903776168823242e-01 1.000000000000000000e+01
4.965984344482421875e+00 -3.812398016452788752e-01 -6.115403771400451660e-01 1.000000000000000000e+01
6.537628650665283203e+00 -5.030431151390075684e-01 -5.736591219902038574e-01 6.000000000000000000e+00
9.990447998046875000e+00 -7.722311019897460938e-01 -5.251389741897583008e-01 2.000000000000000000e+00
1.925509834289551137e+01 -1.495121955871582031e+00 -3.371106684207916260e-01 3.000000000000000000e+00
3.804868316650391336e+01 -2.961089134216309038e+00 1.022594070434569957e+01 8.000000000000000000e+00
2.376490831375122070e+00 -1.878685951232909879e-01 -6.387653946876525879e-01 1.700000000000000000e+01
2.748815298080443892e+00 -2.182674705982207974e-01 -6.366114616394042969e-01 9.000000000000000000e+00
3.211547136306763139e+00 -2.555744051933289129e-01 -6.262351274490356445e-01 1.300000000000000000e+01
3.877150774002075195e+00 -3.099050223827362061e-01 -6.160389184951782227e-01 1.200000000000000000e+01
4.968580722808837891e+00 -3.988897204399108887e-01 -6.120278239250183105e-01 1.000000000000000000e+01
6.563636302947998047e+00 -5.280976295471191406e-01 -5.760994553565979004e-01 6.000000000000000000e+00
3.579175567626953125e+01 -2.886023521423339844e+00 6.979793071746826172e+00 6.000000000000000000e+01
1.004741382598876953e+01 -8.119257688522338867e-01 -5.282791256904602051e-01 2.000000000000000000e+00
1.938130950927734020e+01 -1.573002219200134055e+00 -3.394143879413604736e-01 3.000000000000000000e+00
3.802325057983397727e+01 -3.085996627807617188e+00 1.022179889678955078e+01 1.600000000000000000e+01
2.387372255325316939e+00 -1.971167325973511020e-01 -6.418712139129638672e-01 1.700000000000000000e+01
2.738326311111450195e+00 -2.270561456680298129e-01 -6.343619823455810547e-01 1.100000000000000000e+01
3.218461513519287109e+00 -2.674335241317749023e-01 -6.277616024017333984e-01 1.300000000000000000e+01
3.878014087677001953e+00 -3.236011862754821777e-01 -6.163517832756042480e-01 1.000000000000000000e+01
4.961223602294921875e+00 -4.157335758209229071e-01 -6.112966537475585938e-01 9.000000000000000000e+00
6.553811550140380859e+00 -5.503389239311218262e-01 -5.754022002220153809e-01 6.000000000000000000e+00
1.000471496582031072e+01 -8.436364531517028809e-01 -5.261856913566589355e-01 2.000000000000000000e+00
3.635086822509766336e+01 -3.071636199951171875e+00 8.422167778015136719e+00 1.100000000000000000e+01
1.928404235839844105e+01 -1.632884860038757102e+00 -3.378087878227233887e-01 3.000000000000000000e+00
3.807384490966796875e+01 -3.223919630050659180e+00 1.023836421966552912e+01 8.000000000000000000e+00
2.386705398559569868e+00 -2.050324678421021063e-01 -6.418712139129638672e-01 1.500000000000000000e+01
2.749207496643065962e+00 -2.371403425931931097e-01 -6.370613574981689453e-01 1.100000000000000000e+01
3.209733247756958008e+00 -2.774286270141602118e-01 -6.262351274490356445e-01 1.300000000000000000e+01
3.888727426528931108e+00 -3.374841213226317804e-01 -6.182290315628051758e-01 9.000000000000000000e+00
4.959817409515380859e+00 -4.321832954883574884e-01 -6.112966537475585938e-01 9.000000000000000000e+00
6.569813728332520419e+00 -5.736288428306579590e-01 -5.769709944725036621e-01 5.000000000000000000e+00
1.002971744537354049e+01 -8.792504668235778809e-01 -5.276511311531066895e-01 2.000000000000000000e+00
3.641425323486328125e+01 -3.198642969131470171e+00 8.439263343811035156e+00 1.100000000000000000e+01
1.930242538452148082e+01 -1.698927998542786089e+00 -3.382276296615601141e-01 3.000000000000000000e+00
2.387899398803710938e+00 -2.135344445705414096e-01 -6.423888802528381348e-01 1.900000000000000000e+01
2.750303745269774947e+00 -2.469096630811691007e-01 -6.375113129615783691e-01 1.300000000000000000e+01
3.216566562652587891e+00 -2.893345355987548828e-01 -6.277616024017333984e-01 1.300000000000000000e+01
3.895395278930664062e+00 -3.517668843269348145e-01 -6.194804906845092773e-01 9.000000000000000000e+00
4.948393821716308594e+00 -4.485975503921508789e-01 -6.100779175758361816e-01 1.200000000000000000e+01
6.563803195953369141e+00 -5.961977839469909668e-01 -5.766223669052124023e-01 4.000000000000000000e+00
1.008625698089599965e+01 -9.196962714195251465e-01 -5.307912826538085938e-01 2.000000000000000000e+00
3.627090072631835938e+01 -3.313676595687866211e+00 8.408670425415039062e+00 1.100000000000000000e+01
1.952737617492676137e+01 -1.787440180778502974e+00 -3.422766029834746759e-01 3.000000000000000000e+00
2.377560138702393022e+00 -2.205595970153808871e-01 -6.398006677627563477e-01 1.900000000000000000e+01
2.759171724319458008e+00 -2.569320797920227051e-01 -6.397607922554016113e-01 1.400000000000000000e+01
3.207770347595214844e+00 -2.992699742317200262e-01 -6.262351274490356445e-01 1.300000000000000000e+01
3.886340141296387163e+00 -3.639458119869232178e-01 -6.182290315628051758e-01 9.000000000000000000e+00
4.968619346618652344e+00 -4.670481085777283270e-01 -6.127590537071228027e-01 9.000000000000000000e+00
6.553855419158936435e+00 -6.172136664390563965e-01 -5.759251713752746582e-01 5.000000000000000000e+00
1.009508228302001953e+01 -9.542662501335144043e-01 -5.314192771911621094e-01 2.000000000000000000e+00
3.631791305541992188e+01 -3.439449071884154829e+00 8.422167778015136719e+00 1.100000000000000000e+01
1.964476966857910156e+01 -1.863896250724792036e+00 -3.444406986236572266e-01 3.000000000000000000e+00
2.378698825836182085e+00 -2.290426492691040039e-01 -6.403183341026306152e-01 1.900000000000000000e+01
2.752438783645629883e+00 -2.659994363784790039e-01 -6.384111046791076660e-01 1.200000000000000000e+01
3.928282165527343750e+01 -3.796345472335814986e+00 2.068316936492919922e+00 2.200000000000000000e+01
3.220385074615478960e+00 -3.117897212505341131e-01 -6.289064288139343262e-01 1.200000000000000000e+01
3.881114006042480025e+00 -3.771273791790009100e-01 -6.176032423973083496e-01 1.000000000000000000e+01
4.964982986450195312e+00 -4.841963052749633789e-01 -6.125153303146362305e-01 1.000000000000000000e+01
6.577439308166503906e+00 -6.426056027412414551e-01 -5.781912207603454590e-01 8.000000000000000000e+00
1.006783676147460938e+01 -9.871600270271301270e-01 -5.301632285118103027e-01 2.000000000000000000e+00
3.646859741210938211e+01 -3.582203388214110884e+00 8.459959030151367188e+00 1.100000000000000000e+01
1.963814353942871094e+01 -1.932457923889159934e+00 -3.444406986236572266e-01 3.000000000000000000e+00
2.397107839584351030e+00 -2.392631620168685913e-01 -6.454946994781494141e-01 1.900000000000000000e+01
2.739859342575072798e+00 -2.744402587413787842e-01 -6.357116699218750000e-01 1.300000000000000000e+01
3.946737289428710938e+01 -3.960239648818970171e+00 2.078784227371215820e+00 2.200000000000000000e+01
3.232951164245605025e+00 -3.244011402130126953e-01 -6.315777897834777832e-01 1.300000000000000000e+01
3.879773855209351030e+00 -3.906726837158203125e-01 -6.176032423973083496e-01 1.000000000000000000e+01
3.657631301879882812e+01 -3.689489841461182085e+00 4.513796806335449219e+00 1.900000000000000000e+01
4.965237617492675781e+00 -5.017239451408386230e-01 -6.127590537071228027e-01 1.000000000000000000e+01
6.567227363586425781e+00 -6.647586226463317871e-01 -5.774939656257629395e-01 8.000000000000000000e+00
1.010407066345215021e+01 -1.026334047317505105e+00 -5.322566628456115723e-01 2.000000000000000000e+00
3.651403427124022727e+01 -3.715399026870727983e+00 8.473456382751464844e+00 1.100000000000000000e+01
1.970687484741210938e+01 -2.008701562881470171e+00 -3.457670807838439941e-01 3.000000000000000000e+00
3.737824630737304688e+01 -3.816517829895019975e+00 1.006754302978515980e+01 8.000000000000000000e+00
2.390493154525756836e+00 -2.470334321260451993e-01 -6.439417600631713867e-01 1.700000000000000000e+01
2.744699716567993164e+00 -2.846054732799530029e-01 -6.370613574981689453e-01 1.300000000000000000e+01
3.216177225112915039e+00 -3.340616524219512939e-01 -6.285248398780822754e-01 1.300000000000000000e+01
3.896069049835205078e+00 -4.060561656951903742e-01 -6.204190850257873535e-01 1.000000000000000000e+01
3.676064682006835938e+01 -3.837754487991333008e+00 4.538170814514160156e+00 1.900000000000000000e+01
4.949635505676270419e+00 -5.176075696945190430e-01 -6.110528707504272461e-01 1.000000000000000000e+01
6.586663722991943359e+00 -6.899617910385131836e-01 -5.794113874435424805e-01 5.000000000000000000e+00
1.012823486328125000e+01 -1.064520359039307085e+00 -5.337221026420593262e-01 2.000000000000000000e+00
3.646208190917968750e+01 -3.838753223419189009e+00 8.464458465576171875e+00 1.100000000000000000e+01
1.967587852478026988e+01 -2.074962615966796875e+00 -3.453482091426848810e-01 3.000000000000000000e+00
3.728016281127929688e+01 -3.938039541244506836e+00 1.004476737976074041e+01 8.000000000000000000e+00
2.393458127975463867e+00 -2.557868957519531250e-01 -6.449770331382751465e-01 1.700000000000000000e+01
2.753377676010131836e+00 -2.952233254909514826e-01 -6.393108963966369629e-01 1.300000000000000000e+01
3.213039398193358931e+00 -3.450765013694763184e-01 -6.281431913375854492e-01 1.300000000000000000e+01
3.894628047943114790e+00 -4.196535050868988037e-01 -6.204190850257873535e-01 1.100000000000000000e+01
3.677860641479492188e+01 -3.969457864761352983e+00 4.542070388793945312e+00 1.900000000000000000e+01
4.961613655090332031e+00 -5.363753437995910645e-01 -6.127590537071228027e-01 1.000000000000000000e+01
6.588176727294921875e+00 -7.133782505989074707e-01 -5.797600150108337402e-01 6.000000000000000000e+00
1.012048625946044922e+01 -1.099436640739440918e+00 -5.335127115249633789e-01 2.000000000000000000e+00
3.661119079589843750e+01 -3.983713626861571822e+00 8.502249717712402344e+00 1.100000000000000000e+01
1.971622657775878906e+01 -2.148831367492675781e+00 -3.461859226226807196e-01 3.000000000000000000e+00
4.217868423461914062e+01 -4.604417800903320312e+00 1.136888504028319957e+01 1.100000000000000000e+01
2.367588281631470171e+00 -2.613841891288756769e-01 -6.382477879524230957e-01 1.900000000000000000e+01
5.990369796752929688e+01 -6.624012470245361328e+00 1.051996111869812012e+00 6.300000000000000000e+01
2.762014865875244141e+00 -3.059051930904387873e-01 -6.415604352951049805e-01 1.300000000000000000e+01
3.221571683883666992e+00 -3.573723137378693182e-01 -6.300513148307800293e-01 1.300000000000000000e+01
3.885286331176757812e+00 -4.323718249797821045e-01 -6.191676259040832520e-01 1.000000000000000000e+01
3.689078903198242188e+01 -4.111888408660888672e+00 4.557669639587402344e+00 1.900000000000000000e+01
4.965629577636718750e+00 -5.543520450592041016e-01 -6.134902834892272949e-01 9.000000000000000000e+00
6.587626457214354581e+00 -7.365923523902893066e-01 -5.799342989921569824e-01 8.000000000000000000e+00
1.017613124847411932e+01 -1.141435980796813965e+00 -5.366529226303100586e-01 2.000000000000000000e+00
3.447266006469727273e+01 -3.872820854187012163e+00 8.008707046508789062e+00 2.000000000000000000e+01
1.980796241760253906e+01 -2.228820562362670898e+00 -3.479311764240264893e-01 3.000000000000000000e+00
2.380097389221190962e+00 -2.711778581142426092e-01 -6.418712139129638672e-01 1.800000000000000000e+01
5.985239410400391336e+01 -6.829901218414306641e+00 1.051507472991942915e+00 6.300000000000000000e+01
2.753185749053955078e+00 -3.146594464778900146e-01 -6.397607922554016113e-01 1.400000000000000000e+01
5.962945938110352273e+01 -6.815004348754882812e+00 3.145390987396239790e+00 6.300000000000000000e+01
3.216403484344481978e+00 -3.681689798831940252e-01 -6.292880773544311523e-01 1.300000000000000000e+01
3.887678384780883789e+00 -4.463820159435272217e-01 -6.197933554649353027e-01 1.000000000000000000e+01
3.687621307373046875e+01 -4.240636348724365234e+00 4.557669639587402344e+00 1.900000000000000000e+01
4.975496768951416016e+00 -5.730447173118591309e-01 -6.149526834487915039e-01 9.000000000000000000e+00
6.583035945892333984e+00 -7.593546509742736816e-01 -5.797600150108337402e-01 5.000000000000000000e+00
1.017208480834960938e+01 -1.176950335502624956e+00 -5.366529226303100586e-01 2.000000000000000000e+00
3.462347412109375000e+01 -4.012196540832520419e+00 8.046949386596679688e+00 1.000000000000000000e+01
1.999472618103026988e+01 -2.320541858673096147e+00 -3.513518571853638250e-01 3.000000000000000000e+00
3.457410430908203125e+01 -4.012590885162354404e+00 9.326285362243652344e+00 6.000000000000000000e+00
2.390648365020751953e+00 -2.808366417884827215e-01 -6.449770331382751465e-01 1.900000000000000000e+01
5.992749023437500000e+01 -7.050466060638427734e+00 1.053252696990967019e+00 6.200000000000000000e+01
2.742393732070922852e+00 -3.231277465820313055e-01 -6.375113129615783691e-01 1.500000000000000000e+01
5.960530471801757812e+01 -7.023108482360839844e+00 3.145390987396239790e+00 6.300000000000000000e+01
3.234596014022827148e+00 -3.816948235034943182e-01 -6.331042647361755371e-01 1.300000000000000000e+01
3.876288175582886186e+00 -4.587889313697814941e-01 -6.182290315628051758e-01 1.100000000000000000e+01
4.971495151519775391e+00 -5.901749730110168457e-01 -6.147089600563049316e-01 1.000000000000000000e+01
6.562539100646972656e+00 -7.802121639251708984e-01 -5.781912207603454590e-01 5.000000000000000000e+00
3.344925308227539062e+01 -3.982661008834838867e+00 6.547801494598388672e+00 5.800000000000000000e+01
1.018774604797362926e+01 -1.214815258979796919e+00 -5.376996397972106934e-01 2.000000000000000000e+00
3.470600509643554688e+01 -4.144584178924561435e+00 8.069444656372070312e+00 1.000000000000000000e+01
1.998650360107421875e+01 -2.390322446823120117e+00 -3.513518571853638250e-01 3.000000000000000000e+00
2.397324800491333008e+00 -2.901081740856171209e-01 -6.470476388931274414e-01 2.000000000000000000e+01
5.990251541137695312e+01 -7.259609222412109375e+00 1.053252696990967019e+00 6.200000000000000000e+01
2.747052907943726030e+00 -3.334029018878936768e-01 -6.388610005378723145e-01 1.400000000000000000e+01
3.219601631164550781e+00 -3.913251757621765137e-01 -6.304329037666320801e-01 1.300000000000000000e+01
3.886428117752075195e+00 -4.737510681152343750e-01 -6.201062202453613281e-01 1.100000000000000000e+01
3.787034988403320312e+01 -4.623059749603270596e+00 4.684413909912109375e+00 2.000000000000000000e+01
4.943789005279541016e+00 -6.043935418128967285e-01 -6.115403771400451660e-01 9.000000000000000000e+00
6.599328041076660156e+00 -8.079574108123779297e-01 -5.816774368286132812e-01 6.000000000000000000e+00
1.018740844726563033e+01 -1.250856518745421919e+00 -5.379089713096618652e-01 2.000000000000000000e+00
3.584796142578125000e+01 -4.407927513122558594e+00 8.338485717773437500e+00 1.000000000000000000e+01
3.490379714965820312e+01 -4.298015117645263672e+00 9.423084259033203125e+00 1.400000000000000000e+01
2.398214578628540039e+00 -2.987134158611298163e-01 -6.475652456283569336e-01 2.100000000000000000e+01
5.987680816650391336e+01 -7.468663692474365234e+00 1.053252696990967019e+00 6.200000000000000000e+01
2.757474660873413086e+00 -3.444391191005706787e-01 -6.415604352951049805e-01 1.400000000000000000e+01
3.224060297012329102e+00 -4.032923579216002863e-01 -6.315777897834777832e-01 1.300000000000000000e+01
3.894550800323485884e+00 -4.885436892509459894e-01 -6.216705441474914551e-01 1.100000000000000000e+01
4.953466892242431641e+00 -6.231335401535034180e-01 -6.130027770996093750e-01 9.000000000000000000e+00
6.602397918701171875e+00 -8.317354917526245117e-01 -5.822003483772277832e-01 6.000000000000000000e+00
3.397381591796875000e+01 -4.285866737365722656e+00 6.656180858612061435e+00 5.900000000000000000e+01
1.019883251190186080e+01 -1.288412213325500044e+00 -5.387463569641113281e-01 2.000000000000000000e+00
3.544569015502929688e+01 -4.484117507934570312e+00 8.248505592346191406e+00 1.000000000000000000e+01
3.485714721679688211e+01 -4.422025203704833984e+00 9.414801597595214844e+00 1.400000000000000000e+01
2.383850336074829102e+00 -3.045325577259064276e-01 -6.439417600631713867e-01 1.900000000000000000e+01
5.989271926879882812e+01 -7.661809921264648438e+00 1.053950786590575950e+00 6.200000000000000000e+01
2.760244846343994141e+00 -3.535954952239990234e-01 -6.424602270126342773e-01 1.400000000000000000e+01
3.218882799148560014e+00 -4.129194319248198908e-01 -6.308145523071289062e-01 1.300000000000000000e+01
3.881241559982299805e+00 -4.992642104625701904e-01 -6.197933554649353027e-01 1.000000000000000000e+01
4.059127426147460938e+01 -5.228667736053466797e+00 5.025160312652587891e+00 2.500000000000000000e+01
4.963297367095947266e+00 -6.402159333229064941e-01 -6.144652366638183594e-01 1.300000000000000000e+01
6.595800399780273438e+00 -8.519629240036010742e-01 -5.818517208099365234e-01 6.000000000000000000e+00
3.386283111572266336e+01 -4.379985332489013672e+00 6.637100219726563388e+00 5.800000000000000000e+01
1.023434829711914062e+01 -1.325577259063720925e+00 -5.408397912979125977e-01 2.000000000000000000e+00
3.501013183593750000e+01 -4.540809154510498047e+00 8.150426864624023438e+00 1.000000000000000000e+01
2.015958786010741832e+01 -2.618273258209228960e+00 -3.548423349857329767e-01 3.000000000000000000e+00
3.512548828125000000e+01 -4.562004566192626953e+00 9.490894317626953125e+00 7.000000000000000000e+00
2.382772922515869141e+00 -3.128518760204315186e-01 -6.439417600631713867e-01 1.900000000000000000e+01
5.962769317626953125e+01 -7.839547634124755859e+00 1.049762248992919922e+00 6.300000000000000000e+01
2.749333381652832031e+00 -3.619565963745117188e-01 -6.402106881141662598e-01 1.300000000000000000e+01
5.970082092285156250e+01 -7.870362758636474609e+00 3.155858278274536133e+00 6.200000000000000000e+01
3.234939575195312944e+00 -4.264622628688812256e-01 -6.342490911483764648e-01 1.400000000000000000e+01
3.875558376312255859e+00 -5.122914910316467285e-01 -6.191676259040832520e-01 1.000000000000000000e+01
4.980710983276367188e+00 -6.601454019546508789e-01 -6.169025897979736328e-01 1.200000000000000000e+01
6.592786312103270596e+00 -8.749814033508300781e-01 -5.818517208099365234e-01 6.000000000000000000e+00
1.026133632659911932e+01 -1.365509033203125000e+00 -5.425145030021667480e-01 2.000000000000000000e+00
3.339078521728516336e+01 -4.449350833892822266e+00 7.777008056640625000e+00 9.000000000000000000e+00
2.015032577514648082e+01 -2.688627481460570845e+00 -3.548423349857329767e-01 3.000000000000000000e+00
2.389268159866333008e+00 -3.226171135902404785e-01 -6.460123658180236816e-01 2.000000000000000000e+01
5.969764328002929688e+01 -8.071437835693359375e+00 1.051507472991942915e+00 6.300000000000000000e+01
2.749919414520264116e+00 -3.722924292087554932e-01 -6.406605839729309082e-01 1.300000000000000000e+01
3.231409311294556108e+00 -4.380523264408112127e-01 -6.338675022125244141e-01 1.300000000000000000e+01
3.877569437026977983e+00 -5.270247459411621094e-01 -6.197933554649353027e-01 1.000000000000000000e+01
3.595406723022460938e+01 -4.893133640289306641e+00 4.455299377441406250e+00 1.900000000000000000e+01
4.972357273101806641e+00 -6.775920987129211426e-01 -6.161714196205139160e-01 1.000000000000000000e+01
3.506675338745117188e+01 -4.778609275817871094e+00 5.605359554290770596e+00 1.300000000000000000e+01
6.591509342193604404e+00 -8.994086384773254395e-01 -5.820260643959045410e-01 5.000000000000000000e+00
1.024438953399658025e+01 -1.401485323905945046e+00 -5.418865084648132324e-01 2.000000000000000000e+00
3.337425613403320312e+01 -4.571704387664794922e+00 7.777008056640625000e+00 9.000000000000000000e+00
3.498284912109375000e+01 -4.798274993896484375e+00 9.461388587951660156e+00 1.400000000000000000e+01
2.399608850479125977e+00 -3.325463831424713135e-01 -6.491181850433349609e-01 1.800000000000000000e+01
5.969683456420897727e+01 -8.283620834350585938e+00 1.051996111869812012e+00 6.300000000000000000e+01
2.746672868728638139e+00 -3.816209733486176092e-01 -6.402106881141662598e-01 1.300000000000000000e+01
5.964297485351563211e+01 -8.297368049621582031e+00 3.155858278274536133e+00 6.200000000000000000e+01
3.220137834548950195e+00 -4.479767978191375732e-01 -6.319593787193298340e-01 1.300000000000000000e+01
3.891357660293579102e+00 -5.427397489547729492e-01 -6.222962737083435059e-01 1.000000000000000000e+01
3.916102981567382812e+01 -5.468878746032714844e+00 4.855031013488770419e+00 2.000000000000000000e+01
4.973893642425537109e+00 -6.954945325851440430e-01 -6.166588664054870605e-01 1.000000000000000000e+01
6.602141380310058594e+00 -9.243456125259399414e-01 -5.832462310791015625e-01 5.000000000000000000e+00
1.026712512969971058e+01 -1.441123008728026900e+00 -5.433518886566162109e-01 2.000000000000000000e+00
3.335809326171875000e+01 -4.688174247741699219e+00 7.777008056640625000e+00 9.000000000000000000e+00
2.032858848571776988e+01 -2.860615015029906782e+00 -3.583328127861022949e-01 3.000000000000000000e+00
3.463408660888671875e+01 -4.879832267761229581e+00 9.371837615966796875e+00 7.000000000000000000e+00
2.388929605484008789e+00 -3.391442596912384033e-01 -6.465299725532531738e-01 1.900000000000000000e+01
5.974031066894531250e+01 -8.491667747497558594e+00 1.053252696990967019e+00 6.200000000000000000e+01
2.747321605682373047e+00 -3.910017609596251886e-01 -6.406605839729309082e-01 1.200000000000000000e+01
3.224465608596802202e+00 -4.594835937023162842e-01 -6.331042647361755371e-01 1.300000000000000000e+01
3.893447637557982954e+00 -5.561996698379516602e-01 -6.229220628738403320e-01 1.000000000000000000e+01
3.914268112182617188e+01 -5.598711490631104404e+00 4.855031013488770419e+00 2.000000000000000000e+01
4.965664863586425781e+00 -7.111404538154602051e-01 -6.159276366233825684e-01 1.000000000000000000e+01
6.595095634460449219e+00 -9.456683993339538574e-01 -5.828976035118103027e-01 5.000000000000000000e+00
3.399271011352539062e+01 -4.880257129669188565e+00 6.675261974334716797e+00 5.900000000000000000e+01
1.033345985412598012e+01 -1.485392451286315918e+00 -5.471200942993164062e-01 2.000000000000000000e+00
3.565314483642578125e+01 -5.131344795227050781e+00 8.315990447998046875e+00 1.000000000000000000e+01
2.051691627502441051e+01 -2.956532716751099077e+00 -3.618232905864716131e-01 3.000000000000000000e+00
3.447326660156250000e+01 -4.967673778533936435e+00 9.332497596740722656e+00 1.400000000000000000e+01
2.380084276199340820e+00 -3.463683128356934149e-01 -6.444594264030456543e-01 1.900000000000000000e+01
2.749796628952025923e+00 -4.011519551277161200e-01 -6.415604352951049805e-01 1.300000000000000000e+01
3.224784612655640093e+00 -4.710200130939484198e-01 -6.334858536720275879e-01 1.200000000000000000e+01
3.889527797698975053e+00 -5.695008039474487305e-01 -6.226091980934143066e-01 1.100000000000000000e+01
4.984756946563720703e+00 -7.316405773162841797e-01 -6.186087727546691895e-01 1.000000000000000000e+01
3.522977066040039062e+01 -5.177151203155517578e+00 5.639775276184082031e+00 1.300000000000000000e+01
6.581898212432861328e+00 -9.672354459762573242e-01 -5.820260643959045410e-01 5.000000000000000000e+00
1.030450057983398082e+01 -1.517961025238037109e+00 -5.458640456199645996e-01 2.000000000000000000e+00
2.050646972656250000e+01 -3.028131961822510210e+00 -3.618232905864716131e-01 3.000000000000000000e+00
3.473002243041992188e+01 -5.134677410125732422e+00 9.407036781311035156e+00 7.000000000000000000e+00
2.377011775970458984e+00 -3.539744913578032892e-01 -6.439417600631713867e-01 1.800000000000000000e+01
2.750378608703612837e+00 -4.105561077594757080e-01 -6.420103311538696289e-01 1.500000000000000000e+01
3.219321489334106001e+00 -4.811308383941649836e-01 -6.327226161956787109e-01 1.200000000000000000e+01
3.873942852020264116e+00 -5.803471803665161133e-01 -6.204190850257873535e-01 1.000000000000000000e+01
4.243706512451171875e+01 -6.364979743957520419e+00 5.268898963928222656e+00 3.100000000000000000e+01
4.980340003967285156e+00 -7.478718161582946777e-01 -6.183650493621826172e-01 9.000000000000000000e+00
6.592446327209472656e+00 -9.911299943923950195e-01 -5.832462310791015625e-01 6.000000000000000000e+00
3.412565994262695312e+01 -5.136654376983642578e+00 6.708081245422363281e+00 5.900000000000000000e+01
1.032310962677001953e+01 -1.555695176124572976e+00 -5.471200942993164062e-01 2.000000000000000000e+00
4.004547500610352273e+01 -6.042011260986328125e+00 9.349865913391113281e+00 1.200000000000000000e+01
2.059517860412598012e+01 -3.111051321029663086e+00 -3.635685443878173828e-01 3.000000000000000000e+00
4.198386764526367188e+01 -6.341968059539794922e+00 1.137716770172118963e+01 1.100000000000000000e+01
2.387220382690430132e+00 -3.640169501304625910e-01 -6.470476388931274414e-01 1.900000000000000000e+01
3.762823867797852273e+01 -5.744487762451171875e+00 6.644130945205688477e-01 3.100000000000000000e+01
2.743149518966674805e+00 -4.192709028720856268e-01 -6.406605839729309082e-01 1.300000000000000000e+01
3.217622518539429155e+00 -4.923654198646544855e-01 -6.327226161956787109e-01 1.200000000000000000e+01
3.879703760147095171e+00 -5.950641632080078125e-01 -6.216705441474914551e-01 1.000000000000000000e+01
3.653223037719727273e+01 -5.609794616699218750e+00 4.538170814514160156e+00 1.900000000000000000e+01
4.971813201904296875e+00 -7.643469572067260742e-01 -6.176338195800781250e-01 9.000000000000000000e+00
3.527275848388671875e+01 -5.422694683074951172e+00 5.652289867401123047e+00 1.300000000000000000e+01
6.588946342468261719e+00 -1.014135837554932085e+00 -5.832462310791015625e-01 5.000000000000000000e+00
3.423170471191406250e+01 -5.274879932403563565e+00 6.732504367828369141e+00 5.900000000000000000e+01
1.031761646270751953e+01 -1.591720104217529075e+00 -5.471200942993164062e-01 2.000000000000000000e+00
4.215621185302733664e+01 -6.518592357635498047e+00 1.142996692657471058e+01 1.100000000000000000e+01
2.385935068130493164e+00 -3.723476827144622803e-01 -6.470476388931274414e-01 2.000000000000000000e+01
3.763166427612304688e+01 -5.879504203796386719e+00 6.648319959640502930e-01 3.100000000000000000e+01
2.745520114898682085e+00 -4.294460415840148926e-01 -6.415604352951049805e-01 1.300000000000000000e+01
3.217823743820189986e+00 -5.038977861404418945e-01 -6.331042647361755371e-01 1.200000000000000000e+01
3.877602815628052202e+00 -6.086031794548034668e-01 -6.216705441474914551e-01 1.000000000000000000e+01
4.969114780426025391e+00 -7.816971540451049805e-01 -6.176338195800781250e-01 9.000000000000000000e+00
3.554534530639647727e+01 -5.598036766052246094e+00 5.699220657348632812e+00 1.300000000000000000e+01
6.620792865753173828e+00 -1.042708754539489968e+00 -5.863838195800781250e-01 6.000000000000000000e+00
3.421308517456054688e+01 -5.394338607788085938e+00 6.732504367828369141e+00 5.900000000000000000e+01
1.033172512054443004e+01 -1.630839586257935014e+00 -5.481668114662170410e-01 2.000000000000000000e+00
2.382713079452515093e+00 -3.803693354129791260e-01 -6.465299725532531738e-01 1.900000000000000000e+01
2.753625631332397017e+00 -4.405664503574370783e-01 -6.438099145889282227e-01 1.300000000000000000e+01
3.788444900512695312e+01 -6.068105220794677734e+00 2.010747432708739790e+00 2.100000000000000000e+01
3.210229635238647017e+00 -5.141955018043518066e-01 -6.319593787193298340e-01 1.100000000000000000e+01
3.879355669021606001e+00 -6.227610707283020020e-01 -6.222962737083435059e-01 1.000000000000000000e+01
4.962436199188232422e+00 -7.984071969985961914e-01 -6.171463727951049805e-01 9.000000000000000000e+00
6.613178730010986328e+00 -1.065179586410522017e+00 -5.860351920127868652e-01 6.000000000000000000e+00
3.697344970703125000e+01 -5.961905956268311435e+00 7.279744625091552734e+00 6.200000000000000000e+01
1.034568691253661932e+01 -1.670077085494994895e+00 -5.492135286331176758e-01 2.000000000000000000e+00
3.486275482177733664e+01 -5.634046077728270596e+00 8.153125762939453125e+00 1.000000000000000000e+01
2.066017341613769887e+01 -3.342517375946044922e+00 -3.653137683868408203e-01 3.000000000000000000e+00
3.542635345458983664e+01 -5.737817287445068359e+00 9.616163253784179688e+00 7.000000000000000000e+00
2.375651121139525923e+00 -3.877506554126740057e-01 -6.449770331382751465e-01 1.700000000000000000e+01
2.750147819519042969e+00 -4.498611092567443848e-01 -6.433600187301635742e-01 1.400000000000000000e+01
3.220039844512939009e+00 -5.273017287254333496e-01 -6.342490911483764648e-01 1.100000000000000000e+01
3.881056785583496094e+00 -6.369385719299316406e-01 -6.229220628738403320e-01 1.100000000000000000e+01
4.992918014526367188e+00 -8.212012648582458496e-01 -6.212899088859558105e-01 1.000000000000000000e+01
3.643318557739257812e+01 -5.998813629150390625e+00 5.848145961761474609e+00 1.300000000000000000e+01
6.607454299926757812e+00 -1.087933659553528054e+00 -5.858609080314636230e-01 6.000000000000000000e+00
1.037132453918457031e+01 -1.711382865905761941e+00 -5.508882999420166016e-01 2.000000000000000000e+00
3.477365875244141336e+01 -5.744271755218505859e+00 8.136929512023925781e+00 1.000000000000000000e+01
3.482200241088867188e+01 -5.758501052856445312e+00 9.457247734069824219e+00 1.400000000000000000e+01
2.381905078887939009e+00 -3.973122537136077881e-01 -6.470476388931274414e-01 1.800000000000000000e+01
5.971398162841796875e+01 -9.971266746520996094e+00 1.056743264198303001e+00 6.200000000000000000e+01
2.744716644287108931e+00 -4.588156044483184814e-01 -6.424602270126342773e-01 1.400000000000000000e+01
3.790025711059570312e+01 -6.342328071594238281e+00 2.013887643814086914e+00 2.200000000000000000e+01
3.225924968719481978e+00 -5.398346781730651855e-01 -6.357755661010742188e-01 1.100000000000000000e+01
3.882706165313721147e+00 -6.511355042457580566e-01 -6.235477924346923828e-01 1.000000000000000000e+01
3.741157150268554688e+01 -6.280689239501953125e+00 4.657846450805664062e+00 4.000000000000000000e+01
5.003724575042724609e+00 -8.409278392791748047e-01 -6.229960918426513672e-01 9.000000000000000000e+00
3.538737487792968750e+01 -5.953566074371337891e+00 5.683577060699462891e+00 1.300000000000000000e+01
6.603616237640380859e+00 -1.110991358757019043e+00 -5.858609080314636230e-01 6.000000000000000000e+00
1.036134815216063920e+01 -1.746911048889159934e+00 -5.506789088249206543e-01 2.000000000000000000e+00
3.407316207885742188e+01 -5.750810623168945312e+00 7.977663993835449219e+00 1.000000000000000000e+01
2.083350944519042969e+01 -3.519984245300292969e+00 -3.688042461872100830e-01 3.000000000000000000e+00
3.480549621582031250e+01 -5.880661010742188388e+00 9.458283424377441406e+00 1.400000000000000000e+01
2.372886180877685991e+00 -4.043262302875518799e-01 -6.449770331382751465e-01 1.600000000000000000e+01
2.741177320480347124e+00 -4.680656492710114081e-01 -6.420103311538696289e-01 1.300000000000000000e+01
3.229826450347899947e+00 -5.520843267440795898e-01 -6.369204521179199219e-01 1.200000000000000000e+01
3.876515626907349077e+00 -6.640177369117736816e-01 -6.229220628738403320e-01 1.000000000000000000e+01
3.744224929809570312e+01 -6.420300006866455078e+00 4.664427280426025391e+00 2.000000000000000000e+01
4.969455242156982422e+00 -8.530156612396240234e-01 -6.190962791442871094e-01 1.000000000000000000e+01
6.609516143798828125e+00 -1.135722637176513894e+00 -5.867324471473693848e-01 5.000000000000000000e+00
1.042210960388183949e+01 -1.794591546058655007e+00 -5.542377829551696777e-01 2.000000000000000000e+00
3.415658187866210938e+01 -5.887588500976563388e+00 8.001958847045898438e+00 1.000000000000000000e+01
2.091962432861328125e+01 -3.609686613082886186e+00 -3.705494999885559082e-01 3.000000000000000000e+00
3.489707565307617188e+01 -6.021499633789063388e+00 9.488823890686035156e+00 7.000000000000000000e+00
2.386686563491820845e+00 -4.152558445930480957e-01 -6.491181850433349609e-01 1.700000000000000000e+01
2.731847763061522993e+00 -4.762924313545227051e-01 -6.402106881141662598e-01 1.300000000000000000e+01
3.229813814163208008e+00 -5.636927485466003418e-01 -6.373020410537719727e-01 1.100000000000000000e+01
3.880011558532714844e+00 -6.785661578178405762e-01 -6.238606572151184082e-01 1.000000000000000000e+01
3.845985794067382812e+01 -6.733072280883789062e+00 4.794095993041992188e+00 2.000000000000000000e+01
