3.223248243331909180e+00 -5.555930137634277344e-01 -6.357755661010742188e-01 1.100000000000000000e+01
3.873638153076171875e+00 -6.690934896469116211e-01 -6.226091980934143066e-01 1.000000000000000000e+01
4.976083278656005859e+00 -8.613077402114868164e-01 -6.200712323188781738e-01 1.000000000000000000e+01
3.895475769042968750e+01 -6.749662399291992188e+00 6.261758804321289062e+00 1.400000000000000000e+01
6.633444786071777344e+00 -1.149372100830077903e+00 -5.889984965324401855e-01 6.000000000000000000e+00
3.779764175415039062e+01 -6.555964469909667969e+00 7.456815719604492188e+00 6.200000000000000000e+01
1.041959381103515980e+01 -1.809141755104064941e+00 -5.542377829551696777e-01 2.000000000000000000e+00
3.415024948120117188e+01 -5.935607910156250000e+00 8.002408981323242188e+00 1.000000000000000000e+01
2.093426513671875000e+01 -3.642320156097412109e+00 -3.708985447883605957e-01 3.000000000000000000e+00
3.479431915283203125e+01 -6.060066223144531250e+00 9.463459968566894531e+00 1.400000000000000000e+01
2.389909982681273970e+00 -4.192554950714110773e-01 -6.501534581184387207e-01 1.900000000000000000e+01
2.746534585952758789e+00 -4.828054904937744141e-01 -6.438099145889282227e-01 1.300000000000000000e+01
3.213555097579956055e+00 -5.654799342155456543e-01 -6.342490911483764648e-01 1.100000000000000000e+01
3.892678022384643999e+00 -6.863841414451599121e-01 -6.260507106781005859e-01 1.000000000000000000e+01
3.845042037963867188e+01 -6.786766052246093750e+00 4.794095993041992188e+00 2.000000000000000000e+01
4.971091747283936435e+00 -8.783268928527832031e-01 -6.198275089263916016e-01 9.000000000000000000e+00
6.643126010894775391e+00 -1.174949169158935991e+00 -5.902186632156372070e-01 6.000000000000000000e+00
1.044468021392822088e+01 -1.851078510284424050e+00 -5.559125542640686035e-01 2.000000000000000000e+00
3.437108612060546875e+01 -6.097669601440429688e+00 8.059096336364746094e+00 1.000000000000000000e+01
2.093717384338378906e+01 -3.718169212341309038e+00 -3.711777925491333008e-01 7.000000000000000000e+00
3.478354263305664062e+01 -6.177103996276854581e+00 9.466047286987304688e+00 7.000000000000000000e+00
2.388431787490845171e+00 -4.275952875614166260e-01 -6.501534581184387207e-01 1.900000000000000000e+01
2.744832515716553178e+00 -4.923897385597229004e-01 -6.438099145889282227e-01 1.400000000000000000e+01
3.209629297256470171e+00 -5.763468742370605469e-01 -6.338675022125244141e-01 1.200000000000000000e+01
3.886369943618773970e+00 -6.992683410644531250e-01 -6.254249811172485352e-01 1.000000000000000000e+01
3.828973770141602273e+01 -6.896310806274414062e+00 4.777034759521484375e+00 2.000000000000000000e+01
4.979716777801513672e+00 -8.977871537208557129e-01 -6.212899088859558105e-01 9.000000000000000000e+00
6.635062694549561435e+00 -1.197423100471497026e+00 -5.898700952529907227e-01 6.000000000000000000e+00
1.040670967102050959e+01 -1.881839632987976074e+00 -5.542377829551696777e-01 2.000000000000000000e+00
3.427289199829102273e+01 -6.203725814819335938e+00 8.041100502014160156e+00 2.000000000000000000e+01
2.073123741149901988e+01 -3.756292104721068892e+00 -3.677571117877960205e-01 6.000000000000000000e+00
3.534724426269531250e+01 -6.404565811157226562e+00 9.625480651855468750e+00 7.000000000000000000e+00
2.373697519302368164e+00 -4.330860376358032227e-01 -6.465299725532531738e-01 1.900000000000000000e+01
2.756603240966796875e+00 -5.039423108100891113e-01 -6.469592452049255371e-01 1.300000000000000000e+01
3.205769300460814986e+00 -5.866338610649108887e-01 -6.334858536720275879e-01 1.100000000000000000e+01
3.889858722686768022e+00 -7.132208943367004395e-01 -6.263635754585266113e-01 1.100000000000000000e+01
4.988427162170410156e+00 -9.164476394653320312e-01 -6.227523684501647949e-01 9.000000000000000000e+00
6.607541084289550781e+00 -1.215095043182373047e+00 -5.877783298492431641e-01 6.000000000000000000e+00
1.046326637268066051e+01 -1.927920460700988992e+00 -5.575872659683227539e-01 2.000000000000000000e+00
1.999107551574707031e+01 -3.690692901611328125e+00 -3.548423349857329767e-01 3.000000000000000000e+00
3.525438690185546875e+01 -6.514922618865966797e+00 9.606328010559082031e+00 1.400000000000000000e+01
2.383566856384276900e+00 -4.434894025325775146e-01 -6.496357917785644531e-01 1.900000000000000000e+01
5.971395492553710938e+01 -1.112123680114745916e+01 1.060233712196350098e+00 6.100000000000000000e+01
2.739501476287841797e+00 -5.107045173645019531e-01 -6.433600187301635742e-01 1.400000000000000000e+01
3.219141483306885210e+00 -6.007015705108642578e-01 -6.365388035774230957e-01 1.100000000000000000e+01
3.885403633117675781e+00 -7.264316678047180176e-01 -6.260507106781005859e-01 1.200000000000000000e+01
4.989099979400634766e+00 -9.345859289169311523e-01 -6.232398152351379395e-01 9.000000000000000000e+00
6.656132221221923828e+00 -1.248066306114196999e+00 -5.924847126007080078e-01 6.000000000000000000e+00
1.045647239685058949e+01 -1.964432358741760032e+00 -5.575872659683227539e-01 2.000000000000000000e+00
3.322631835937500000e+01 -6.248152256011962891e+00 7.805351734161376953e+00 1.900000000000000000e+01
1.976976203918457031e+01 -3.721242427825928178e+00 -3.511424064636229914e-01 1.000000000000000000e+01
3.533964157104492188e+01 -6.658331871032714844e+00 9.635832786560058594e+00 7.000000000000000000e+00
2.376388788223267046e+00 -4.503121376037598211e-01 -6.480829119682312012e-01 2.100000000000000000e+01
2.730134725570679155e+00 -5.183323025703430176e-01 -6.415604352951049805e-01 1.400000000000000000e+01
3.219060420989989790e+00 -6.117398142814636230e-01 -6.369204521179199219e-01 1.200000000000000000e+01
3.879092216491699219e+00 -7.385731935501098633e-01 -6.254249811172485352e-01 1.100000000000000000e+01
4.987923145294188565e+00 -9.514972567558288574e-01 -6.234835386276245117e-01 1.000000000000000000e+01
3.815577697753906250e+01 -7.278603553771972656e+00 6.152254581451416016e+00 1.400000000000000000e+01
6.663699150085449219e+00 -1.272374033927917036e+00 -5.935305953025817871e-01 6.000000000000000000e+00
1.044990062713623047e+01 -1.999096393585205078e+00 -5.575872659683227539e-01 2.000000000000000000e+00
3.324560928344727273e+01 -6.365996837615966797e+00 7.814799785614013672e+00 1.900000000000000000e+01
1.979266357421875000e+01 -3.793556451797484907e+00 -3.517706990242003839e-01 3.000000000000000000e+00
3.550709152221679688e+01 -6.811883926391601562e+00 9.687597274780273438e+00 7.000000000000000000e+00
2.382389545440673828e+00 -4.600697457790374756e-01 -6.501534581184387207e-01 1.900000000000000000e+01
2.728308916091918945e+00 -5.278590917587280273e-01 -6.415604352951049805e-01 1.300000000000000000e+01
3.226542711257935014e+00 -6.248390674591064453e-01 -6.388285160064697266e-01 1.100000000000000000e+01
3.880368947982788086e+00 -7.528617382049560547e-01 -6.260507106781005859e-01 1.000000000000000000e+01
4.984571456909179688e+00 -9.689025282859802246e-01 -6.234835386276245117e-01 1.000000000000000000e+01
3.619105529785156250e+01 -7.034828186035156250e+00 5.839385509490966797e+00 1.300000000000000000e+01
6.667039871215820312e+00 -1.297148942947387917e+00 -5.942278504371643066e-01 8.000000000000000000e+00
1.047422504425049006e+01 -2.041675090789794922e+00 -5.592620372772216797e-01 2.000000000000000000e+00
3.331308364868164062e+01 -6.499546051025390625e+00 7.835945129394531250e+00 9.000000000000000000e+00
2.079790115356444957e+01 -4.061541080474854404e+00 -3.698863089084625244e-01 1.000000000000000000e+01
2.384478330612183061e+00 -4.695450365543364923e-01 -6.511887311935424805e-01 1.900000000000000000e+01
2.739738941192626953e+00 -5.404955148696899414e-01 -6.447097063064575195e-01 1.300000000000000000e+01
3.197266101837158203e+00 -6.313362121582031250e-01 -6.334858536720275879e-01 1.100000000000000000e+01
3.885334968566894975e+00 -7.686123251914978027e-01 -6.273022294044494629e-01 1.100000000000000000e+01
4.984880924224854404e+00 -9.879372119903564453e-01 -6.239710450172424316e-01 1.000000000000000000e+01
6.670058250427246094e+00 -1.323126792907715066e+00 -5.949251055717468262e-01 6.000000000000000000e+00
1.051368618011474965e+01 -2.089394569396973100e+00 -5.617741346359252930e-01 2.000000000000000000e+00
3.339224624633789062e+01 -6.642130851745604581e+00 7.860239505767822266e+00 9.000000000000000000e+00
2.030237960815430043e+01 -4.042078495025634766e+00 -3.613346219062805176e-01 3.000000000000000000e+00
2.369565725326538086e+00 -4.752065241336823065e-01 -6.475652456283569336e-01 1.900000000000000000e+01
2.745477914810181108e+00 -5.515910983085632324e-01 -6.465093493461608887e-01 1.500000000000000000e+01
3.200816869735718218e+00 -6.436539888381958008e-01 -6.346307396888732910e-01 1.200000000000000000e+01
3.886501073837279829e+00 -7.829502224922180176e-01 -6.279279589653015137e-01 1.000000000000000000e+01
3.764009857177733664e+01 -7.589575290679931641e+00 4.714637279510498047e+00 2.000000000000000000e+01
4.991131782531738281e+00 -1.007295250892638938e+00 -6.251897215843200684e-01 9.000000000000000000e+00
3.846339035034179688e+01 -7.762566566467285156e+00 6.214828491210938388e+00 1.400000000000000000e+01
6.653681278228759766e+00 -1.344034671783447044e+00 -5.938792228698730469e-01 6.000000000000000000e+00
1.055331039428710938e+01 -2.135588884353638139e+00 -5.642862915992736816e-01 2.000000000000000000e+00
3.368590927124022727e+01 -6.822867870330811435e+00 7.934923648834229404e+00 9.000000000000000000e+00
1.971587753295898082e+01 -3.996908664703369141e+00 -3.511424064636229914e-01 6.000000000000000000e+00
2.383119821548461914e+00 -4.861508011817932129e-01 -6.517063379287719727e-01 1.900000000000000000e+01
2.734087228775023970e+00 -5.587415099143981934e-01 -6.442598104476928711e-01 1.400000000000000000e+01
3.214052438735961914e+00 -6.574121713638305664e-01 -6.376836895942687988e-01 1.200000000000000000e+01
3.872272491455078125e+00 -7.934548258781433105e-01 -6.260507106781005859e-01 1.000000000000000000e+01
3.763806152343750000e+01 -7.719138622283936435e+00 4.717562198638916016e+00 2.000000000000000000e+01
4.999431133270263672e+00 -1.026235818862915039e+00 -6.266521811485290527e-01 9.000000000000000000e+00
3.805043029785156250e+01 -7.810631752014160156e+00 6.152254581451416016e+00 1.400000000000000000e+01
6.672607421875000000e+00 -1.370903253555298074e+00 -5.959709882736206055e-01 6.000000000000000000e+00
3.507583999633789062e+01 -7.212796211242675781e+00 6.960711956024169922e+00 6.000000000000000000e+01
1.051878356933593928e+01 -2.164936304092406782e+00 -5.628208518028259277e-01 2.000000000000000000e+00
3.391122436523438211e+01 -6.985650539398193359e+00 7.993410587310791016e+00 1.000000000000000000e+01
1.813375663757323863e+01 -3.738819837570189986e+00 -3.231836557388306219e-01 9.000000000000000000e+00
3.548926544189453125e+01 -7.317180633544921875e+00 9.709337234497070312e+00 7.000000000000000000e+00
2.383299827575684038e+00 -4.948592185974121094e-01 -6.522240042686462402e-01 2.100000000000000000e+01
2.724488735198975053e+00 -5.666944384574890137e-01 -6.424602270126342773e-01 1.400000000000000000e+01
3.211738109588623047e+00 -6.686273217201232910e-01 -6.376836895942687988e-01 1.300000000000000000e+01
3.879148006439208984e+00 -8.089831471443176270e-01 -6.276150941848754883e-01 1.100000000000000000e+01
3.701626205444335938e+01 -7.726357936859130859e+00 4.642978191375732422e+00 1.900000000000000000e+01
5.003591060638427734e+00 -1.045304656028748003e+00 -6.276271343231201172e-01 1.000000000000000000e+01
6.673631668090820312e+00 -1.395409941673279031e+00 -5.964938998222351074e-01 6.000000000000000000e+00
1.054634952545166016e+01 -2.209010839462279829e+00 -5.647049546241760254e-01 2.000000000000000000e+00
1.813820838928223012e+01 -3.805791616439818892e+00 -3.234978020191193182e-01 3.000000000000000000e+00
3.703519439697266336e+01 -7.777540206909179688e+00 1.014001274108887074e+01 8.000000000000000000e+00
2.385338306427001953e+00 -5.039741992950439453e-01 -6.532592773437500000e-01 2.200000000000000000e+01
2.730119943618773970e+00 -5.778152346611022949e-01 -6.442598104476928711e-01 1.300000000000000000e+01
3.207463979721068892e+00 -6.794274449348449707e-01 -6.373020410537719727e-01 1.300000000000000000e+01
3.882097482681273970e+00 -8.237490653991699219e-01 -6.285536885261535645e-01 1.000000000000000000e+01
3.731917190551757812e+01 -7.925627231597900391e+00 4.684413909912109375e+00 2.000000000000000000e+01
4.966902732849121094e+00 -1.055747747421265093e+00 -6.234835386276245117e-01 1.000000000000000000e+01
3.625598907470703125e+01 -7.706448078155517578e+00 5.870672702789306641e+00 1.300000000000000000e+01
6.684310436248779297e+00 -1.422013401985168013e+00 -5.978884100914001465e-01 6.000000000000000000e+00
1.050341320037841975e+01 -2.238317966461182085e+00 -5.628208518028259277e-01 2.000000000000000000e+00
4.175575256347656250e+01 -8.905931472778320312e+00 9.856904983520507812e+00 1.300000000000000000e+01
1.796836280822753906e+01 -3.835685253143310991e+00 -3.207054138183593750e-01 6.000000000000000000e+00
3.734171295166016336e+01 -7.971292018890380859e+00 1.023111724853515980e+01 8.000000000000000000e+00
2.374120950698852983e+00 -5.102677941322326660e-01 -6.506710648536682129e-01 2.000000000000000000e+01
2.735706806182860884e+00 -5.889822244644165039e-01 -6.460594534873962402e-01 1.400000000000000000e+01
3.201234340667725053e+00 -6.897923350334167480e-01 -6.365388035774230957e-01 1.300000000000000000e+01
3.890784025192261186e+00 -8.397957682609558105e-01 -6.304308772087097168e-01 1.100000000000000000e+01
3.747367095947266336e+01 -8.095248222351074219e+00 4.707325458526611328e+00 2.000000000000000000e+01
4.974828720092773438e+00 -1.075595974922179954e+00 -6.249459981918334961e-01 1.000000000000000000e+01
6.677358627319335938e+00 -1.444916009902954102e+00 -5.977140665054321289e-01 7.000000000000000000e+00
1.059313201904297053e+01 -2.296122789382935014e+00 -5.680544972419738770e-01 2.000000000000000000e+00
3.660908126831054688e+01 -7.941920280456542969e+00 8.648468017578125000e+00 1.100000000000000000e+01
1.801348876953125000e+01 -3.911111831665039062e+00 -3.217525780200958252e-01 3.000000000000000000e+00
3.793521881103516336e+01 -8.243476867675781250e+00 1.040193748474120916e+01 8.000000000000000000e+00
2.370347499847412109e+00 -5.185530781745910645e-01 -6.501534581184387207e-01 2.100000000000000000e+01
2.737336635589600053e+00 -5.998394489288330078e-01 -6.469592452049255371e-01 1.300000000000000000e+01
3.206355333328247070e+00 -7.032031416893005371e-01 -6.380652785301208496e-01 1.300000000000000000e+01
3.891538619995117188e+00 -8.548982143402099609e-01 -6.310566067695617676e-01 1.000000000000000000e+01
3.667986679077147727e+01 -8.064591407775878906e+00 4.611292362213134766e+00 1.900000000000000000e+01
4.984424114227294922e+00 -1.096808671951293945e+00 -6.266521811485290527e-01 9.000000000000000000e+00
6.683692455291748047e+00 -1.471951127052306907e+00 -5.987599492073059082e-01 5.000000000000000000e+00
1.058464527130126953e+01 -2.334933042526245117e+00 -5.680544972419738770e-01 2.000000000000000000e+00
3.638562774658203125e+01 -8.033193588256835938e+00 8.602578163146972656e+00 1.100000000000000000e+01
1.909639167785644887e+01 -4.219583511352539062e+00 -3.413690626621245783e-01 6.000000000000000000e+00
2.362865686416625977e+00 -5.255656242370605469e-01 -6.486005187034606934e-01 2.000000000000000000e+01
2.733324050903319868e+00 -6.089670658111572266e-01 -6.465093493461608887e-01 1.500000000000000000e+01
3.205797195434569868e+00 -7.148183584213256836e-01 -6.384469270706176758e-01 1.200000000000000000e+01
3.882747173309326172e+00 -8.671852946281433105e-01 -6.301180124282836914e-01 1.100000000000000000e+01
3.684522247314453125e+01 -8.235882759094238281e+00 4.635665893554688388e+00 1.900000000000000000e+01
5.009623050689697266e+00 -1.120701551437377930e+00 -6.303082704544067383e-01 1.000000000000000000e+01
6.682402133941650391e+00 -1.496143221855164018e+00 -5.991085767745971680e-01 5.000000000000000000e+00
1.054524898529052912e+01 -2.364873409271239790e+00 -5.663797259330749512e-01 2.000000000000000000e+00
3.633835220336914062e+01 -8.155886650085449219e+00 8.598078727722167969e+00 1.100000000000000000e+01
2.372509479522705078e+00 -5.355383753776550293e-01 -6.517063379287719727e-01 2.000000000000000000e+01
2.721893787384033203e+00 -6.154022812843322754e-01 -6.442598104476928711e-01 1.100000000000000000e+01
3.213109970092772993e+00 -7.270525693893432617e-01 -6.403549909591674805e-01 1.200000000000000000e+01
3.880003690719604048e+00 -8.793790340423583984e-01 -6.301180124282836914e-01 1.100000000000000000e+01
4.990591049194335938e+00 -1.132918477058411089e+00 -6.283583641052246094e-01 1.000000000000000000e+01
3.614628601074218750e+01 -8.205600738525390625e+00 5.870672702789306641e+00 1.300000000000000000e+01
6.679612159729003906e+00 -1.517570614814758079e+00 -5.992828607559204102e-01 7.000000000000000000e+00
3.568423461914063211e+01 -8.113808631896972656e+00 7.113359451293945312e+00 6.100000000000000000e+01
1.064293098449707031e+01 -2.421921730041503906e+00 -5.720319747924804688e-01 3.000000000000000000e+00
1.865465164184569957e+01 -4.251930713653563565e+00 -3.339692354202271063e-01 3.000000000000000000e+00
3.794400787353516336e+01 -8.648528099060058594e+00 1.042781925201416016e+01 8.000000000000000000e+00
2.378157377243041992e+00 -5.455445051193237305e-01 -6.537768840789794922e-01 2.000000000000000000e+01
2.717829704284667969e+00 -6.244633197784423828e-01 -6.438099145889282227e-01 1.300000000000000000e+01
3.200985908508300781e+00 -7.360641360282897949e-01 -6.384469270706176758e-01 1.300000000000000000e+01
3.882685184478760210e+00 -8.942474722862243652e-01 -6.310566067695617676e-01 1.000000000000000000e+01
4.984671592712402344e+00 -1.149885773658751997e+00 -6.281145811080932617e-01 1.000000000000000000e+01
3.596199035644531250e+01 -8.302479743957519531e+00 5.845643043518066406e+00 1.300000000000000000e+01
6.701452255249023438e+00 -1.547152161598206010e+00 -6.017232537269592285e-01 5.000000000000000000e+00
1.058771038055419922e+01 -2.448258638381958008e+00 -5.695198774337768555e-01 2.000000000000000000e+00
1.806110191345214844e+01 -4.183017253875732422e+00 -3.236025273799896240e-01 9.000000000000000000e+00
3.674147415161132812e+01 -8.516216278076171875e+00 1.010584831237792969e+01 8.000000000000000000e+00
2.370497941970825195e+00 -5.529407262802124023e-01 -6.522240042686462402e-01 2.100000000000000000e+01
2.728806257247924805e+00 -6.375238895416259766e-01 -6.469592452049255371e-01 1.400000000000000000e+01
3.207825183868408203e+00 -7.500262856483459473e-01 -6.403549909591674805e-01 1.200000000000000000e+01
3.894768476486206055e+00 -9.120754599571228027e-01 -6.335595846176147461e-01 1.100000000000000000e+01
4.999750137329101562e+00 -1.172680735588073953e+00 -6.305519938468933105e-01 1.000000000000000000e+01
3.599048614501953125e+01 -8.441492080688476562e+00 5.855029106140136719e+00 1.300000000000000000e+01
6.684098720550537109e+00 -1.568972110748291016e+00 -6.006773710250854492e-01 5.000000000000000000e+00
1.059810829162598012e+01 -2.491618871688843218e+00 -5.705665946006774902e-01 3.000000000000000000e+00
3.847565841674804688e+01 -9.052727699279785156e+00 9.125364303588867188e+00 1.200000000000000000e+01
1.804759597778319957e+01 -4.249644756317138672e+00 -3.236374258995056152e-01 1.500000000000000000e+01
3.669647979736328125e+01 -8.640873908996582031e+00 1.010170745849609020e+01 8.000000000000000000e+00
2.355394840240478960e+00 -5.580940842628479004e-01 -6.486005187034606934e-01 2.000000000000000000e+01
2.734148502349853960e+00 -6.488451361656188965e-01 -6.487588286399841309e-01 1.300000000000000000e+01
3.199457168579102007e+00 -7.598581910133361816e-01 -6.392101049423217773e-01 1.200000000000000000e+01
3.883873939514160156e+00 -9.238367080688476562e-01 -6.323081254959106445e-01 1.000000000000000000e+01
4.246362304687500000e+01 -1.010842990875243963e+01 5.359570026397705078e+00 3.300000000000000000e+01
5.003350257873535156e+00 -1.191966176033020020e+00 -6.315269470214843750e-01 1.000000000000000000e+01
6.676643371582031250e+00 -1.591832280158997026e+00 -6.005030870437622070e-01 5.000000000000000000e+00
1.067482185363770064e+01 -2.549008607864379883e+00 -5.751721858978271484e-01 3.000000000000000000e+00
3.782972335815429688e+01 -9.040225028991699219e+00 8.979596138000488281e+00 1.200000000000000000e+01
1.796847152709960938e+01 -4.297267436981201172e+00 -3.224855661392211914e-01 9.000000000000000000e+00
3.638426589965820312e+01 -8.701515197753906250e+00 1.002406120300292969e+01 8.000000000000000000e+00
2.359066963195800781e+00 -5.676684379577636719e-01 -6.501534581184387207e-01 1.900000000000000000e+01
2.733761548995972124e+00 -6.588417291641235352e-01 -6.492087244987487793e-01 1.500000000000000000e+01
3.204419374465941939e+00 -7.728629708290100098e-01 -6.407365798950195312e-01 1.200000000000000000e+01
3.872944831848144975e+00 -9.355330467224121094e-01 -6.310566067695617676e-01 1.000000000000000000e+01
5.018453598022460938e+00 -1.214091658592223899e+00 -6.339643001556396484e-01 9.000000000000000000e+00
6.680728435516357422e+00 -1.617472529411315918e+00 -6.013746261596679688e-01 5.000000000000000000e+00
1.063092136383056996e+01 -2.577783346176147017e+00 -5.732880830764770508e-01 3.000000000000000000e+00
3.777142333984375000e+01 -9.165786743164062500e+00 8.973297119140625000e+00 1.200000000000000000e+01
2.014336585998535156e+01 -4.891804218292236328e+00 -3.618232905864716131e-01 3.000000000000000000e+00
3.691685485839843750e+01 -8.965235710144042969e+00 1.017935276031493963e+01 8.000000000000000000e+00
2.364577770233153853e+00 -5.777337551116943359e-01 -6.522240042686462402e-01 1.900000000000000000e+01
4.221572494506835938e+01 -1.032231330871582031e+01 7.585862874984741211e-01 4.400000000000000000e+01
2.714408874511719194e+00 -6.642116308212280273e-01 -6.451596021652221680e-01 1.500000000000000000e+01
3.203608989715576172e+00 -7.845107913017272949e-01 -6.411182284355163574e-01 1.200000000000000000e+01
3.873492717742919922e+00 -9.499874711036682129e-01 -6.316823959350585938e-01 1.000000000000000000e+01
4.138566589355468750e+01 -1.015763568878174006e+01 5.232338428497313565e+00 3.000000000000000000e+01
5.006473541259765625e+00 -1.229707837104796919e+00 -6.329893469810485840e-01 9.000000000000000000e+00
6.686650276184082031e+00 -1.643636345863342063e+00 -6.024205088615417480e-01 5.000000000000000000e+00
1.064125156402588068e+01 -2.619650840759276900e+00 -5.743348002433776855e-01 3.000000000000000000e+00
3.772027587890625000e+01 -9.292916297912597656e+00 8.968798637390136719e+00 1.200000000000000000e+01
3.918698883056641336e+01 -9.668771743774414062e+00 1.081501293182373047e+01 9.000000000000000000e+00
2.370046854019165039e+00 -5.878443717956542969e-01 -6.542945504188537598e-01 1.900000000000000000e+01
2.715856313705443892e+00 -6.746222376823425293e-01 -6.460594534873962402e-01 1.500000000000000000e+01
3.191324710845946822e+00 -7.933205366134643555e-01 -6.392101049423217773e-01 1.000000000000000000e+01
3.877820491790771040e+00 -9.654116034507751465e-01 -6.329338550567626953e-01 1.000000000000000000e+01
4.982889652252197266e+00 -1.242373824119568093e+00 -6.305519938468933105e-01 9.000000000000000000e+00
6.713735580444335938e+00 -1.675166845321655051e+00 -6.053838133811950684e-01 5.000000000000000000e+00
1.070954990386963068e+01 -2.676147699356079102e+00 -5.785216689109802246e-01 3.000000000000000000e+00
3.598613739013671875e+01 -8.999040603637695312e+00 8.563886642456054688e+00 1.100000000000000000e+01
4.050403213500977273e+01 -1.013634204864501953e+01 1.118771171569824041e+01 1.000000000000000000e+01
2.362360239028931108e+00 -5.946990251541137695e-01 -6.527416110038757324e-01 1.900000000000000000e+01
2.726712226867675781e+00 -6.874330043792724609e-01 -6.492087244987487793e-01 1.400000000000000000e+01
3.190439701080321822e+00 -8.049358129501342773e-01 -6.395917534828186035e-01 1.200000000000000000e+01
3.899324417114257812e+00 -9.852325916290283203e-01 -6.370011568069458008e-01 1.100000000000000000e+01
3.633692932128906250e+01 -9.187908172607421875e+00 4.602030277252197266e+00 1.900000000000000000e+01
4.997766971588134766e+00 -1.264629364013672097e+00 -6.329893469810485840e-01 9.000000000000000000e+00
6.702052593231201172e+00 -1.697124719619750977e+00 -6.048608422279357910e-01 5.000000000000000000e+00
1.066142368316650035e+01 -2.703695535659790039e+00 -5.764282345771789551e-01 3.000000000000000000e+00
3.545962142944335938e+01 -8.999009132385253906e+00 8.446012496948242188e+00 1.100000000000000000e+01
2.360480308532714844e+00 -6.021175980567932129e-01 -6.527416110038757324e-01 1.900000000000000000e+01
2.730203628540039062e+00 -6.974427700042724609e-01 -6.505584716796875000e-01 1.500000000000000000e+01
4.055617904663085938e+01 -1.036025810241699041e+01 2.193713903427124023e+00 2.700000000000000000e+01
3.193601369857788086e+00 -8.164135813713073730e-01 -6.407365798950195312e-01 1.200000000000000000e+01
3.707386016845703125e+01 -9.484471321105957031e+00 3.348000764846802202e+00 4.900000000000000000e+01
3.888555288314818892e+00 -9.955181479454040527e-01 -6.357496380805969238e-01 1.200000000000000000e+01
5.007229328155517578e+00 -1.283775091171265093e+00 -6.346955299377441406e-01 1.000000000000000000e+01
6.669669628143311435e+00 -1.711239337921143022e+00 -6.024205088615417480e-01 5.000000000000000000e+00
1.069156551361083984e+01 -2.747116565704346147e+00 -5.785216689109802246e-01 3.000000000000000000e+00
3.575202560424804688e+01 -9.192863464355468750e+00 8.522495269775390625e+00 1.100000000000000000e+01
1.659288024902344105e+01 -4.269589424133300781e+00 -2.990644276142119806e-01 2.000000000000000000e+00
3.636856460571289062e+01 -9.358160972595214844e+00 1.006236648559569957e+01 8.000000000000000000e+00
2.358364105224608931e+00 -6.103535890579223633e-01 -6.527416110038757324e-01 1.800000000000000000e+01
4.236166763305664062e+01 -1.097124958038330078e+01 7.638220191001892090e-01 4.500000000000000000e+01
2.720206737518310991e+00 -7.050130367279052734e-01 -6.487588286399841309e-01 1.500000000000000000e+01
3.205935001373291016e+00 -8.314994573593139648e-01 -6.437895298004150391e-01 1.200000000000000000e+01
3.877408742904663086e+00 -1.007099270820617898e+00 -6.344981789588928223e-01 1.200000000000000000e+01
3.591783905029296875e+01 -9.335816383361816406e+00 4.556694984436035156e+00 1.900000000000000000e+01
5.008481025695800781e+00 -1.302744865417480025e+00 -6.354267597198486328e-01 9.000000000000000000e+00
3.644421005249022727e+01 -9.486213684082031250e+00 5.964533329010009766e+00 1.300000000000000000e+01
6.688721656799316406e+00 -1.741034865379333052e+00 -6.046865582466125488e-01 5.000000000000000000e+00
1.068191146850585938e+01 -2.784420490264893022e+00 -5.785216689109802246e-01 3.000000000000000000e+00
3.569332122802733664e+01 -9.310719490051269531e+00 8.516197204589843750e+00 1.100000000000000000e+01
2.590776634216308949e+01 -6.762955665588378906e+00 -4.673754572868347168e-01 4.000000000000000000e+00
3.638261795043945312e+01 -9.504090309143066406e+00 1.007582569122313920e+01 8.000000000000000000e+00
2.359956264495850053e+00 -6.195631623268127441e-01 -6.537768840789794922e-01 2.000000000000000000e+01
2.710190296173096147e+00 -7.125220894813537598e-01 -6.469592452049255371e-01 1.500000000000000000e+01
3.203012943267821822e+00 -8.426852226257324219e-01 -6.437895298004150391e-01 1.200000000000000000e+01
3.883420705795288086e+00 -1.023144125938415971e+00 -6.360625624656677246e-01 1.000000000000000000e+01
3.598484420776367188e+01 -9.487452507019042969e+00 4.569369316101074219e+00 1.900000000000000000e+01
5.011580944061279297e+00 -1.322245478630065918e+00 -6.364017128944396973e-01 9.000000000000000000e+00
6.699940681457520419e+00 -1.768949747085571067e+00 -6.062553524971008301e-01 5.000000000000000000e+00
1.067212677001952947e+01 -2.821690320968627930e+00 -5.785216689109802246e-01 3.000000000000000000e+00
3.612680053710938211e+01 -9.565351486206054688e+00 1.001370906829833984e+01 8.000000000000000000e+00
2.363379478454589844e+00 -6.292883753776550293e-01 -6.553298234939575195e-01 1.900000000000000000e+01
4.240771102905272727e+01 -1.129967117309569957e+01 7.660559415817260742e-01 4.500000000000000000e+01
2.715218544006348100e+00 -7.239863276481628418e-01 -6.487588286399841309e-01 1.500000000000000000e+01
3.192464351654053178e+00 -8.518360853195190430e-01 -6.422630548477172852e-01 1.200000000000000000e+01
3.876008749008179155e+00 -1.035673737525939941e+00 -6.354367733001708984e-01 1.000000000000000000e+01
3.608958435058593750e+01 -9.649925231933593750e+00 4.586918354034423828e+00 1.900000000000000000e+01
5.001182079315186435e+00 -1.338191747665405051e+00 -6.356704831123352051e-01 9.000000000000000000e+00
3.570923995971679688e+01 -9.561582565307617188e+00 5.855029106140136719e+00 1.300000000000000000e+01
6.709122180938720703e+00 -1.796448826789855957e+00 -6.076498627662658691e-01 5.000000000000000000e+00
1.066221237182617010e+01 -2.858925819396973100e+00 -5.785216689109802246e-01 3.000000000000000000e+00
3.616782379150391336e+01 -9.711439132690429688e+00 1.003441429138183949e+01 8.000000000000000000e+00
2.357327222824097124e+00 -6.369385719299316406e-01 -6.542945504188537598e-01 1.900000000000000000e+01
4.224246597290039062e+01 -1.142162322998047053e+01 7.638220191001892090e-01 4.500000000000000000e+01
2.714427947998046875e+00 -7.344422340393066406e-01 -6.492087244987487793e-01 1.400000000000000000e+01
3.191215991973876953e+00 -8.640444278717041016e-01 -6.426447033882141113e-01 1.100000000000000000e+01
3.881719589233397993e+00 -1.052457690238953081e+00 -6.370011568069458008e-01 1.100000000000000000e+01
3.647545623779296875e+01 -9.896491050720214844e+00 4.640541076660156250e+00 1.900000000000000000e+01
5.005822181701660156e+00 -1.359113693237304910e+00 -6.368891596794128418e-01 1.000000000000000000e+01
6.694801807403563565e+00 -1.818937420845031960e+00 -6.069526076316833496e-01 6.000000000000000000e+00
1.072875022888183949e+01 -2.918958902359008789e+00 -5.827085375785827637e-01 3.000000000000000000e+00
3.681242752075195312e+01 -1.003621959686278942e+01 1.022387027740479049e+01 8.000000000000000000e+00
2.349499940872191939e+00 -6.436320543289184570e-01 -6.527416110038757324e-01 2.000000000000000000e+01
2.725002765655518022e+00 -7.475215792655944824e-01 -6.523580551147460938e-01 1.600000000000000000e+01
3.188180446624755859e+00 -8.751786351203918457e-01 -6.426447033882141113e-01 1.100000000000000000e+01
3.874212741851807085e+00 -1.064953804016113059e+00 -6.363754272460937500e-01 1.100000000000000000e+01
3.645982742309570312e+01 -1.002901935577392933e+01 4.642978191375732422e+00 1.900000000000000000e+01
5.008703231811523438e+00 -1.378686308860779031e+00 -6.378641724586486816e-01 1.000000000000000000e+01
6.699936866760253906e+00 -1.845470070838928001e+00 -6.079984903335571289e-01 6.000000000000000000e+00
3.613113784790039062e+01 -9.958957672119140625e+00 7.285087585449218750e+00 6.200000000000000000e+01
1.073775005340575994e+01 -2.961701869964600053e+00 -5.837552547454833984e-01 3.000000000000000000e+00
3.554449844360352273e+01 -9.823966026306152344e+00 9.881193161010742188e+00 7.000000000000000000e+00
2.352937221527100053e+00 -6.529694795608520508e-01 -6.542945504188537598e-01 2.100000000000000000e+01
2.720631361007689986e+00 -7.560321688652038574e-01 -6.519081592559814453e-01 1.700000000000000000e+01
3.190935134887694868e+00 -8.873240947723388672e-01 -6.437895298004150391e-01 1.200000000000000000e+01
3.600334167480468750e+01 -1.001845455169677912e+01 3.269560575485229048e+00 4.700000000000000000e+01
3.863047838211060014e+00 -1.075675725936890093e+00 -6.351239085197448730e-01 1.200000000000000000e+01
5.009840488433837891e+00 -1.396887660026550071e+00 -6.385953426361083984e-01 9.000000000000000000e+00
3.798738479614257812e+01 -1.059197521209716975e+01 6.246115207672119141e+00 1.400000000000000000e+01
6.730242729187011719e+00 -1.877851486206054910e+00 -6.113103628158569336e-01 7.000000000000000000e+00
1.070863342285156072e+01 -2.991919040679932085e+00 -5.827085375785827637e-01 3.000000000000000000e+00
3.554521179199218750e+01 -9.951156616210937500e+00 9.890510559082031250e+00 1.500000000000000000e+01
2.346924304962158203e+00 -6.601326465606689453e-01 -6.532592773437500000e-01 1.900000000000000000e+01
2.708596944808959961e+00 -7.628827691078186035e-01 -6.496586203575134277e-01 1.500000000000000000e+01
3.199156045913695845e+00 -9.016526341438293457e-01 -6.460792422294616699e-01 1.200000000000000000e+01
3.870676279067993164e+00 -1.092372894287108931e+00 -6.370011568069458008e-01 1.200000000000000000e+01
3.678807830810546875e+01 -1.038917541503906072e+01 4.693675994873046875e+00 2.000000000000000000e+01
5.003023624420166016e+00 -1.413826942443848100e+00 -6.383516192436218262e-01 1.000000000000000000e+01
6.706392288208007812e+00 -1.896453499794005904e+00 -6.097415685653686523e-01 5.000000000000000000e+00
1.081342697143555043e+01 -3.061929702758789062e+00 -5.889888405799865723e-01 3.000000000000000000e+00
3.807415390014647727e+01 -1.078825473785400035e+01 9.136161804199218750e+00 1.200000000000000000e+01
3.862509536743164062e+01 -1.095893096923827947e+01 1.075807285308838068e+01 9.000000000000000000e+00
2.350179195404053178e+00 -6.699096560478210449e-01 -6.548121571540832520e-01 1.900000000000000000e+01
2.707791328430175781e+00 -7.728677392005920410e-01 -6.501085758209228516e-01 1.400000000000000000e+01
3.182775020599364790e+00 -9.090400934219360352e-01 -6.434079408645629883e-01 1.200000000000000000e+01
3.874436616897583008e+00 -1.108050107955933061e+00 -6.382526159286499023e-01 1.100000000000000000e+01
3.690044784545897727e+01 -1.056012725830077947e+01 4.712687492370604581e+00 2.000000000000000000e+01
4.988515853881835938e+00 -1.428549647331238015e+00 -6.371329426765441895e-01 9.000000000000000000e+00
6.724630355834960938e+00 -1.926986575126647949e+00 -6.120076179504394531e-01 3.000000000000000000e+00
3.504155349731445312e+01 -1.004800319671631037e+01 7.085882663726806641e+00 6.100000000000000000e+01
1.076427650451659979e+01 -3.088639974594116211e+00 -5.868954062461853027e-01 3.000000000000000000e+00
3.858111572265625000e+01 -1.108482265472411932e+01 1.075600147247313920e+01 9.000000000000000000e+00
2.351538419723511186e+00 -6.791813373565673828e-01 -6.558474898338317871e-01 1.900000000000000000e+01
2.708821058273314986e+00 -7.833977937698364258e-01 -6.510083675384521484e-01 1.400000000000000000e+01
3.177696466445922852e+00 -9.195987582206726074e-01 -6.430262923240661621e-01 1.200000000000000000e+01
3.874339818954468218e+00 -1.122667193412780984e+00 -6.388783454895019531e-01 1.100000000000000000e+01
3.645154571533203125e+01 -1.056945896148681996e+01 4.660039901733398438e+00 2.000000000000000000e+01
4.998750686645507812e+00 -1.450379371643065962e+00 -6.390828490257263184e-01 9.000000000000000000e+00
6.704469203948974609e+00 -1.946559548377990945e+00 -6.107874512672424316e-01 2.000000000000000000e+00
1.075342941284180043e+01 -3.126195430755614790e+00 -5.868954062461853027e-01 3.000000000000000000e+00
3.848087692260742188e+01 -1.120886611938476918e+01 1.073943710327148082e+01 9.000000000000000000e+00
2.349153280258179155e+00 -6.873855590820312500e-01 -6.558474898338317871e-01 2.000000000000000000e+01
2.721031188964844194e+00 -7.972319722175598145e-01 -6.546075940132141113e-01 1.400000000000000000e+01
3.176351070404053178e+00 -9.312376976013183594e-01 -6.434079408645629883e-01 1.200000000000000000e+01
3.870397329330443892e+00 -1.136184334754944070e+00 -6.388783454895019531e-01 1.100000000000000000e+01
3.627348709106445312e+01 -1.065523338317870916e+01 4.642003059387207031e+00 1.900000000000000000e+01
5.001275539398193359e+00 -1.470058679580688032e+00 -6.400578022003173828e-01 9.000000000000000000e+00
6.709102153778076172e+00 -1.973323822021483931e+00 -6.118333339691162109e-01 3.000000000000000000e+00
3.529449081420897727e+01 -1.038773345947265980e+01 7.151521205902099609e+00 6.100000000000000000e+01
1.078076934814452947e+01 -3.174997806549071822e+00 -5.889888405799865723e-01 3.000000000000000000e+00
2.716328048706055043e+01 -8.010045051574707031e+00 -4.943219721317291260e-01 4.000000000000000000e+00
3.838049316406250000e+01 -1.131783390045166016e+01 1.072183799743651988e+01 9.000000000000000000e+00
2.348591804504394975e+00 -6.961304545402526855e-01 -6.563650965690612793e-01 2.100000000000000000e+01
2.703285932540893999e+00 -8.022896647453308105e-01 -6.510083675384521484e-01 1.400000000000000000e+01
3.184373378753662109e+00 -9.456729888916015625e-01 -6.456976532936096191e-01 1.200000000000000000e+01
3.860727310180664062e+00 -1.147998571395874023e+00 -6.379397511482238770e-01 1.000000000000000000e+01
3.633881759643554688e+01 -1.081235694885254084e+01 4.655165195465087891e+00 2.000000000000000000e+01
5.005626678466796875e+00 -1.490339636802672896e+00 -6.412764787673950195e-01 1.100000000000000000e+01
3.646957397460938211e+01 -1.086512184143066051e+01 6.027107238769531250e+00 1.300000000000000000e+01
6.694535255432128906e+00 -1.994455456733704057e+00 -6.111360788345336914e-01 2.000000000000000000e+00
1.076962089538574041e+01 -3.212610244750977007e+00 -5.889888405799865723e-01 3.000000000000000000e+00
3.882370376586914062e+01 -1.160336780548096058e+01 1.085745906829833984e+01 9.000000000000000000e+00
2.338868856430054155e+00 -7.016943097114562988e-01 -6.542945504188537598e-01 1.900000000000000000e+01
2.695011615753173828e+00 -8.095677495002746582e-01 -6.496586203575134277e-01 1.500000000000000000e+01
3.192500829696654829e+00 -9.596184492111206055e-01 -6.479873657226562500e-01 1.200000000000000000e+01
3.853116035461425781e+00 -1.159656286239624023e+00 -6.373140215873718262e-01 1.000000000000000000e+01
5.008259296417236328e+00 -1.509221792221068892e+00 -6.422514319419860840e-01 1.100000000000000000e+01
3.624612426757813211e+01 -1.092264461517333984e+01 5.995820045471191406e+00 1.300000000000000000e+01
6.714590549468994141e+00 -2.024697065353393999e+00 -6.135764122009277344e-01 3.000000000000000000e+00
1.081626892089843928e+01 -3.265624284744263139e+00 -5.921289920806884766e-01 3.000000000000000000e+00
3.848748779296875000e+01 -1.163471889495849965e+01 1.077360153198242010e+01 9.000000000000000000e+00
2.347495794296265093e+00 -7.132237553596496582e-01 -6.574003696441650391e-01 1.900000000000000000e+01
2.705219984054564986e+00 -8.229402303695678711e-01 -6.528079509735107422e-01 1.400000000000000000e+01
3.181618928909302202e+00 -9.684696793556213379e-01 -6.464608907699584961e-01 1.300000000000000000e+01
3.867940425872803178e+00 -1.178858160972594993e+00 -6.404427289962768555e-01 1.100000000000000000e+01
3.649222946166992188e+01 -1.112894248962401988e+01 4.684413909912109375e+00 2.000000000000000000e+01
4.993467330932617188e+00 -1.523797750473022017e+00 -6.410327553749084473e-01 9.000000000000000000e+00
3.601692199707031250e+01 -1.099773216247558949e+01 5.964533329010009766e+00 1.300000000000000000e+01
6.696048736572265625e+00 -2.044631958007812944e+00 -6.125305891036987305e-01 5.000000000000000000e+00
1.077424430847167969e+01 -3.294017076492310014e+00 -5.904542803764343262e-01 3.000000000000000000e+00
3.898979949951171875e+01 -1.192782020568848012e+01 9.413301467895507812e+00 1.200000000000000000e+01
3.932382583618164062e+01 -1.204501819610596058e+01 1.101999759674072088e+01 1.000000000000000000e+01
2.335759639739989790e+00 -7.185735106468200684e-01 -6.548121571540832520e-01 1.900000000000000000e+01
2.707918167114257812e+00 -8.340991735458374023e-01 -6.541576385498046875e-01 1.600000000000000000e+01
3.178218841552733931e+00 -9.795697331428527832e-01 -6.464608907699584961e-01 1.200000000000000000e+01
3.865689277648925781e+00 -1.192934989929198997e+00 -6.407555937767028809e-01 1.100000000000000000e+01
5.007084369659423828e+00 -1.547079086303710938e+00 -6.434701085090637207e-01 1.300000000000000000e+01
3.588588714599608664e+01 -1.108795070648193004e+01 5.948889732360839844e+00 1.300000000000000000e+01
6.711712837219238281e+00 -2.075055122375487837e+00 -6.146222949028015137e-01 3.000000000000000000e+00
1.080847072601318004e+01 -3.345780611038208008e+00 -5.929663777351379395e-01 3.000000000000000000e+00
2.800528717041015980e+01 -8.679798126220703125e+00 -5.117743611335754395e-01 4.000000000000000000e+00
3.916188049316406250e+01 -1.213760852813721058e+01 1.098583316802979049e+01 1.000000000000000000e+01
2.333237171173096147e+00 -7.267224192619323730e-01 -6.548121571540832520e-01 1.900000000000000000e+01
2.712431430816649947e+00 -8.458671569824218750e-01 -6.559572815895080566e-01 1.500000000000000000e+01
3.171031951904296875e+00 -9.894881844520568848e-01 -6.456976532936096191e-01 1.200000000000000000e+01
3.865272760391234907e+00 -1.207599639892577903e+00 -6.413813233375549316e-01 1.100000000000000000e+01
3.556104278564453125e+01 -1.111689758300781072e+01 4.574731349945068359e+00 1.900000000000000000e+01
5.001653194427490234e+00 -1.564547538757323997e+00 -6.434701085090637207e-01 9.000000000000000000e+00
6.702527046203613281e+00 -2.097875595092772993e+00 -6.144480109214782715e-01 3.000000000000000000e+00
1.081959629058838068e+01 -3.390655994415283203e+00 -5.942224264144897461e-01 3.000000000000000000e+00
1.363443279266357067e+01 -4.277999877929688388e+00 -2.494297921657561978e-01 2.000000000000000000e+00
3.909869766235352273e+01 -1.227527618408202947e+01 1.098065662384033025e+01 1.000000000000000000e+01
2.330557823181151900e+00 -7.352693080902099609e-01 -6.548121571540832520e-01 1.900000000000000000e+01
2.705596685409545898e+00 -8.546290397644042969e-01 -6.550574898719787598e-01 1.500000000000000000e+01
3.174871921539307085e+00 -1.003470659255981001e+00 -6.472241282463073730e-01 1.300000000000000000e+01
3.841987371444702148e+00 -1.215798735618591087e+00 -6.382526159286499023e-01 1.100000000000000000e+01
4.999670028686523438e+00 -1.584068179130553977e+00 -6.439576148986816406e-01 9.000000000000000000e+00
6.685297012329101562e+00 -2.119416952133179155e+00 -6.135764122009277344e-01 3.000000000000000000e+00
3.462756729125977273e+01 -1.098451137542724965e+01 7.061459064483642578e+00 6.100000000000000000e+01
1.084897708892822088e+01 -3.443582296371459961e+00 -5.965252518653869629e-01 3.000000000000000000e+00
3.986202239990233664e+01 -1.266795349121093928e+01 1.120738220214843928e+01 1.000000000000000000e+01
2.339018821716309038e+00 -7.469260096549987793e-01 -6.579180359840393066e-01 2.000000000000000000e+01
2.691459894180297852e+00 -8.605074286460876465e-01 -6.523580551147460938e-01 1.500000000000000000e+01
3.180699348449707031e+00 -1.017537832260132058e+00 -6.491321921348571777e-01 1.200000000000000000e+01
3.847126245498656782e+00 -1.232215046882628950e+00 -6.398169398307800293e-01 1.200000000000000000e+01
4.986549377441406250e+00 -1.599085927009582964e+00 -6.429826617240905762e-01 9.000000000000000000e+00
6.689240932464599609e+00 -2.146392583847045898e+00 -6.146222949028015137e-01 2.000000000000000000e+00
1.079505634307860973e+01 -3.467991828918457031e+00 -5.942224264144897461e-01 3.000000000000000000e+00
2.342044115066527876e+00 -7.564596533775329590e-01 -6.594709157943725586e-01 1.900000000000000000e+01
2.699716567993164062e+00 -8.730255365371704102e-01 -6.550574898719787598e-01 1.500000000000000000e+01
3.171703815460205078e+00 -1.026266694068908913e+00 -6.479873657226562500e-01 1.200000000000000000e+01
3.856173515319824219e+00 -1.249227404594420943e+00 -6.420070528984069824e-01 1.100000000000000000e+01
4.977442741394042969e+00 -1.614388346672058105e+00 -6.424951553344726562e-01 9.000000000000000000e+00
6.689666748046875000e+00 -2.171023130416870117e+00 -6.153195500373840332e-01 3.000000000000000000e+00
1.078349685668944957e+01 -3.503770589828491211e+00 -5.942224264144897461e-01 3.000000000000000000e+00
3.925754165649414062e+01 -1.276312351226806996e+01 9.530276298522949219e+00 1.200000000000000000e+01
4.062360763549804688e+01 -1.321508884429931996e+01 1.144653129577637074e+01 1.100000000000000000e+01
2.330208063125609907e+00 -7.616294026374816895e-01 -6.568827629089355469e-01 2.000000000000000000e+01
2.698504924774169922e+00 -8.830500841140747070e-01 -6.555073857307434082e-01 1.600000000000000000e+01
3.162504911422729048e+00 -1.035498976707458052e+00 -6.468424797058105469e-01 1.200000000000000000e+01
3.849912405014038086e+00 -1.262064933776855025e+00 -6.416941881179809570e-01 1.000000000000000000e+01
4.973662853240966797e+00 -1.632372021675110085e+00 -6.427389383316040039e-01 9.000000000000000000e+00
6.704762935638427734e+00 -2.201820850372314009e+00 -6.174112558364868164e-01 3.000000000000000000e+00
1.081673717498778942e+01 -3.556362152099608931e+00 -5.967345833778381348e-01 3.000000000000000000e+00
2.323867082595825195e+00 -7.685455083847045898e-01 -6.558474898338317871e-01 1.900000000000000000e+01
2.700955867767333984e+00 -8.943018317222595215e-01 -6.568570733070373535e-01 1.600000000000000000e+01
3.164461851119995117e+00 -1.048384189605712891e+00 -6.479873657226562500e-01 1.300000000000000000e+01
3.847358226776123047e+00 -1.276117920875549094e+00 -6.420070528984069824e-01 1.100000000000000000e+01
4.990541934967041016e+00 -1.657230615615844949e+00 -6.456637978553771973e-01 9.000000000000000000e+00
6.697036266326904297e+00 -2.225211381912231001e+00 -6.174112558364868164e-01 2.000000000000000000e+00
1.081562805175781072e+01 -3.597880601882935014e+00 -5.973625779151916504e-01 3.000000000000000000e+00
4.045704269409179688e+01 -1.347395420074463068e+01 1.142582511901854936e+01 1.100000000000000000e+01
2.324834108352661133e+00 -7.778786420822143555e-01 -6.568827629089355469e-01 1.900000000000000000e+01
2.697817802429199219e+00 -9.037244915962219238e-01 -6.568570733070373535e-01 1.600000000000000000e+01
3.628359603881835938e+01 -1.216145038604735973e+01 2.005513906478881836e+00 2.100000000000000000e+01
3.170090436935424805e+00 -1.062543392181396040e+00 -6.498954296112060547e-01 1.300000000000000000e+01
3.826025724411011186e+00 -1.283884048461914062e+00 -6.391912102699279785e-01 1.000000000000000000e+01
4.973436355590820312e+00 -1.670847773551940918e+00 -6.442013382911682129e-01 9.000000000000000000e+00
6.681674003601074219e+00 -2.246035575866699219e+00 -6.167140603065490723e-01 5.000000000000000000e+00
1.084086227416992010e+01 -3.648353099822998047e+00 -5.994560718536376953e-01 3.000000000000000000e+00
4.002295684814453125e+01 -1.349254608154297053e+01 1.131712150573729936e+01 1.100000000000000000e+01
2.323934555053710938e+00 -7.866084575653076172e-01 -6.574003696441650391e-01 2.100000000000000000e+01
2.676190376281737837e+00 -9.068817496299743652e-01 -6.523580551147460938e-01 1.500000000000000000e+01
3.162643671035767046e+00 -1.072341799736022949e+00 -6.491321921348571777e-01 1.300000000000000000e+01
3.836485147476195845e+00 -1.302311182022094949e+00 -6.416941881179809570e-01 1.100000000000000000e+01
4.969453334808349609e+00 -1.688836812973022017e+00 -6.444450616836547852e-01 1.100000000000000000e+01
6.673792839050292969e+00 -2.269345283508300781e+00 -6.167140603065490723e-01 5.000000000000000000e+00
1.079024696350098012e+01 -3.673299551010131836e+00 -5.973625779151916504e-01 3.000000000000000000e+00
4.010599136352539062e+01 -1.366881752014159979e+01 1.135335636138916016e+01 1.100000000000000000e+01
2.324830055236815962e+00 -7.959672212600708008e-01 -6.584356427192687988e-01 1.900000000000000000e+01
2.680382251739501953e+00 -9.187453985214233398e-01 -6.541576385498046875e-01 1.300000000000000000e+01
3.166309356689453125e+00 -1.085922598838805930e+00 -6.506586670875549316e-01 1.300000000000000000e+01
3.835652351379394975e+00 -1.316978096961975098e+00 -6.423199176788330078e-01 1.000000000000000000e+01
4.961650371551513672e+00 -1.705527901649475098e+00 -6.442013382911682129e-01 9.000000000000000000e+00
6.712932586669921875e+00 -2.308827161788939986e+00 -6.210718154907226562e-01 5.000000000000000000e+00
3.488185119628906250e+01 -1.200397491455077947e+01 7.170601844787597656e+00 6.100000000000000000e+01
1.050164604187012074e+01 -3.616006612777709961e+00 -5.820804834365844727e-01 6.000000000000000000e+00
4.031853485107421875e+01 -1.389065647125243963e+01 9.845208168029785156e+00 1.300000000000000000e+01
