3.218329668045043945e+00 1.620059013366698997e+00 -5.706729292869567871e-01 1.100000000000000000e+01
3.993752241134643999e+00 2.008648157119750977e+00 -5.488995313644409180e-01 1.300000000000000000e+01
5.228153228759765625e+00 2.628344058990478960e+00 -5.119528174400329590e-01 1.600000000000000000e+01
7.529918193817138672e+00 3.782215595245360884e+00 -4.416108131408690851e-01 2.000000000000000000e+00
1.243928813934325994e+01 6.242714881896972656e+00 -2.429374903440474909e-01 2.000000000000000000e+00
3.865199661254882812e+01 1.938924217224121094e+01 1.158681106567382990e+01 1.100000000000000000e+01
2.042290449142456055e+00 1.021365642547606978e+00 -6.118482351303100586e-01 1.900000000000000000e+01
2.323732376098632812e+00 1.161103248596190962e+00 -5.997195243835449219e-01 1.500000000000000000e+01
2.699543476104735884e+00 1.348296642303467019e+00 -5.865468382835388184e-01 1.200000000000000000e+01
3.216894865036011186e+00 1.605286955833435059e+00 -5.694214701652526855e-01 1.100000000000000000e+01
3.997186422348022017e+00 1.992923617362976074e+00 -5.484120249748229980e-01 1.100000000000000000e+01
5.240862846374511719e+00 2.611855745315552202e+00 -5.123014450073242188e-01 1.100000000000000000e+01
7.532347679138183594e+00 3.750566959381103960e+00 -4.409827589988707941e-01 2.000000000000000000e+00
3.265893173217772727e+01 1.625468444824219105e+01 8.422167778015136719e+00 1.100000000000000000e+01
1.247890758514403942e+01 6.208162784576416016e+00 -2.432865500450134000e-01 2.000000000000000000e+00
2.051035642623900923e+00 1.016804695129394975e+00 -6.134011149406433105e-01 1.700000000000000000e+01
2.327771186828612837e+00 1.152984857559204102e+00 -5.997195243835449219e-01 1.500000000000000000e+01
2.698955059051514116e+00 1.336251974105834961e+00 -5.854020118713378906e-01 1.200000000000000000e+01
3.233102321624755859e+00 1.599303245544434038e+00 -5.712986588478088379e-01 1.100000000000000000e+01
3.998779773712158203e+00 1.976320147514343040e+00 -5.476808547973632812e-01 1.000000000000000000e+01
5.273169517517089844e+00 2.605017662048339844e+00 -5.145674943923950195e-01 9.000000000000000000e+00
7.538229465484619141e+00 3.720715284347534180e+00 -4.405640661716461182e-01 2.000000000000000000e+00
3.237294006347656250e+01 1.597159194946289062e+01 8.333986282348632812e+00 1.000000000000000000e+01
1.250050163269042969e+01 6.164565086364746094e+00 -2.432865500450134000e-01 2.000000000000000000e+00
3.749030303955078125e+01 1.848003768920898082e+01 1.119961738586425959e+01 1.000000000000000000e+01
2.047637224197388139e+00 1.006231069564818892e+00 -6.113305687904357910e-01 1.600000000000000000e+01
2.335280179977416992e+00 1.146570086479187012e+00 -6.006193161010742188e-01 1.600000000000000000e+01
2.700078248977661133e+00 1.325092911720276101e+00 -5.846387743949890137e-01 1.100000000000000000e+01
3.243986129760742188e+00 1.590616822242737038e+00 -5.722372531890869141e-01 1.100000000000000000e+01
3.998523473739624023e+00 1.958856463432312012e+00 -5.467059016227722168e-01 1.000000000000000000e+01
3.417323303222656250e+01 1.674129486083984020e+01 6.027107238769531250e+00 1.300000000000000000e+01
5.260758399963378906e+00 2.576080560684204102e+00 -5.124757885932922363e-01 9.000000000000000000e+00
7.558347702026367188e+00 3.697890281677246094e+00 -4.409827589988707941e-01 2.000000000000000000e+00
3.235846710205078125e+01 1.582424736022949041e+01 8.315990447998046875e+00 1.000000000000000000e+01
1.252194404602050959e+01 6.120893001556395596e+00 -2.432865500450134000e-01 2.000000000000000000e+00
3.768328475952147727e+01 1.842008972167969105e+01 1.123895835876465021e+01 1.000000000000000000e+01
2.042453289031981978e+00 9.948475360870361328e-01 -6.087424159049987793e-01 1.600000000000000000e+01
2.353286266326903853e+00 1.145233392715454102e+00 -6.042185425758361816e-01 1.500000000000000000e+01
2.701156377792357954e+00 1.313942193984984907e+00 -5.838755369186401367e-01 1.200000000000000000e+01
3.258402109146118164e+00 1.583600878715514915e+00 -5.738016366958618164e-01 1.100000000000000000e+01
4.024979591369628906e+00 1.954425096511841042e+00 -5.493869781494140625e-01 1.100000000000000000e+01
5.267926216125488281e+00 2.556831359863280806e+00 -5.123014450073242188e-01 9.000000000000000000e+00
7.603557586669921875e+00 3.687170505523682085e+00 -4.428668618202208918e-01 2.000000000000000000e+00
3.241350936889647727e+01 1.571119880676270064e+01 8.315990447998046875e+00 1.000000000000000000e+01
1.256122970581055043e+01 6.085865020751953125e+00 -2.436355948448180875e-01 2.000000000000000000e+00
3.747235107421875000e+01 1.814712715148926137e+01 1.115613651275634943e+01 1.000000000000000000e+01
2.049220085144042969e+00 9.897494316101074219e-01 -6.097776889801025391e-01 1.600000000000000000e+01
2.353560924530028853e+00 1.135729432106018066e+00 -6.033187508583068848e-01 1.500000000000000000e+01
2.714340209960937944e+00 1.309242248535156028e+00 -5.857836008071899414e-01 1.200000000000000000e+01
3.251178979873656782e+00 1.566783905029297097e+00 -5.716115236282348633e-01 1.000000000000000000e+01
3.859590148925781250e+01 1.859154891967773082e+01 5.260124683380126953e+00 3.100000000000000000e+01
4.052901268005371094e+00 1.951400995254517046e+00 -5.523118376731872559e-01 8.000000000000000000e+00
5.288942813873291016e+00 2.545396327972412109e+00 -5.135216116905212402e-01 9.000000000000000000e+00
7.594142913818359375e+00 3.651549816131591797e+00 -4.416108131408690851e-01 2.000000000000000000e+00
3.217737960815429688e+01 1.546518230438232067e+01 8.242206573486328125e+00 1.000000000000000000e+01
1.254529190063476918e+01 6.026858329772949219e+00 -2.429374903440474909e-01 2.000000000000000000e+00
3.507738494873046875e+01 1.685145378112792969e+01 1.042730140686034979e+01 8.000000000000000000e+00
2.059632539749145952e+00 9.859267473220825195e-01 -6.118482351303100586e-01 1.600000000000000000e+01
2.343446969985961914e+00 1.120780706405640093e+00 -5.997195243835449219e-01 1.600000000000000000e+01
2.724207401275635210e+00 1.302299737930298074e+00 -5.869284868240356445e-01 1.200000000000000000e+01
3.258410692214965820e+00 1.556276917457581010e+00 -5.719243884086608887e-01 9.000000000000000000e+00
3.864981460571289062e+01 1.845158004760741832e+01 5.258662223815917969e+00 3.100000000000000000e+01
4.045355796813964844e+00 1.930402517318726030e+00 -5.503619313240051270e-01 6.000000000000000000e+00
3.470325851440429688e+01 1.655260658264160156e+01 6.089680671691895419e+00 1.400000000000000000e+01
5.304988861083984375e+00 2.530349969863892046e+00 -5.142188668251037598e-01 9.000000000000000000e+00
7.592419147491455078e+00 3.618145465850830078e+00 -4.407734274864196777e-01 2.000000000000000000e+00
3.207986450195313211e+01 1.528069686889648082e+01 8.203515052795410156e+00 1.000000000000000000e+01
1.260597419738770064e+01 6.001942157745361328e+00 -2.437054067850112915e-01 2.000000000000000000e+00
3.497319412231445312e+01 1.664391136169433949e+01 1.037812614440917969e+01 1.700000000000000000e+01
2.066552400588988814e+00 9.803873300552368164e-01 -6.128835082054138184e-01 1.600000000000000000e+01
2.350866794586182085e+00 1.114263057708740012e+00 -6.006193161010742188e-01 1.600000000000000000e+01
2.723414182662963867e+00 1.290260791778564009e+00 -5.857836008071899414e-01 1.200000000000000000e+01
3.267394304275513139e+00 1.546583771705626997e+00 -5.725501179695129395e-01 9.000000000000000000e+00
4.032329559326171875e+00 1.906934618949889915e+00 -5.476808547973632812e-01 6.000000000000000000e+00
3.457938385009766336e+01 1.635298347473144887e+01 6.058393955230712891e+00 1.400000000000000000e+01
5.320994377136229581e+00 2.515222549438477007e+00 -5.149161219596862793e-01 9.000000000000000000e+00
7.626674175262451172e+00 3.601855993270874023e+00 -4.420294761657714844e-01 2.000000000000000000e+00
1.259067916870117010e+01 5.940835952758789062e+00 -2.430073022842406949e-01 2.000000000000000000e+00
3.487968826293945312e+01 1.645777130126953125e+01 1.033412647247313920e+01 8.000000000000000000e+00
2.064717054367064986e+00 9.707019329071044922e-01 -6.113305687904357910e-01 1.500000000000000000e+01
2.361797332763671875e+00 1.109364151954651101e+00 -6.024188995361328125e-01 1.600000000000000000e+01
2.717238664627075195e+00 1.275740265846251997e+00 -5.834938883781433105e-01 1.200000000000000000e+01
3.276349782943726030e+00 1.536846756935120073e+00 -5.731759071350097656e-01 1.100000000000000000e+01
3.472288131713867188e+01 1.628016853332519887e+01 4.708787918090820312e+00 2.000000000000000000e+01
4.049746513366699219e+00 1.897901892662047896e+00 -5.491432547569274902e-01 1.000000000000000000e+01
3.481512451171875000e+01 1.631600570678710938e+01 6.089680671691895419e+00 1.400000000000000000e+01
5.308090686798095703e+00 2.486491441726685014e+00 -5.128244161605834961e-01 9.000000000000000000e+00
3.349765777587891336e+01 1.568432044982909979e+01 7.189682960510253906e+00 6.100000000000000000e+01
7.657289981842041016e+00 3.583678007125854048e+00 -4.430761933326721191e-01 2.000000000000000000e+00
3.207279205322266336e+01 1.500352001190186080e+01 8.174721717834472656e+00 1.000000000000000000e+01
1.255156135559082031e+01 5.868898868560791016e+00 -2.418554425239562988e-01 7.000000000000000000e+00
3.494392395019531250e+01 1.633919143676758168e+01 1.033619785308838068e+01 8.000000000000000000e+00
2.059337139129639116e+00 9.594097137451171875e-01 -6.087424159049987793e-01 1.400000000000000000e+01
2.372722148895264116e+00 1.104402542114258035e+00 -6.042185425758361816e-01 1.200000000000000000e+01
2.730575323104857954e+00 1.270388364791869895e+00 -5.854020118713378906e-01 1.000000000000000000e+01
3.276320457458496094e+00 1.522902846336364968e+00 -5.722372531890869141e-01 1.100000000000000000e+01
4.065348625183104581e+00 1.887934565544127974e+00 -5.503619313240051270e-01 1.100000000000000000e+01
5.320352077484130859e+00 2.469625234603881836e+00 -5.131729841232299805e-01 9.000000000000000000e+00
3.355220031738281250e+01 1.556729602813721058e+01 7.189682960510253906e+00 6.100000000000000000e+01
7.677000522613525391e+00 3.560288190841674805e+00 -4.434948861598969061e-01 2.000000000000000000e+00
3.212850189208983664e+01 1.489311313629150035e+01 8.175621032714843750e+00 2.100000000000000000e+01
1.262821769714354936e+01 5.851110935211181641e+00 -2.429374903440474909e-01 5.000000000000000000e+00
2.071443557739257812e+00 9.562639594078063965e-01 -6.113305687904357910e-01 1.500000000000000000e+01
2.378332376480102983e+00 1.096929669380187988e+00 -6.046684384346008301e-01 1.200000000000000000e+01
2.740341901779174805e+00 1.263314962387084961e+00 -5.865468382835388184e-01 1.200000000000000000e+01
3.274439573287963867e+00 1.508151650428771973e+00 -5.709857940673828125e-01 1.100000000000000000e+01
4.091750621795654297e+00 1.882860422134398970e+00 -5.530430674552917480e-01 1.200000000000000000e+01
5.347041606903076172e+00 2.459364414215087891e+00 -5.149161219596862793e-01 9.000000000000000000e+00
7.685751914978027344e+00 3.531800985336304155e+00 -4.432855546474456787e-01 2.000000000000000000e+00
3.230779647827147727e+01 1.483943653106688920e+01 8.208014488220214844e+00 1.000000000000000000e+01
1.267400741577148082e+01 5.818675518035888672e+00 -2.434261590242385864e-01 5.000000000000000000e+00
3.503887939453125000e+01 1.607905387878417969e+01 1.032998561859131037e+01 8.000000000000000000e+00
2.078282356262207031e+00 9.506345987319946289e-01 -6.123658418655395508e-01 1.600000000000000000e+01
2.367967605590819868e+00 1.082141160964966042e+00 -6.010692119598388672e-01 1.100000000000000000e+01
2.755449771881103960e+00 1.258635878562927024e+00 -5.888365507125854492e-01 1.100000000000000000e+01
3.283278226852416992e+00 1.498352766036987083e+00 -5.716115236282348633e-01 1.000000000000000000e+01
4.096491813659667969e+00 1.867742538452147993e+00 -5.527993440628051758e-01 1.200000000000000000e+01
3.462555694580078125e+01 1.577977466583251953e+01 6.026794433593750000e+00 1.300000000000000000e+01
5.350154876708984375e+00 2.438205957412720171e+00 -5.143932104110717773e-01 9.000000000000000000e+00
7.683491230010986328e+00 3.498330354690552202e+00 -4.424481689929962158e-01 2.000000000000000000e+00
1.272700500488281072e+01 5.789303302764892578e+00 -2.440544515848160068e-01 5.000000000000000000e+00
2.085107326507567915e+00 9.449691176414489746e-01 -6.134011149406433105e-01 1.700000000000000000e+01
3.840315246582031250e+01 1.739620208740234020e+01 7.358981966972351074e-01 4.000000000000000000e+01
2.369955301284790039e+00 1.073065042495727983e+00 -6.006193161010742188e-01 1.200000000000000000e+01
2.747306108474731001e+00 1.243343710899353027e+00 -5.861652493476867676e-01 1.200000000000000000e+01
3.290288209915161133e+00 1.487696647644042969e+00 -5.719243884086608887e-01 1.100000000000000000e+01
4.095750331878662109e+00 1.850162863731384055e+00 -5.518243908882141113e-01 1.200000000000000000e+01
5.378607749938964844e+00 2.428534507751464844e+00 -5.163106322288513184e-01 9.000000000000000000e+00
7.739350318908691406e+00 3.491199016571044922e+00 -4.449602961540222168e-01 2.000000000000000000e+00
1.281276798248291016e+01 5.774421215057373047e+00 -2.453110218048095981e-01 2.000000000000000000e+00
3.501013565063477273e+01 1.577826786041259943e+01 1.028960990905762074e+01 8.000000000000000000e+00
2.083106040954589844e+00 9.353111386299133301e-01 -6.118482351303100586e-01 1.900000000000000000e+01
3.846364212036132812e+01 1.726204490661621094e+01 7.358981966972351074e-01 4.000000000000000000e+01
2.382576704025268999e+00 1.068773746490478960e+00 -6.028688549995422363e-01 1.100000000000000000e+01
2.755212306976317915e+00 1.235352635383605957e+00 -5.869284868240356445e-01 1.300000000000000000e+01
3.300869703292847124e+00 1.478624939918518066e+00 -5.728629827499389648e-01 1.000000000000000000e+01
4.111243247985839844e+00 1.839909195899962935e+00 -5.530430674552917480e-01 1.300000000000000000e+01
5.365227222442626953e+00 2.399982213973999023e+00 -5.142188668251037598e-01 9.000000000000000000e+00
7.736902236938476562e+00 3.457643032073975053e+00 -4.441229104995728094e-01 2.000000000000000000e+00
1.281823825836181996e+01 5.723139286041259766e+00 -2.450317889451980868e-01 2.000000000000000000e+00
3.452521514892578125e+01 1.541495704650879084e+01 1.013121223449707031e+01 8.000000000000000000e+00
2.081062793731689009e+00 9.256786108016967773e-01 -6.102952957153320312e-01 1.800000000000000000e+01
2.396977901458739790e+00 1.065198779106139915e+00 -6.055682301521301270e-01 1.400000000000000000e+01
2.759507656097412109e+00 1.225727677345276101e+00 -5.869284868240356445e-01 1.300000000000000000e+01
3.307816505432128906e+00 1.467895030975342019e+00 -5.731759071350097656e-01 1.000000000000000000e+01
3.464611434936522727e+01 1.536751461029052912e+01 4.653702735900878906e+00 1.900000000000000000e+01
4.119455337524414062e+00 1.826351642608643022e+00 -5.532867908477783203e-01 1.200000000000000000e+01
5.377215385437011719e+00 2.382853746414185014e+00 -5.145674943923950195e-01 9.000000000000000000e+00
7.748924255371093750e+00 3.430615186691284180e+00 -4.441229104995728094e-01 2.000000000000000000e+00
3.303041839599608664e+01 1.461638069152832031e+01 8.338935852050781250e+00 1.000000000000000000e+01
1.288568687438965021e+01 5.699391365051270419e+00 -2.459393143653869906e-01 2.000000000000000000e+00
3.521049118041992188e+01 1.556639575958251953e+01 1.031549167633056996e+01 8.000000000000000000e+00
2.087656497955321822e+00 9.203310012817382812e-01 -6.113305687904357910e-01 1.800000000000000000e+01
2.395146608352661133e+00 1.054887890815735085e+00 -6.042185425758361816e-01 1.500000000000000000e+01
2.776135206222534180e+00 1.222107052803039995e+00 -5.895997881889343262e-01 1.400000000000000000e+01
3.307241201400756836e+00 1.454532027244568093e+00 -5.722372531890869141e-01 1.100000000000000000e+01
3.470778656005858664e+01 1.525733280181884943e+01 4.655165195465087891e+00 2.000000000000000000e+01
4.141845703125000000e+00 1.819867849349976030e+00 -5.554804801940917969e-01 1.300000000000000000e+01
5.377790451049804688e+00 2.361804485321044922e+00 -5.138702392578125000e-01 9.000000000000000000e+00
7.774889945983886719e+00 3.411319732666016069e+00 -4.449602961540222168e-01 2.000000000000000000e+00
1.298509979248047053e+01 5.691953182220458984e+00 -2.474751174449920932e-01 2.000000000000000000e+00
3.525214385986328125e+01 1.545259952545166016e+01 1.031342124938965021e+01 8.000000000000000000e+00
2.090856313705443892e+00 9.130381345748901367e-01 -6.113305687904357910e-01 1.700000000000000000e+01
2.391669750213623047e+00 1.043403863906859907e+00 -6.024188995361328125e-01 1.600000000000000000e+01
3.781719970703125000e+01 1.649835395812987926e+01 2.162312269210814986e+00 2.600000000000000000e+01
2.780384302139281782e+00 1.212409138679503950e+00 -5.895997881889343262e-01 1.400000000000000000e+01
3.305054426193236861e+00 1.439823031425476074e+00 -5.709857940673828125e-01 1.000000000000000000e+01
3.470623016357421875e+01 1.511231231689452947e+01 4.647852897644042969e+00 1.900000000000000000e+01
4.151813507080078125e+00 1.806983351707458052e+00 -5.559679269790649414e-01 1.300000000000000000e+01
3.616101074218750000e+01 1.573075962066650035e+01 6.245802402496337891e+00 1.400000000000000000e+01
5.396964073181152344e+00 2.347786903381348100e+00 -5.149161219596862793e-01 9.000000000000000000e+00
7.790413856506347656e+00 3.385751724243164062e+00 -4.451696574687957764e-01 2.000000000000000000e+00
3.399781036376953125e+01 1.476855945587158025e+01 8.557587623596191406e+00 1.100000000000000000e+01
1.300488948822020951e+01 5.646592140197753906e+00 -2.474751174449920932e-01 2.000000000000000000e+00
3.693259048461914062e+01 1.603575897216796875e+01 1.078861331939697088e+01 9.000000000000000000e+00
2.108215570449829102e+00 9.118694663047790527e-01 -6.154716610908508301e-01 1.700000000000000000e+01
2.406030416488647017e+00 1.039687037467956987e+00 -6.051183342933654785e-01 1.500000000000000000e+01
2.782797098159790039e+00 1.201917886734009011e+00 -5.892181992530822754e-01 1.400000000000000000e+01
3.320942640304564986e+00 1.432973146438599077e+00 -5.728629827499389648e-01 1.100000000000000000e+01
4.148981094360351562e+00 1.788550734519958052e+00 -5.547492504119873047e-01 1.300000000000000000e+01
3.630367660522460938e+01 1.564985847473145064e+01 6.261445999145507812e+00 1.400000000000000000e+01
5.441721916198729581e+00 2.344701766967772993e+00 -5.184023380279541016e-01 9.000000000000000000e+00
7.802184581756591797e+00 3.358537435531616211e+00 -4.451696574687957764e-01 2.000000000000000000e+00
1.301717281341552912e+01 5.598001956939697266e+00 -2.473355084657669067e-01 2.000000000000000000e+00
3.507784271240233664e+01 1.507788372039794922e+01 1.023059940338134943e+01 8.000000000000000000e+00
2.100731134414672852e+00 8.999405503273010254e-01 -6.123658418655395508e-01 1.500000000000000000e+01
2.409645080566405806e+00 1.031282067298888938e+00 -6.051183342933654785e-01 1.500000000000000000e+01
2.788780689239501953e+00 1.192968964576720969e+00 -5.895997881889343262e-01 1.700000000000000000e+01
3.333190202713013139e+00 1.424477338790893999e+00 -5.741145014762878418e-01 1.100000000000000000e+01
3.708914184570313211e+01 1.584281730651854936e+01 4.952038764953613281e+00 2.300000000000000000e+01
4.167978763580322266e+00 1.779513359069823997e+00 -5.564554333686828613e-01 1.300000000000000000e+01
5.442543029785156250e+00 2.322564125061035156e+00 -5.177050828933715820e-01 9.000000000000000000e+00
7.821209907531738281e+00 3.334415435791016069e+00 -4.455883204936981201e-01 2.000000000000000000e+00
1.305135250091552912e+01 5.558798313140869141e+00 -2.476147413253783902e-01 2.000000000000000000e+00
3.521913528442382812e+01 1.499318218231200994e+01 1.025648117065430043e+01 8.000000000000000000e+00
2.107572555541992188e+00 8.937433362007141113e-01 -6.134011149406433105e-01 1.700000000000000000e+01
2.416997432708739790e+00 1.023963689804076926e+00 -6.060181260108947754e-01 1.500000000000000000e+01
2.791326522827147993e+00 1.181974053382873979e+00 -5.892181992530822754e-01 1.400000000000000000e+01
3.340208053588867188e+00 1.413020610809325950e+00 -5.744273662567138672e-01 1.100000000000000000e+01
4.179958343505859375e+00 1.766543269157409890e+00 -5.571866631507873535e-01 1.200000000000000000e+01
5.440007209777832031e+00 2.297949075698852983e+00 -5.166592597961425781e-01 9.000000000000000000e+00
7.848099231719970703e+00 3.311939001083374023e+00 -4.464257061481475830e-01 2.000000000000000000e+00
1.316376972198485973e+01 5.549767494201660156e+00 -2.493599802255629938e-01 2.000000000000000000e+00
3.517415618896483664e+01 1.482198715209960938e+01 1.022749328613281072e+01 8.000000000000000000e+00
2.107117176055908203e+00 8.848850727081298828e-01 -6.123658418655395508e-01 1.600000000000000000e+01
2.409775018692017046e+00 1.010997056961060014e+00 -6.033187508583068848e-01 1.500000000000000000e+01
2.802677392959595171e+00 1.175260186195373979e+00 -5.907446742057800293e-01 1.300000000000000000e+01
3.330544471740723100e+00 1.395246386528014915e+00 -5.719243884086608887e-01 1.100000000000000000e+01
3.640688323974608664e+01 1.524426269531250000e+01 4.846256256103515625e+00 2.000000000000000000e+01
4.197086334228515625e+00 1.756540060043334961e+00 -5.586490631103515625e-01 1.200000000000000000e+01
5.470051765441895419e+00 2.288172245025635210e+00 -5.187509655952453613e-01 9.000000000000000000e+00
3.484958648681641336e+01 1.457075214385985973e+01 7.342329978942871094e+00 6.200000000000000000e+01
7.837498664855957031e+00 3.275282621383666992e+00 -4.451696574687957764e-01 2.000000000000000000e+00
3.310989761352539062e+01 1.382980442047118963e+01 8.284047126770019531e+00 1.000000000000000000e+01
1.323104095458984020e+01 5.523814201354979581e+00 -2.502675056457520086e-01 2.000000000000000000e+00
3.746138381958007812e+01 1.563203907012938920e+01 1.087661170959473012e+01 1.000000000000000000e+01
2.115390777587891069e+00 8.801190257072448730e-01 -6.139187812805175781e-01 1.400000000000000000e+01
2.418512821197510210e+00 1.005244255065917969e+00 -6.046684384346008301e-01 1.600000000000000000e+01
2.808372259140015093e+00 1.166712880134582964e+00 -5.911262631416320801e-01 1.300000000000000000e+01
3.344275236129761186e+00 1.387980341911315918e+00 -5.734887719154357910e-01 1.100000000000000000e+01
3.641322708129882812e+01 1.510519409179688033e+01 4.840406417846679688e+00 2.000000000000000000e+01
4.193719387054443359e+00 1.738810896873473899e+00 -5.574303865432739258e-01 1.100000000000000000e+01
3.551503372192382812e+01 1.472533512115479049e+01 6.089367866516113281e+00 1.400000000000000000e+01
5.477609634399414062e+00 2.270020484924315962e+00 -5.187509655952453613e-01 9.000000000000000000e+00
7.833553791046142578e+00 3.243162631988524947e+00 -4.443322718143463135e-01 2.000000000000000000e+00
3.306914520263671875e+01 1.368416690826416016e+01 8.262452125549316406e+00 1.000000000000000000e+01
1.327515602111816051e+01 5.490608215332031250e+00 -2.507561743259429932e-01 2.000000000000000000e+00
3.758885574340820312e+01 1.554676055908202947e+01 1.089938735961914062e+01 1.000000000000000000e+01
2.113091468811035156e+00 8.705220222473144531e-01 -6.123658418655395508e-01 1.600000000000000000e+01
2.423809051513671875e+00 9.975376129150390625e-01 -6.051183342933654785e-01 1.600000000000000000e+01
2.812427759170531782e+00 1.156902670860290971e+00 -5.911262631416320801e-01 1.300000000000000000e+01
3.358235359191894975e+00 1.380052328109740989e+00 -5.750530958175659180e-01 1.100000000000000000e+01
3.648409271240233664e+01 1.498553848266601918e+01 4.842844009399414062e+00 2.000000000000000000e+01
4.190581798553466797e+00 1.720391988754272017e+00 -5.562117099761962891e-01 1.100000000000000000e+01
3.556621932983397727e+01 1.460127449035645064e+01 6.089367866516113281e+00 1.400000000000000000e+01
5.478127479553222656e+00 2.247860670089722124e+00 -5.180537104606628418e-01 9.000000000000000000e+00
7.878091335296630859e+00 3.229434490203856978e+00 -4.462163746356964111e-01 2.000000000000000000e+00
3.331146240234375000e+01 1.364844417572020951e+01 8.311041831970214844e+00 1.000000000000000000e+01
1.329794216156006037e+01 5.445751190185546875e+00 -2.508259713649749756e-01 2.000000000000000000e+00
3.759194946289063211e+01 1.538693237304688033e+01 1.088385868072509943e+01 1.000000000000000000e+01
2.117906093597412109e+00 8.638702630996704102e-01 -6.128835082054138184e-01 1.500000000000000000e+01
2.423666954040526900e+00 9.876001477241516113e-01 -6.042185425758361816e-01 1.500000000000000000e+01
2.809175968170166016e+00 1.144116401672363059e+00 -5.895997881889343262e-01 1.300000000000000000e+01
3.366691827774047852e+00 1.369810461997986062e+00 -5.756788253784179688e-01 1.100000000000000000e+01
4.200239658355712891e+00 1.707248568534851074e+00 -5.566991567611694336e-01 1.100000000000000000e+01
5.500707626342773438e+00 2.234724044799805132e+00 -5.194482207298278809e-01 9.000000000000000000e+00
7.889316082000732422e+00 3.201915264129639116e+00 -4.462163746356964111e-01 1.000000000000000000e+00
3.933616256713867188e+01 1.595676708221436080e+01 9.800217628479003906e+00 1.300000000000000000e+01
1.333910846710205078e+01 5.408316135406494141e+00 -2.512448430061339777e-01 2.000000000000000000e+00
3.770721817016602273e+01 1.528831958770751953e+01 1.090249347686767933e+01 1.000000000000000000e+01
2.111952066421508789e+00 8.528552651405334473e-01 -6.102952957153320312e-01 1.700000000000000000e+01
2.437942981719971147e+00 9.835083484649658203e-01 -6.069179177284240723e-01 1.500000000000000000e+01
2.825898170471190962e+00 1.139442801475524902e+00 -5.922711491584777832e-01 1.300000000000000000e+01
3.371452808380126953e+00 1.358050107955933061e+00 -5.756788253784179688e-01 1.100000000000000000e+01
4.217222690582275391e+00 1.697022914886475053e+00 -5.581616163253784180e-01 1.100000000000000000e+01
3.539488601684570312e+01 1.423582935333251953e+01 6.042437553405761719e+00 1.300000000000000000e+01
5.495535373687744141e+00 2.210305213928223100e+00 -5.182280540466308594e-01 8.000000000000000000e+00
7.878205776214599609e+00 3.165421247482299805e+00 -4.449602961540222168e-01 2.000000000000000000e+00
3.469348907470703125e+01 1.393262767791748047e+01 8.631371498107910156e+00 1.100000000000000000e+01
1.339873313903808949e+01 5.378108501434326172e+00 -2.520127594470977783e-01 2.000000000000000000e+00
3.761597824096679688e+01 1.509103012084960938e+01 1.086004734039306996e+01 9.000000000000000000e+00
2.121943473815917969e+00 8.487167954444885254e-01 -6.123658418655395508e-01 1.600000000000000000e+01
2.437571763992310014e+00 9.739722609519958496e-01 -6.060181260108947754e-01 1.500000000000000000e+01
2.826014757156372070e+00 1.128609180450439009e+00 -5.915079116821289062e-01 1.400000000000000000e+01
3.359424829483031782e+00 1.340274691581726074e+00 -5.728629827499389648e-01 1.000000000000000000e+01
4.239423274993895596e+00 1.689643383026123047e+00 -5.603552460670471191e-01 1.100000000000000000e+01
5.504685401916503906e+00 2.192806482315063032e+00 -5.184023380279541016e-01 9.000000000000000000e+00
7.929484844207763672e+00 3.155525207519530806e+00 -4.472630918025969904e-01 2.000000000000000000e+00
1.347224044799805043e+01 5.355809211730957031e+00 -2.530598938465117853e-01 2.000000000000000000e+00
3.763088989257813211e+01 1.495993518829346058e+01 1.085072994232177912e+01 1.900000000000000000e+01
2.128485441207886186e+00 8.427270054817199707e-01 -6.134011149406433105e-01 1.800000000000000000e+01
2.426459550857543945e+00 9.597236514091491699e-01 -6.024188995361328125e-01 1.500000000000000000e+01
2.839066028594971147e+00 1.122346520423888938e+00 -5.934159755706787109e-01 1.700000000000000000e+01
3.386130332946776900e+00 1.337246894836426003e+00 -5.766174197196960449e-01 1.000000000000000000e+01
4.234216213226318359e+00 1.670463681221008079e+00 -5.588927865028381348e-01 1.100000000000000000e+01
5.512306213378906250e+00 2.173578262329102007e+00 -5.184023380279541016e-01 9.000000000000000000e+00
7.959034442901611328e+00 3.135147094726562944e+00 -4.483098089694976807e-01 1.000000000000000000e+00
3.466059112548828125e+01 1.364618301391601918e+01 8.599879264831542969e+00 1.100000000000000000e+01
1.356528663635254084e+01 5.338039398193359375e+00 -2.544560730457305908e-01 2.000000000000000000e+00
3.750568771362304688e+01 1.475120258331299006e+01 1.079896545410156072e+01 9.000000000000000000e+00
2.131414175033568892e+00 8.352920413017272949e-01 -6.134011149406433105e-01 1.600000000000000000e+01
2.438868045806885210e+00 9.547999501228332520e-01 -6.046684384346008301e-01 1.300000000000000000e+01
2.837481498718262163e+00 1.110283374786376953e+00 -5.922711491584777832e-01 1.300000000000000000e+01
3.399976730346680132e+00 1.329014778137207031e+00 -5.781818032264709473e-01 1.100000000000000000e+01
4.033939743041992188e+01 1.576012611389159979e+01 5.317646980285645419e+00 3.200000000000000000e+01
4.238172054290770596e+00 1.654951214790344016e+00 -5.586490631103515625e-01 1.100000000000000000e+01
5.529139995574951172e+00 2.157945394515991211e+00 -5.192739367485046387e-01 9.000000000000000000e+00
7.932713031768798828e+00 3.092835664749145952e+00 -4.462163746356964111e-01 1.000000000000000000e+00
3.560499572753906250e+01 1.387464904785156072e+01 8.822130203247070312e+00 1.200000000000000000e+01
1.354656982421875000e+01 5.276140213012695312e+00 -2.537579834461212158e-01 2.000000000000000000e+00
2.141521215438843218e+00 8.306413888931274414e-01 -6.154716610908508301e-01 1.600000000000000000e+01
2.445820331573485884e+00 9.476890563964843750e-01 -6.055682301521301270e-01 1.400000000000000000e+01
3.754739761352539062e+01 1.454106235504150035e+01 2.110185861587523970e+00 2.300000000000000000e+01
2.841339826583861861e+00 1.100371956825255904e+00 -5.922711491584777832e-01 1.300000000000000000e+01
3.406437397003173828e+00 1.317851305007935014e+00 -5.784946680068969727e-01 1.100000000000000000e+01
4.247626304626464844e+00 1.641578316688538042e+00 -5.591365694999694824e-01 1.100000000000000000e+01
3.531139755249022727e+01 1.363969802856444957e+01 5.995507240295410156e+00 1.300000000000000000e+01
5.551507472991943359e+00 2.144375085830688032e+00 -5.206683874130249023e-01 9.000000000000000000e+00
7.950913906097412109e+00 3.068002462387084961e+00 -4.466350376605988104e-01 2.000000000000000000e+00
3.555139160156250000e+01 1.371101093292235973e+01 8.796936035156250000e+00 1.100000000000000000e+01
1.363580799102783025e+01 5.256152629852294922e+00 -2.550843656063079834e-01 2.000000000000000000e+00
2.128175973892211914e+00 8.169301748275756836e-01 -6.108129620552062988e-01 1.600000000000000000e+01
2.461850166320800781e+00 9.440299272537231445e-01 -6.087175607681274414e-01 1.200000000000000000e+01
2.854329824447631836e+00 1.093960165977478027e+00 -5.941792130470275879e-01 1.300000000000000000e+01
3.403637647628784180e+00 1.303127288818358931e+00 -5.772431492805480957e-01 1.000000000000000000e+01
3.566886138916016336e+01 1.364915370941161932e+01 4.689288616180419922e+00 2.000000000000000000e+01
4.255185127258300781e+00 1.627450466156006081e+00 -5.593802928924560547e-01 1.100000000000000000e+01
5.557097911834716797e+00 2.124272346496582031e+00 -5.204941034317016602e-01 9.000000000000000000e+00
8.002623558044433594e+00 3.055904865264893022e+00 -4.489378333091735840e-01 1.000000000000000000e+00
3.583753967285156250e+01 1.367785835266112926e+01 8.855873107910156250e+00 1.200000000000000000e+01
1.360923099517822088e+01 5.191417217254638672e+00 -2.542466521263123114e-01 2.000000000000000000e+00
3.746426773071289062e+01 1.429123020172118963e+01 1.074409580230713068e+01 9.000000000000000000e+00
2.141850233078002930e+00 8.136125802993774414e-01 -6.139187812805175781e-01 1.500000000000000000e+01
2.459664583206177202e+00 9.333565831184387207e-01 -6.073678731918334961e-01 1.400000000000000000e+01
2.861802339553833008e+00 1.085382461547852007e+00 -5.949424505233764648e-01 1.400000000000000000e+01
3.400776624679564986e+00 1.288439035415648970e+00 -5.759916901588439941e-01 1.100000000000000000e+01
4.266409397125244141e+00 1.614695191383362038e+00 -5.601115226745605469e-01 1.100000000000000000e+01
5.560751914978027344e+00 2.103451728820800781e+00 -5.201454758644104004e-01 9.000000000000000000e+00
8.020715713500976562e+00 3.030775785446166992e+00 -4.493565261363983154e-01 1.000000000000000000e+00
3.552045440673828125e+01 1.341497611999512074e+01 8.765892982482910156e+00 1.100000000000000000e+01
1.365346145629882990e+01 5.153767585754395419e+00 -2.547353208065032959e-01 2.000000000000000000e+00
3.731034088134766336e+01 1.407608222961425959e+01 1.068508529663085938e+01 9.000000000000000000e+00
2.139252185821533203e+00 8.040920495986938477e-01 -6.123658418655395508e-01 1.600000000000000000e+01
2.450136899948120117e+00 9.199699759483337402e-01 -6.042185425758361816e-01 1.600000000000000000e+01
2.871087789535522017e+00 1.077455639839171919e+00 -5.960872769355773926e-01 1.300000000000000000e+01
3.403403759002685991e+00 1.275866866111754927e+00 -5.756788253784179688e-01 1.100000000000000000e+01
4.275737762451171875e+00 1.601185083389282005e+00 -5.605989694595336914e-01 1.100000000000000000e+01
5.579256534576416016e+00 2.088218688964844194e+00 -5.211913585662841797e-01 9.000000000000000000e+00
8.012537956237792969e+00 2.995765209197998047e+00 -4.483098089694976807e-01 1.000000000000000000e+00
3.546483993530272727e+01 1.325270462036132990e+01 8.740697860717773438e+00 1.100000000000000000e+01
1.369384765625000000e+01 5.114472389221191406e+00 -2.551541924476624090e-01 2.000000000000000000e+00
2.156531572341918945e+00 8.020069003105163574e-01 -6.165069937705993652e-01 1.600000000000000000e+01
2.466120719909667969e+00 9.161622524261474609e-01 -6.073678731918334961e-01 1.600000000000000000e+01
2.863788366317749023e+00 1.063326835632323997e+00 -5.937975645065307617e-01 1.300000000000000000e+01
3.426357507705688032e+00 1.270848393440247026e+00 -5.788075327873229980e-01 9.000000000000000000e+00
4.279439449310302734e+00 1.585560560226439986e+00 -5.603552460670471191e-01 1.100000000000000000e+01
5.601459026336669922e+00 2.074265718460083008e+00 -5.225858092308044434e-01 9.000000000000000000e+00
8.011707305908203125e+00 2.963620424270629883e+00 -4.476817548274993896e-01 2.000000000000000000e+00
3.559130477905272727e+01 1.315856266021729049e+01 8.760494232177734375e+00 1.100000000000000000e+01
1.377914333343506037e+01 5.091592788696289062e+00 -2.564107477664948065e-01 2.000000000000000000e+00
3.716971588134766336e+01 1.373474693298340021e+01 1.061779212951659979e+01 9.000000000000000000e+00
2.153740406036376953e+00 7.928490042686462402e-01 -6.149540543556213379e-01 1.600000000000000000e+01
2.469145298004149947e+00 9.079793095588684082e-01 -6.073678731918334961e-01 1.300000000000000000e+01
2.858085155487060991e+00 1.050438046455383079e+00 -5.918895006179809570e-01 1.300000000000000000e+01
3.439824819564818892e+00 1.262883305549622026e+00 -5.803718566894531250e-01 1.000000000000000000e+01
4.292129039764404297e+00 1.574094772338866965e+00 -5.613301992416381836e-01 1.100000000000000000e+01
5.597082614898681641e+00 2.051565170288085938e+00 -5.215399861335754395e-01 9.000000000000000000e+00
8.062751770019531250e+00 2.952143907546997070e+00 -4.499845504760742188e-01 1.000000000000000000e+00
3.565670776367188211e+01 1.304850196838379084e+01 8.765892982482910156e+00 1.100000000000000000e+01
1.373209953308104936e+01 5.022517204284667969e+00 -2.552239894866942804e-01 2.000000000000000000e+00
3.711345672607421875e+01 1.357425212860107067e+01 1.058880519866943004e+01 9.000000000000000000e+00
2.147418737411499023e+00 7.820209860801696777e-01 -6.123658418655395508e-01 1.600000000000000000e+01
2.481456279754639116e+00 9.026857614517211914e-01 -6.096173524856567383e-01 1.500000000000000000e+01
2.876495122909545898e+00 1.045821666717529075e+00 -5.949424505233764648e-01 1.300000000000000000e+01
3.451638936996459961e+00 1.253565669059752974e+00 -5.816233158111572266e-01 1.000000000000000000e+01
4.301329612731933594e+00 1.560456752777100053e+00 -5.618176460266113281e-01 1.200000000000000000e+01
5.611701965332031250e+00 2.034731626510620117e+00 -5.222371816635131836e-01 9.000000000000000000e+00
8.095541954040527344e+00 2.932143449783325195e+00 -4.512406289577484131e-01 1.000000000000000000e+00
1.384356784820556996e+01 5.008569240570068359e+00 -2.569692432880402166e-01 2.000000000000000000e+00
3.678689575195313211e+01 1.330214881896973012e+01 1.048165321350098012e+01 1.800000000000000000e+01
2.155452489852904829e+00 7.768606543540954590e-01 -6.139187812805175781e-01 1.500000000000000000e+01
2.475268363952637163e+00 8.911514282226562500e-01 -6.073678731918334961e-01 1.400000000000000000e+01
2.881794691085814986e+00 1.036941766738892046e+00 -5.953240394592285156e-01 1.200000000000000000e+01
3.435328483581542969e+00 1.234762907028198020e+00 -5.781818032264709473e-01 9.000000000000000000e+00
4.313953876495361328e+00 1.548867702484131081e+00 -5.627925992012023926e-01 1.100000000000000000e+01
5.609042167663574219e+00 2.012746810913085938e+00 -5.213656425476074219e-01 9.000000000000000000e+00
8.082659721374511719e+00 2.897194623947143999e+00 -4.499845504760742188e-01 2.000000000000000000e+00
1.387516212463379084e+01 4.968027114868164062e+00 -2.572484612464904785e-01 2.000000000000000000e+00
3.703402709960938211e+01 1.326010131835938033e+01 1.054014682769775035e+01 9.000000000000000000e+00
2.158151149749755859e+00 7.693319916725158691e-01 -6.139187812805175781e-01 1.400000000000000000e+01
2.469184875488280806e+00 8.792371749877929688e-01 -6.051183342933654785e-01 1.500000000000000000e+01
2.896494388580321822e+00 1.030825734138488992e+00 -5.976137518882751465e-01 1.300000000000000000e+01
3.450785398483275923e+00 1.226733803749084029e+00 -5.800589919090270996e-01 1.000000000000000000e+01
4.308110237121582031e+00 1.529814124107361062e+00 -5.613301992416381836e-01 1.100000000000000000e+01
5.629177093505859375e+00 1.997820019721985085e+00 -5.225858092308044434e-01 9.000000000000000000e+00
8.073898315429687500e+00 2.862289667129517046e+00 -4.489378333091735840e-01 2.000000000000000000e+00
3.655331039428710938e+01 1.295138645172118963e+01 8.953051567077636719e+00 1.200000000000000000e+01
1.391503906250000000e+01 4.927573680877686435e+00 -2.576673328876494806e-01 2.000000000000000000e+00
2.166422367095946822e+00 7.633427977561950684e-01 -6.154716610908508301e-01 1.400000000000000000e+01
2.487096548080443892e+00 8.753570318222045898e-01 -6.087175607681274414e-01 1.500000000000000000e+01
2.890993118286132812e+00 1.016945242881774902e+00 -5.957056879997253418e-01 1.300000000000000000e+01
3.455258369445800781e+00 1.214077830314636008e+00 -5.800589919090270996e-01 9.000000000000000000e+00
4.315561294555664062e+00 1.514671206474303977e+00 -5.615739226341247559e-01 1.100000000000000000e+01
5.623301029205322266e+00 1.972558140754699929e+00 -5.213656425476074219e-01 9.000000000000000000e+00
8.110723495483398438e+00 2.841924428939818892e+00 -4.504032433032990057e-01 2.000000000000000000e+00
3.645707321166992188e+01 1.276708602905273082e+01 8.917959213256835938e+00 1.200000000000000000e+01
1.394810581207275035e+01 4.881824493408203125e+00 -2.579465806484221857e-01 2.000000000000000000e+00
2.167249441146851030e+00 7.551403045654296875e-01 -6.149540543556213379e-01 1.600000000000000000e+01
2.484615564346313032e+00 8.647484779357910156e-01 -6.073678731918334961e-01 1.400000000000000000e+01
2.894525289535522017e+00 1.006847620010375977e+00 -5.957056879997253418e-01 1.300000000000000000e+01
3.470670938491820845e+00 1.205899357795715110e+00 -5.819361805915832520e-01 9.000000000000000000e+00
4.320822238922119141e+00 1.499597907066344993e+00 -5.615739226341247559e-01 1.100000000000000000e+01
5.650858402252197266e+00 1.960099339485168013e+00 -5.232830643653869629e-01 1.000000000000000000e+00
8.128143310546875000e+00 2.816210746765137163e+00 -4.508219361305236816e-01 2.000000000000000000e+00
3.668188095092772727e+01 1.270223999023438033e+01 8.962050437927246094e+00 1.200000000000000000e+01
1.398017978668213068e+01 4.838338851928710938e+00 -2.582257986068726141e-01 2.000000000000000000e+00
2.160609960556029829e+00 7.448013424873352051e-01 -6.123658418655395508e-01 1.500000000000000000e+01
2.494839668273925781e+00 8.590422272682189941e-01 -6.091674566268920898e-01 1.100000000000000000e+01
2.897848129272460938e+00 9.972434639930725098e-01 -5.957056879997253418e-01 1.300000000000000000e+01
3.478386878967285156e+00 1.195667862892151101e+00 -5.825619697570800781e-01 9.000000000000000000e+00
4.340791225433349609e+00 1.490418434143065962e+00 -5.635238289833068848e-01 1.100000000000000000e+01
5.638482093811035156e+00 1.934882760047913042e+00 -5.215399861335754395e-01 6.000000000000000000e+00
8.182782173156738281e+00 2.804784059524536133e+00 -4.533340632915496826e-01 2.000000000000000000e+00
1.403776836395264027e+01 4.806202411651611328e+00 -2.589937150478363037e-01 2.000000000000000000e+00
2.166853666305541992e+00 7.385013103485107422e-01 -6.134011149406433105e-01 1.500000000000000000e+01
2.494133710861206055e+00 8.490723371505737305e-01 -6.082676649093627930e-01 1.400000000000000000e+01
2.903170108795166016e+00 9.877543449401855469e-01 -5.960872769355773926e-01 1.300000000000000000e+01
3.475058078765869141e+00 1.180976271629333052e+00 -5.813104510307312012e-01 9.000000000000000000e+00
4.347846984863281250e+00 1.475895285606384055e+00 -5.637676119804382324e-01 1.200000000000000000e+01
5.656522274017333984e+00 1.919029712677001953e+00 -5.225858092308044434e-01 9.000000000000000000e+00
8.192523002624511719e+00 2.776203632354735884e+00 -4.533340632915496826e-01 2.000000000000000000e+00
3.918912506103516336e+01 1.327241134643555043e+01 9.552321434020996094e+00 1.200000000000000000e+01
1.405445957183838068e+01 4.757172107696533203e+00 -2.589937150478363037e-01 2.000000000000000000e+00
2.180531024932860884e+00 7.342534065246582031e-01 -6.165069937705993652e-01 1.600000000000000000e+01
2.489840745925902876e+00 8.374401926994323730e-01 -6.064680218696594238e-01 1.300000000000000000e+01
2.910492897033690962e+00 9.783582091331481934e-01 -5.968505144119262695e-01 1.300000000000000000e+01
3.483108520507812944e+00 1.169489145278931108e+00 -5.819361805915832520e-01 9.000000000000000000e+00
4.353227615356445312e+00 1.459949731826782005e+00 -5.637676119804382324e-01 1.100000000000000000e+01
5.659739971160888672e+00 1.897018194198607954e+00 -5.222371816635131836e-01 9.000000000000000000e+00
8.168552398681640625e+00 2.734744548797606978e+00 -4.514499604701995850e-01 1.000000000000000000e+00
1.409835147857666016e+01 4.714506626129150391e+00 -2.594823837280272882e-01 2.000000000000000000e+00
2.184913635253905806e+00 7.272475957870483398e-01 -6.170246005058288574e-01 1.600000000000000000e+01
2.492748737335205078e+00 8.287439346313476562e-01 -6.064680218696594238e-01 1.200000000000000000e+01
2.915753364562987837e+00 9.688117504119873047e-01 -5.972321629524230957e-01 1.200000000000000000e+01
3.490919351577758789e+00 1.158568143844604048e+00 -5.825619697570800781e-01 9.000000000000000000e+00
4.348875999450683594e+00 1.441622138023376021e+00 -5.625488758087158203e-01 1.100000000000000000e+01
5.668218612670898438e+00 1.877877116203308105e+00 -5.224115252494812012e-01 9.000000000000000000e+00
8.204594612121582031e+00 2.714998722076416016e+00 -4.529153704643250067e-01 2.000000000000000000e+00
3.900556945800781250e+01 1.289985847473145064e+01 9.484836578369140625e+00 1.200000000000000000e+01
1.410333061218262074e+01 4.661499977111816406e+00 -2.592729628086090088e-01 2.000000000000000000e+00
3.520872116088867188e+01 1.163053798675536932e+01 9.935545921325683594e+00 8.000000000000000000e+00
2.185352563858031782e+00 7.197755575180053711e-01 -6.165069937705993652e-01 1.600000000000000000e+01
2.504595756530762163e+00 8.239535689353942871e-01 -6.087175607681274414e-01 1.300000000000000000e+01
2.913187503814696822e+00 9.578073024749755859e-01 -5.960872769355773926e-01 1.300000000000000000e+01
3.509556055068970171e+00 1.152525901794434038e+00 -5.850648880004882812e-01 9.000000000000000000e+00
4.351497173309326172e+00 1.427333950996398926e+00 -5.623051524162292480e-01 1.000000000000000000e+01
5.687342643737792969e+00 1.864405035972594993e+00 -5.236316919326782227e-01 9.000000000000000000e+00
8.205491065979003906e+00 2.686723947525023970e+00 -4.524966776371002197e-01 2.000000000000000000e+00
3.916443634033203125e+01 1.281604385375976918e+01 9.513629913330078125e+00 1.200000000000000000e+01
1.417872524261474965e+01 4.637061119079589844e+00 -2.603898942470551092e-01 2.000000000000000000e+00
3.532588195800781250e+01 1.154627799987792969e+01 9.958321571350097656e+00 8.000000000000000000e+00
2.174993038177489790e+00 7.079573273658752441e-01 -6.128835082054138184e-01 1.500000000000000000e+01
2.518576145172119141e+00 8.188210129737854004e-01 -6.114169359207153320e-01 1.300000000000000000e+01
2.916512966156005859e+00 9.476325511932373047e-01 -5.960872769355773926e-01 1.300000000000000000e+01
3.502284288406372070e+00 1.136609673500061035e+00 -5.831876993179321289e-01 9.000000000000000000e+00
3.657362747192382812e+01 1.186232471466063920e+01 4.720974445343017578e+00 2.000000000000000000e+01
4.369671344757080078e+00 1.416420459747314009e+00 -5.640113353729248047e-01 1.100000000000000000e+01
5.680548191070556641e+00 1.840242981910706010e+00 -5.224115252494812012e-01 8.000000000000000000e+00
8.249023437500000000e+00 2.669132709503173828e+00 -4.543807804584503174e-01 2.000000000000000000e+00
1.421385383605957031e+01 4.593689441680908203e+00 -2.607389390468596857e-01 2.000000000000000000e+00
3.679252243041992188e+01 1.188366031646729049e+01 1.036000919342041016e+01 8.000000000000000000e+00
2.179412364959716797e+00 7.005720138549804688e-01 -6.134011149406433105e-01 1.500000000000000000e+01
2.519704818725585938e+00 8.089887499809265137e-01 -6.109670400619506836e-01 1.300000000000000000e+01
2.936791181564331055e+00 9.423351287841796875e-01 -5.995218753814697266e-01 1.200000000000000000e+01
3.497020959854125977e+00 1.120751142501831055e+00 -5.816233158111572266e-01 1.000000000000000000e+01
3.656014633178710938e+01 1.171003055572509943e+01 4.713662624359130859e+00 2.000000000000000000e+01
4.386177062988281250e+00 1.404026389122009055e+00 -5.654737353324890137e-01 1.100000000000000000e+01
5.694845676422119141e+00 1.821838736534119096e+00 -5.231087803840637207e-01 9.000000000000000000e+00
8.277775764465332031e+00 2.644959449768065962e+00 -4.554274976253510077e-01 1.000000000000000000e+00
1.429536628723145064e+01 4.562233448028563565e+00 -2.619257271289824884e-01 2.000000000000000000e+00
2.196574211120605025e+00 6.976383924484252930e-01 -6.175422668457031250e-01 1.600000000000000000e+01
2.509510755538939986e+00 7.960637211799621582e-01 -6.078177690505981445e-01 1.300000000000000000e+01
2.932576656341553178e+00 9.297048449516296387e-01 -5.979954004287719727e-01 1.300000000000000000e+01
3.506561517715454102e+00 1.110326409339905007e+00 -5.825619697570800781e-01 1.000000000000000000e+01
3.675220489501953125e+01 1.163025283813476918e+01 4.733161449432373047e+00 2.000000000000000000e+01
4.383480548858642578e+00 1.386312842369080034e+00 -5.644987821578979492e-01 1.100000000000000000e+01
5.723967075347900391e+00 1.809154272079467995e+00 -5.252004861831665039e-01 9.000000000000000000e+00
8.286958694458007812e+00 2.616048574447631836e+00 -4.554274976253510077e-01 1.000000000000000000e+00
1.431120395660400035e+01 4.512305259704589844e+00 -2.619257271289824884e-01 2.000000000000000000e+00
3.476874923706054688e+01 1.095587348937987926e+01 9.767830848693847656e+00 7.000000000000000000e+00
2.198875665664672852e+00 6.903504729270935059e-01 -6.175422668457031250e-01 1.500000000000000000e+01
2.513996362686156782e+00 7.883205413818359375e-01 -6.082676649093627930e-01 1.100000000000000000e+01
2.931896924972534180e+00 9.188007712364196777e-01 -5.972321629524230957e-01 1.200000000000000000e+01
3.525305747985839844e+00 1.103412508964539018e+00 -5.850648880004882812e-01 9.000000000000000000e+00
3.679056930541992188e+01 1.150831413269042969e+01 4.733161449432373047e+00 2.000000000000000000e+01
4.374791145324707031e+00 1.367622971534729004e+00 -5.627925992012023926e-01 1.000000000000000000e+01
