-1.112897276878356934e+00 -6.827861070632934570e-01 3.014344274997711182e-01 5.200000000000000000e+01
-1.148937940597533958e+00 -7.046219110488891602e-01 -2.352584339678287853e-02 5.500000000000000000e+01
-1.110076785087585005e+00 -6.805224418640136719e-01 3.488880693912506104e-01 4.500000000000000000e+01
-2.302577972412108931e+00 -1.407706975936890093e+00 -7.231404185295104980e-01 1.900000000000000000e+01
-1.129567861557007058e+00 -6.903032064437866211e-01 2.310698665678501129e-02 4.900000000000000000e+01
-2.694050550460814986e+00 -1.645746588706969993e+00 -7.288414239883422852e-01 1.300000000000000000e+01
-1.135250568389893022e+00 -6.932318806648254395e-01 6.971149146556854248e-02 5.600000000000000000e+01
-3.228801727294921875e+00 -1.971642613410949929e+00 -7.353778481483459473e-01 1.200000000000000000e+01
-1.113896608352660911e+00 -6.799254417419433594e-01 1.141740232706069946e-01 5.300000000000000000e+01
-4.030170917510986328e+00 -2.459061384201049805e+00 -7.477567195892333984e-01 1.200000000000000000e+01
-1.127000808715820090e+00 -6.873843669891357422e-01 1.620862334966660101e-01 5.600000000000000000e+01
-5.520349502563476562e+00 -3.365669488906859907e+00 -7.938569188117980957e-01 7.000000000000000000e+00
-1.124977588653564009e+00 -6.858809590339660645e-01 2.086835801601409912e-01 6.100000000000000000e+01
-7.485851287841796875e+00 -4.562212944030761719e+00 -7.669705152511596680e-01 7.000000000000000000e+00
-1.104898691177367942e+00 -6.731103062629699707e-01 2.514862418174744207e-01 7.600000000000000000e+01
-1.130255222320557085e+00 -6.880167722702026367e-01 3.054835200309752863e-01 5.000000000000000000e+01
-1.161640405654907005e+00 -7.068439126014709473e-01 -2.373527362942695965e-02 3.800000000000000000e+01
-1.122229337692260964e+00 -6.828628182411193848e-01 3.519938886165618896e-01 3.700000000000000000e+01
-2.310781240463256836e+00 -1.401664733886718972e+00 -7.241756916046142578e-01 1.900000000000000000e+01
-1.138810276985168013e+00 -6.905032396316528320e-01 2.324660494923591961e-02 3.300000000000000000e+01
-2.694779396057128906e+00 -1.633302330970763938e+00 -7.274917364120483398e-01 1.400000000000000000e+01
-1.134247064590454102e+00 -6.871950626373291016e-01 6.950215250253677368e-02 5.100000000000000000e+01
-3.249097347259521040e+00 -1.968498468399048074e+00 -7.384307980537414551e-01 1.300000000000000000e+01
-1.131601214408874956e+00 -6.853220462799072266e-01 1.157428249716759006e-01 5.100000000000000000e+01
-4.052248954772949219e+00 -2.453162431716918945e+00 -7.502596974372863770e-01 1.200000000000000000e+01
-1.124298334121704102e+00 -6.803629994392395020e-01 1.613550037145614902e-01 5.200000000000000000e+01
-5.523571491241455078e+00 -3.341242074966431108e+00 -7.926381826400756836e-01 7.000000000000000000e+00
-1.141006946563720925e+00 -6.899300813674926758e-01 2.111865282058716098e-01 5.900000000000000000e+01
-7.586977958679199219e+00 -4.587600708007813388e+00 -7.756860852241516113e-01 7.000000000000000000e+00
-1.115642547607422097e+00 -6.743271350860595703e-01 2.533943355083466131e-01 7.500000000000000000e+01
-1.004653453826903942e+01 -6.070027351379395419e+00 -6.151568293571472168e-01 7.000000000000000000e+00
-1.132649898529052956e+00 -6.840672492980957031e-01 3.054835200309752863e-01 5.200000000000000000e+01
-1.144572734832763894e+00 -6.907228827476501465e-01 3.582055568695067804e-01 1.800000000000000000e+01
-2.317315101623535156e+00 -1.394586205482482910e+00 -7.246932983398437500e-01 1.800000000000000000e+01
-1.153208374977112038e+00 -6.937395930290222168e-01 2.349093928933143963e-02 6.000000000000000000e+00
-2.707144260406494141e+00 -1.627902865409851074e+00 -7.292913198471069336e-01 1.400000000000000000e+01
-1.140062570571898970e+00 -6.852895021438598633e-01 6.971149146556854248e-02 4.800000000000000000e+01
-3.247535705566405806e+00 -1.952087759971619096e+00 -7.365227341651916504e-01 1.300000000000000000e+01
-1.135694384574889915e+00 -6.823940277099609375e-01 1.159171387553215027e-01 5.300000000000000000e+01
-4.059093952178955078e+00 -2.437985420227050781e+00 -7.499468326568603516e-01 1.100000000000000000e+01
-1.141983628273010032e+00 -6.856305599212646484e-01 1.635486632585526068e-01 5.100000000000000000e+01
-5.523286342620849609e+00 -3.314790248870850053e+00 -7.909320592880249023e-01 8.000000000000000000e+00
-1.138207197189331055e+00 -6.830930113792419434e-01 2.102479189634323120e-01 5.600000000000000000e+01
-7.541438102722167969e+00 -4.524190425872802734e+00 -7.694109082221984863e-01 7.000000000000000000e+00
-1.117989540100098100e+00 -6.704287528991699219e-01 2.533943355083466131e-01 7.500000000000000000e+01
-1.011391448974609020e+01 -6.062646865844726562e+00 -6.179829835891723633e-01 1.000000000000000000e+01
-1.125001072883605957e+00 -6.740995645523071289e-01 3.027841150760651190e-01 5.100000000000000000e+01
-4.457066345214843750e+01 -2.669612693786621094e+01 -9.068619608879089355e-01 1.400000000000000000e+01
-1.168401956558227983e+00 -6.998282074928283691e-01 3.649348616600037176e-01 1.000000000000000000e+01
-2.317192792892456055e+00 -1.383517622947693093e+00 -7.231404185295104980e-01 1.900000000000000000e+01
-2.711136817932128906e+00 -1.617444753646851030e+00 -7.288414239883422852e-01 1.300000000000000000e+01
-1.151024580001831055e+00 -6.864206790924072266e-01 7.023485004901885986e-02 2.600000000000000000e+01
-3.237468004226685014e+00 -1.930684208869934082e+00 -7.327065467834472656e-01 1.300000000000000000e+01
-1.146626353263854980e+00 -6.835264563560485840e-01 1.167886927723884999e-01 4.700000000000000000e+01
-4.074367046356201172e+00 -2.427846431732178178e+00 -7.511982917785644531e-01 1.100000000000000000e+01
-1.151191830635071023e+00 -6.857035160064697266e-01 1.645236164331435880e-01 5.000000000000000000e+01
-5.541646003723145419e+00 -3.299552440643310991e+00 -7.919070124626159668e-01 7.000000000000000000e+00
-1.122030973434448020e+00 -6.678034663200378418e-01 2.068063616752625067e-01 5.300000000000000000e+01
-7.730106353759765625e+00 -4.600756645202636719e+00 -7.870163321495056152e-01 6.000000000000000000e+00
-1.130446314811706987e+00 -6.725448966026306152e-01 2.556840479373931885e-01 7.200000000000000000e+01
-1.014531517028808949e+01 -6.033431529998779297e+00 -6.186109781265258789e-01 1.400000000000000000e+01
-1.137398004531859907e+00 -6.761432290077209473e-01 3.054835200309752863e-01 5.200000000000000000e+01
-4.482860946655272727e+01 -2.663845062255859020e+01 -9.102128148078918457e-01 1.400000000000000000e+01
-1.175941944122314009e+00 -6.985008120536804199e-01 3.664877712726593018e-01 2.000000000000000000e+00
-2.320585727691649947e+00 -1.374031186103821023e+00 -7.226227521896362305e-01 1.900000000000000000e+01
-2.718724012374877930e+00 -1.608489394187927024e+00 -7.292913198471069336e-01 1.300000000000000000e+01
-1.156970977783202903e+00 -6.842307448387145996e-01 7.044419646263122559e-02 6.000000000000000000e+00
-3.246212482452393022e+00 -1.919804692268372026e+00 -7.330881357192993164e-01 1.200000000000000000e+01
-1.140548348426819070e+00 -6.742497682571411133e-01 1.159171387553215027e-01 2.000000000000000000e+01
-4.090040683746337891e+00 -2.416916608810424805e+00 -7.524497509002685547e-01 1.200000000000000000e+01
-1.167370796203613059e+00 -6.895564198493957520e-01 1.664735227823256891e-01 5.000000000000000000e+01
-5.546864986419677734e+00 -3.275182008743286133e+00 -7.909320592880249023e-01 7.000000000000000000e+00
-1.129458189010619895e+00 -6.668958663940429688e-01 2.077449709177016934e-01 4.600000000000000000e+01
-7.726326942443847656e+00 -4.560241222381591797e+00 -7.849246263504028320e-01 8.000000000000000000e+00
-1.129521965980530007e+00 -6.664018630981445312e-01 2.549208104610443115e-01 6.600000000000000000e+01
-1.015015697479248047e+01 -5.986060619354248047e+00 -6.175642609596252441e-01 1.000000000000000000e+01
-1.146583557128906028e+00 -6.759285330772399902e-01 3.072831332683563232e-01 5.500000000000000000e+01
-4.511890029907227273e+01 -2.658767127990723012e+01 -9.141221642494201660e-01 1.400000000000000000e+01
-2.323702335357666016e+00 -1.364943981170654075e+00 -7.221051454544067383e-01 1.900000000000000000e+01
-2.724322080612183061e+00 -1.598989486694335938e+00 -7.292913198471069336e-01 1.400000000000000000e+01
-3.266440868377685991e+00 -1.916409373283386008e+00 -7.361410856246948242e-01 1.300000000000000000e+01
-1.149769544601439986e+00 -6.742960214614868164e-01 1.166143864393233975e-01 1.000000000000000000e+00
-4.078002929687500000e+00 -2.390636920928955078e+00 -7.486953735351562500e-01 1.200000000000000000e+01
-1.174908757209778054e+00 -6.884881854057312012e-01 1.672047376632689875e-01 4.300000000000000000e+01
-5.570253849029541016e+00 -3.262823104858397993e+00 -7.926381826400756836e-01 8.000000000000000000e+00
-1.131894946098328081e+00 -6.627517342567443848e-01 2.077449709177016934e-01 4.600000000000000000e+01
-7.840200901031494141e+00 -4.590626239776611328e+00 -7.948603630065917969e-01 8.000000000000000000e+00
-1.126758098602294922e+00 -6.594799757003784180e-01 2.537759542465209961e-01 6.300000000000000000e+01
-1.018822956085205078e+01 -5.960679054260253906e+00 -6.186109781265258789e-01 1.000000000000000000e+01
-1.143889427185059038e+00 -6.689707040786743164e-01 3.059334456920623779e-01 5.400000000000000000e+01
-4.545657348632813211e+01 -2.657332038879394887e+01 -9.190786480903625488e-01 1.400000000000000000e+01
-2.331790924072266069e+00 -1.358769655227660911e+00 -7.231404185295104980e-01 1.900000000000000000e+01
-2.718098402023314986e+00 -1.582606196403502974e+00 -7.261419892311096191e-01 1.300000000000000000e+01
-3.276504039764403853e+00 -1.906970858573914018e+00 -7.369043231010437012e-01 1.200000000000000000e+01
-4.098276138305664062e+00 -2.383338928222655806e+00 -7.508854269981384277e-01 1.200000000000000000e+01
-1.179021000862122026e+00 -6.853804588317871094e-01 1.674484759569168091e-01 2.300000000000000000e+01
-5.564445495605468750e+00 -3.233386039733887163e+00 -7.902008295059204102e-01 8.000000000000000000e+00
-1.149458169937134011e+00 -6.679267287254333496e-01 2.105607837438583096e-01 3.800000000000000000e+01
-7.885465621948242188e+00 -4.580243110656738281e+00 -7.978236675262451172e-01 8.000000000000000000e+00
-1.120564222335814986e+00 -6.506139636039733887e-01 2.518678605556488037e-01 4.500000000000000000e+01
-1.029879951477050959e+01 -5.977211952209472656e+00 -6.240539550781250000e-01 1.000000000000000000e+01
-1.144531965255737083e+00 -6.639958024024963379e-01 3.054835200309752863e-01 4.900000000000000000e+01
-4.551099777221679688e+01 -2.639241600036621094e+01 -9.183107018470764160e-01 1.400000000000000000e+01
-2.339864730834960938e+00 -1.352555513381958008e+00 -7.241756916046142578e-01 1.900000000000000000e+01
-2.726981163024901900e+00 -1.575057983398437944e+00 -7.270417809486389160e-01 1.200000000000000000e+01
-3.271239042282104048e+00 -1.888650655746459961e+00 -7.342330217361450195e-01 1.200000000000000000e+01
-4.118547916412354404e+00 -2.375928401947021040e+00 -7.530755400657653809e-01 1.200000000000000000e+01
-1.214079856872559038e+00 -7.001019716262817383e-01 1.720795184373855868e-01 9.000000000000000000e+00
-5.584297180175781250e+00 -3.218899488449097124e+00 -7.914195060729980469e-01 1.000000000000000000e+01
-1.158744812011718972e+00 -6.676540374755859375e-01 2.118122726678847989e-01 3.400000000000000000e+01
-7.937658309936523438e+00 -4.573577880859375000e+00 -8.014842271804809570e-01 8.000000000000000000e+00
-1.156853556632996050e+00 -6.662954092025756836e-01 2.595002353191375732e-01 3.600000000000000000e+01
-1.035595035552979049e+01 -5.962152957916259766e+00 -6.262520551681518555e-01 1.800000000000000000e+01
-1.156976819038390891e+00 -6.658287048339843750e-01 3.081829547882080078e-01 9.000000000000000000e+00
-4.563058090209960938e+01 -2.624934577941894887e+01 -9.188691973686218262e-01 1.400000000000000000e+01
-2.337868213653564009e+00 -1.340535879135132058e+00 -7.221051454544067383e-01 1.900000000000000000e+01
-2.735844373703002930e+00 -1.567466974258423074e+00 -7.279416322708129883e-01 1.200000000000000000e+01
-3.272700786590576172e+00 -1.874293327331542969e+00 -7.330881357192993164e-01 1.200000000000000000e+01
-4.106242179870604581e+00 -2.349764108657836914e+00 -7.493211030960083008e-01 1.200000000000000000e+01
-1.232024192810059038e+00 -7.047305107116699219e-01 1.742731630802155096e-01 2.100000000000000000e+01
-5.588606357574462891e+00 -3.195445775985718218e+00 -7.904445528984069824e-01 1.000000000000000000e+01
-1.155807971954345925e+00 -6.608663201332092285e-01 2.108736634254456122e-01 3.300000000000000000e+01
-8.010658264160156250e+00 -4.578468322753906250e+00 -8.072364926338195801e-01 9.000000000000000000e+00
-1.177923560142517090e+00 -6.729660630226135254e-01 2.636980414390563965e-01 1.900000000000000000e+01
-1.037496471405028942e+01 -5.924976825714111328e+00 -6.261473894119262695e-01 2.100000000000000000e+01
-4.579487609863281250e+01 -2.613153076171875000e+01 -9.203351736068725586e-01 1.400000000000000000e+01
-2.340854167938231978e+00 -1.331411838531493919e+00 -7.215874791145324707e-01 2.000000000000000000e+01
-2.751464605331420898e+00 -1.563684701919556108e+00 -7.306410074234008789e-01 1.300000000000000000e+01
-3.284344434738159180e+00 -1.865767359733581987e+00 -7.342330217361450195e-01 1.200000000000000000e+01
-4.121291160583496094e+00 -2.339316844940185991e+00 -7.505725622177124023e-01 1.100000000000000000e+01
-1.225844025611876997e+00 -6.955276131629943848e-01 1.730544716119765958e-01 2.400000000000000000e+01
-5.594546318054199219e+00 -3.172980546951293945e+00 -7.897133231163024902e-01 8.000000000000000000e+00
-1.180445194244384988e+00 -6.694965362548828125e-01 2.149409502744674960e-01 3.800000000000000000e+01
-8.059522628784179688e+00 -4.569147586822509766e+00 -8.105484247207641602e-01 1.000000000000000000e+01
-1.193929910659790039e+00 -6.765938401222229004e-01 2.667509615421295166e-01 7.000000000000000000e+00
-1.044597911834716975e+01 -5.917273521423339844e+00 -6.291828751564025879e-01 1.800000000000000000e+01
-4.587885284423828125e+01 -2.596757888793944957e+01 -9.201955795288085938e-01 1.400000000000000000e+01
-2.348852396011352983e+00 -1.325131177902221902e+00 -7.226227521896362305e-01 1.900000000000000000e+01
-2.751813411712646040e+00 -1.551200032234191895e+00 -7.292913198471069336e-01 1.100000000000000000e+01
-3.289126634597777876e+00 -1.853327631950377974e+00 -7.338513731956481934e-01 1.200000000000000000e+01
-4.122546672821044922e+00 -2.321040153503417969e+00 -7.493211030960083008e-01 1.100000000000000000e+01
-1.207504987716675027e+00 -6.795613765716552734e-01 1.701295971870422086e-01 6.000000000000000000e+00
-5.602127552032470703e+00 -3.151485919952393022e+00 -7.892258763313293457e-01 1.000000000000000000e+01
-1.198387384414673074e+00 -6.738794445991516113e-01 2.177567780017853061e-01 1.900000000000000000e+01
-8.077158927917480469e+00 -4.541963100433349609e+00 -8.107227087020874023e-01 9.000000000000000000e+00
-1.047875976562500000e+01 -5.887622356414794922e+00 -6.299155950546264648e-01 2.200000000000000000e+01
-4.594829177856445312e+01 -2.579552650451660156e+01 -9.197767376899719238e-01 1.400000000000000000e+01
-2.353463649749755859e+00 -1.316924095153809038e+00 -7.226227521896362305e-01 1.800000000000000000e+01
-2.745304822921752930e+00 -1.534927845001220925e+00 -7.261419892311096191e-01 1.300000000000000000e+01
-3.305858612060546875e+00 -1.847581982612610085e+00 -7.361410856246948242e-01 1.300000000000000000e+01
-4.130623340606688565e+00 -2.306635618209838867e+00 -7.493211030960083008e-01 1.100000000000000000e+01
-5.604426860809326172e+00 -3.127075433731079102e+00 -7.880071997642517090e-01 8.000000000000000000e+00
-1.221434712409972922e+00 -6.812386512756347656e-01 2.215112000703811923e-01 1.000000000000000000e+00
-8.139945983886718750e+00 -4.539944171905517578e+00 -8.154291510581970215e-01 1.000000000000000000e+01
-1.058124542236327947e+01 -5.896704673767089844e+00 -6.348351240158081055e-01 1.800000000000000000e+01
-4.612541198730468750e+01 -2.568362045288085938e+01 -9.215219616889953613e-01 1.400000000000000000e+01
-2.361195802688599077e+00 -1.310987949371337891e+00 -7.236580252647399902e-01 1.700000000000000000e+01
-2.753787755966186968e+00 -1.527706384658813032e+00 -7.270417809486389160e-01 1.300000000000000000e+01
-3.303382635116577148e+00 -1.831848621368407981e+00 -7.342330217361450195e-01 1.300000000000000000e+01
-4.155528545379638672e+00 -2.302499055862427202e+00 -7.524497509002685547e-01 1.100000000000000000e+01
-5.592188358306884766e+00 -3.095974206924438032e+00 -7.848385572433471680e-01 8.000000000000000000e+00
-8.207253456115722656e+00 -4.541867733001708984e+00 -8.206584453582763672e-01 1.000000000000000000e+01
-1.061996841430664062e+01 -5.872214317321777344e+00 -6.359865665435791016e-01 2.200000000000000000e+01
-4.618932342529296875e+01 -2.551891708374023082e+01 -9.211031198501586914e-01 1.400000000000000000e+01
-2.362373113632202148e+00 -1.300874114036560059e+00 -7.226227521896362305e-01 1.700000000000000000e+01
-2.759103775024414062e+00 -1.518084526062011941e+00 -7.270417809486389160e-01 1.200000000000000000e+01
-3.299435377120972124e+00 -1.814629912376404031e+00 -7.319433093070983887e-01 1.200000000000000000e+01
-4.158346652984619141e+00 -2.285125494003295898e+00 -7.515111565589904785e-01 1.200000000000000000e+01
-5.613401889801025391e+00 -3.082167387008666992e+00 -7.863010168075561523e-01 1.000000000000000000e+01
-8.284189224243164062e+00 -4.546742916107177734e+00 -8.267593979835510254e-01 9.000000000000000000e+00
-1.065265941619873047e+01 -5.841830730438232422e+00 -6.367192268371582031e-01 1.800000000000000000e+01
-4.627461242675781250e+01 -2.535560989379883168e+01 -9.210333228111267090e-01 1.400000000000000000e+01
-2.362038373947143999e+00 -1.289429903030395952e+00 -7.210698723793029785e-01 1.900000000000000000e+01
-2.771492481231689009e+00 -1.511694312095642090e+00 -7.288414239883422852e-01 1.300000000000000000e+01
-3.306064128875731978e+00 -1.802524685859679954e+00 -7.319433093070983887e-01 1.200000000000000000e+01
-4.159755706787109375e+00 -2.266088962554932085e+00 -7.502596974372863770e-01 1.200000000000000000e+01
-5.614199638366699219e+00 -3.055878400802611861e+00 -7.848385572433471680e-01 8.000000000000000000e+00
-8.327050209045410156e+00 -4.530632495880126953e+00 -8.293740749359130859e-01 9.000000000000000000e+00
-1.077928352355957031e+01 -5.859982967376708984e+00 -6.429995298385620117e-01 7.000000000000000000e+00
-4.635669326782227273e+01 -2.518010711669921875e+01 -9.208238720893859863e-01 1.400000000000000000e+01
-2.364825963973999023e+00 -1.280257344245911089e+00 -7.205522060394287109e-01 1.800000000000000000e+01
-2.771610260009766069e+00 -1.499229311943053977e+00 -7.274917364120483398e-01 1.100000000000000000e+01
-3.315789937973022017e+00 -1.792840957641602007e+00 -7.327065467834472656e-01 1.100000000000000000e+01
-4.160688400268554688e+00 -2.247799396514893022e+00 -7.490082383155822754e-01 1.200000000000000000e+01
-5.635313510894775391e+00 -3.041920185089110884e+00 -7.863010168075561523e-01 8.000000000000000000e+00
-8.372622489929199219e+00 -4.517621994018554688e+00 -8.323373198509216309e-01 9.000000000000000000e+00
-1.098426723480224965e+01 -5.921839714050292969e+00 -6.539900898933410645e-01 1.100000000000000000e+01
-4.647951507568358664e+01 -2.503710556030273082e+01 -9.215219616889953613e-01 1.400000000000000000e+01
-2.374164104461669922e+00 -1.275150418281554954e+00 -7.221051454544067383e-01 1.600000000000000000e+01
-2.771415233612060991e+00 -1.487265586853026900e+00 -7.261419892311096191e-01 1.200000000000000000e+01
-3.321717023849486861e+00 -1.781835436820984109e+00 -7.327065467834472656e-01 1.100000000000000000e+01
-4.164637565612792969e+00 -2.232123374938964844e+00 -7.483825087547302246e-01 1.200000000000000000e+01
-5.627870082855224609e+00 -3.013844728469849077e+00 -7.838636040687561035e-01 8.000000000000000000e+00
-8.398097038269042969e+00 -4.495474338531494141e+00 -8.333832025527954102e-01 9.000000000000000000e+00
-1.107605266571044922e+01 -5.924002170562744141e+00 -6.582816839218139648e-01 7.000000000000000000e+00
-4.651642990112304688e+01 -2.485833168029785156e+01 -9.206144213676452637e-01 1.400000000000000000e+01
-2.380306005477904829e+00 -1.267763495445251021e+00 -7.226227521896362305e-01 1.700000000000000000e+01
-2.774869680404663086e+00 -1.476667046546936035e+00 -7.256920933723449707e-01 1.100000000000000000e+01
-3.324449777603148970e+00 -1.768385648727416992e+00 -7.319433093070983887e-01 1.100000000000000000e+01
-4.179380893707275391e+00 -2.221280574798583984e+00 -7.496339678764343262e-01 1.200000000000000000e+01
-5.647122383117675781e+00 -2.998836517333983931e+00 -7.850822806358337402e-01 8.000000000000000000e+00
-8.466532707214355469e+00 -4.494156360626220703e+00 -8.386125564575195312e-01 9.000000000000000000e+00
-1.109666442871093928e+01 -5.885303497314453125e+00 -6.582816839218139648e-01 1.500000000000000000e+01
-4.656051254272460938e+01 -2.467333602905273082e+01 -9.197767376899719238e-01 1.400000000000000000e+01
-2.381300210952758789e+00 -1.257642507553101030e+00 -7.215874791145324707e-01 1.900000000000000000e+01
-2.790348291397095171e+00 -1.472428798675537109e+00 -7.283915281295776367e-01 1.300000000000000000e+01
-3.321919918060303178e+00 -1.752190709114074929e+00 -7.300352454185485840e-01 1.200000000000000000e+01
-4.194099426269531250e+00 -2.210362434387207031e+00 -7.508854269981384277e-01 1.200000000000000000e+01
-5.641747474670410156e+00 -2.970782041549683061e+00 -7.828886508941650391e-01 8.000000000000000000e+00
-8.494509696960449219e+00 -4.471071243286132812e+00 -8.398327231407165527e-01 9.000000000000000000e+00
-1.114365577697754084e+01 -5.860477924346923828e+00 -6.598517298698425293e-01 2.700000000000000000e+01
-4.658971023559570312e+01 -2.448089408874512074e+01 -9.186597466468811035e-01 1.400000000000000000e+01
-2.377118825912476030e+00 -1.244841575622559038e+00 -7.189993262290954590e-01 1.900000000000000000e+01
-2.793744325637816939e+00 -1.461776137351989968e+00 -7.279416322708129883e-01 1.200000000000000000e+01
-3.340193748474121094e+00 -1.746953487396240012e+00 -7.327065467834472656e-01 1.200000000000000000e+01
-4.198287963867188388e+00 -2.193878889083861861e+00 -7.502596974372863770e-01 1.200000000000000000e+01
-5.667920112609863281e+00 -2.959339380264281782e+00 -7.850822806358337402e-01 8.000000000000000000e+00
-8.510065078735351562e+00 -4.441392421722412109e+00 -8.398327231407165527e-01 9.000000000000000000e+00
-1.117644119262694957e+01 -5.828007698059082031e+00 -6.605844497680664062e-01 2.700000000000000000e+01
-4.655428695678710938e+01 -2.425528526306151988e+01 -9.162862300872802734e-01 1.400000000000000000e+01
-2.381449460983275923e+00 -1.236536264419556108e+00 -7.189993262290954590e-01 1.900000000000000000e+01
-2.793640375137329102e+00 -1.449323058128356934e+00 -7.265918850898742676e-01 1.300000000000000000e+01
-3.349757194519042969e+00 -1.737090945243835005e+00 -7.334697842597961426e-01 1.100000000000000000e+01
-4.195396900177001953e+00 -2.173758268356322798e+00 -7.483825087547302246e-01 1.200000000000000000e+01
-5.678215980529785156e+00 -2.939536571502685991e+00 -7.850822806358337402e-01 8.000000000000000000e+00
-8.585680007934570312e+00 -4.442792415618895596e+00 -8.457593321800231934e-01 9.000000000000000000e+00
-1.122332859039306996e+01 -5.802718162536621094e+00 -6.621544957160949707e-01 2.300000000000000000e+01
-2.396056890487670898e+00 -1.233521342277527078e+00 -7.221051454544067383e-01 1.900000000000000000e+01
-2.790017843246459961e+00 -1.435105800628662109e+00 -7.243424057960510254e-01 1.200000000000000000e+01
-3.347070455551147017e+00 -1.720898985862731934e+00 -7.315616607666015625e-01 1.200000000000000000e+01
-4.202959060668945312e+00 -2.159100294113159180e+00 -7.483825087547302246e-01 1.200000000000000000e+01
-5.674313545227050781e+00 -2.912446260452270952e+00 -7.831323742866516113e-01 7.000000000000000000e+00
-8.627726554870605469e+00 -4.426437854766845703e+00 -8.483740091323852539e-01 1.100000000000000000e+01
-1.129861354827881037e+01 -5.791749954223632812e+00 -6.653993725776672363e-01 1.900000000000000000e+01
-4.661569213867188211e+01 -2.387499237060546875e+01 -9.141919612884521484e-01 1.400000000000000000e+01
-2.402068853378295898e+00 -1.226028323173522949e+00 -7.226227521896362305e-01 1.700000000000000000e+01
-2.800218343734741211e+00 -1.428013920783997026e+00 -7.256920933723449707e-01 1.300000000000000000e+01
-3.351307868957519975e+00 -1.708313465118407981e+00 -7.311800718307495117e-01 1.200000000000000000e+01
-4.213990688323974609e+00 -2.146209239959716797e+00 -7.490082383155822754e-01 1.200000000000000000e+01
-5.677368640899658203e+00 -2.889020442962646040e+00 -7.821574211120605469e-01 8.000000000000000000e+00
-8.699953079223632812e+00 -4.425199508666992188e+00 -8.539519906044006348e-01 7.000000000000000000e+00
-1.146832561492919922e+01 -5.828284263610839844e+00 -6.741917729377746582e-01 1.100000000000000000e+01
-4.667378616333007812e+01 -2.369945335388183949e+01 -9.137032628059387207e-01 1.400000000000000000e+01
-2.399438858032227007e+00 -1.214147090911865012e+00 -7.205522060394287109e-01 1.900000000000000000e+01
-2.799968719482421875e+00 -1.415592908859252930e+00 -7.243424057960510254e-01 1.200000000000000000e+01
-3.353746175765991211e+00 -1.694833874702454057e+00 -7.304168343544006348e-01 1.100000000000000000e+01
-4.224983215332031250e+00 -2.133267164230347124e+00 -7.496339678764343262e-01 1.200000000000000000e+01
-5.692735671997070312e+00 -2.871867418289185014e+00 -7.828886508941650391e-01 8.000000000000000000e+00
-8.736694335937500000e+00 -4.405569076538085938e+00 -8.560436964035034180e-01 5.000000000000000000e+00
-1.160632228851318004e+01 -5.847527980804443359e+00 -6.811001300811767578e-01 1.200000000000000000e+01
-4.673479461669921875e+01 -2.352559661865234020e+01 -9.132844209671020508e-01 1.400000000000000000e+01
-2.396755456924438032e+00 -1.202299237251281960e+00 -7.184816598892211914e-01 1.900000000000000000e+01
-2.820572614669799805e+00 -1.413669228553771973e+00 -7.283915281295776367e-01 1.300000000000000000e+01
-3.357886552810668945e+00 -1.682237386703490989e+00 -7.300352454185485840e-01 1.000000000000000000e+01
-4.225338459014892578e+00 -2.114969491958618164e+00 -7.483825087547302246e-01 1.200000000000000000e+01
-5.699174880981445312e+00 -2.850202798843383789e+00 -7.824012041091918945e-01 8.000000000000000000e+00
-8.778751373291015625e+00 -4.388408660888671875e+00 -8.586583733558654785e-01 7.000000000000000000e+00
-1.161594200134276988e+01 -5.801624298095703125e+00 -6.804720759391784668e-01 8.000000000000000000e+00
-4.679158020019531250e+01 -2.334981918334960938e+01 -9.127957820892333984e-01 1.400000000000000000e+01
-2.400937557220458984e+00 -1.193925738334655984e+00 -7.184816598892211914e-01 1.900000000000000000e+01
-2.813273429870605025e+00 -1.397745251655579057e+00 -7.252421975135803223e-01 1.200000000000000000e+01
-3.369013309478760210e+00 -1.673125624656677024e+00 -7.311800718307495117e-01 1.100000000000000000e+01
-4.227386474609375000e+00 -2.097573280334473100e+00 -7.474438548088073730e-01 1.100000000000000000e+01
-5.712646007537841797e+00 -2.832054853439331055e+00 -7.828886508941650391e-01 1.000000000000000000e+01
-8.772593498229980469e+00 -4.347122669219970703e+00 -8.565666675567626953e-01 3.000000000000000000e+00
-1.163433361053466975e+01 -5.760155200958251953e+00 -6.803674101829528809e-01 1.600000000000000000e+01
-4.691581726074218750e+01 -2.320762252807616832e+01 -9.136334657669067383e-01 1.400000000000000000e+01
-2.404883623123168945e+00 -1.185957312583922896e+00 -7.184816598892211914e-01 2.000000000000000000e+01
-2.819641113281250000e+00 -1.389269828796386941e+00 -7.256920933723449707e-01 1.300000000000000000e+01
-3.383349180221558061e+00 -1.666281461715698020e+00 -7.330881357192993164e-01 1.000000000000000000e+01
-4.223684787750244141e+00 -2.078310489654541016e+00 -7.455666661262512207e-01 1.100000000000000000e+01
-5.707754611968994141e+00 -2.806089162826538086e+00 -7.809387445449829102e-01 1.000000000000000000e+01
-8.783385276794433594e+00 -4.316250324249267578e+00 -8.562180399894714355e-01 3.000000000000000000e+00
-1.173225498199463068e+01 -5.760273456573486328e+00 -6.849730014801025391e-01 1.200000000000000000e+01
-4.685966491699218750e+01 -2.298674583435058949e+01 -9.110504984855651855e-01 1.400000000000000000e+01
-2.422893524169921875e+00 -1.184342622756958008e+00 -7.226227521896362305e-01 1.800000000000000000e+01
-2.819220304489136186e+00 -1.376853346824645996e+00 -7.243424057960510254e-01 1.200000000000000000e+01
-3.373266696929932085e+00 -1.646709918975830078e+00 -7.296535968780517578e-01 1.100000000000000000e+01
-4.238015174865722656e+00 -2.067018270492554155e+00 -7.468181252479553223e-01 1.100000000000000000e+01
-5.706808090209960938e+00 -2.780930757522583008e+00 -7.794763445854187012e-01 9.000000000000000000e+00
-8.805562973022460938e+00 -4.289053916931152344e+00 -8.569152355194091797e-01 3.000000000000000000e+00
-1.190494155883789062e+01 -5.793572902679443359e+00 -6.938701272010803223e-01 8.000000000000000000e+00
-4.697198867797852273e+01 -2.283877372741698863e+01 -9.116787910461425781e-01 1.400000000000000000e+01
-2.416581630706787109e+00 -1.170823931694030984e+00 -7.195169329643249512e-01 1.900000000000000000e+01
-2.825763225555419922e+00 -1.367853164672852007e+00 -7.247923016548156738e-01 1.200000000000000000e+01
-3.375459671020507812e+00 -1.633214831352234109e+00 -7.288903594017028809e-01 1.100000000000000000e+01
-4.246983051300048828e+00 -2.053071975708007812e+00 -7.471309900283813477e-01 1.200000000000000000e+01
-5.730780601501464844e+00 -2.767899990081787109e+00 -7.814262509346008301e-01 8.000000000000000000e+00
-8.795361518859863281e+00 -4.246163845062255859e+00 -8.544749021530151367e-01 1.000000000000000000e+00
-1.197726058959960938e+01 -5.777144908905029297e+00 -6.969056129455566406e-01 1.600000000000000000e+01
-4.696495819091796875e+01 -2.263300132751464844e+01 -9.100033640861511230e-01 1.400000000000000000e+01
-2.417170763015747070e+00 -1.160708904266356978e+00 -7.184816598892211914e-01 2.000000000000000000e+01
-2.832277774810791016e+00 -1.358824014663696067e+00 -7.252421975135803223e-01 1.100000000000000000e+01
-3.382910251617432085e+00 -1.622271180152893066e+00 -7.292720079421997070e-01 1.100000000000000000e+01
-4.252342700958251953e+00 -2.037381172180175781e+00 -7.468181252479553223e-01 1.100000000000000000e+01
-5.731454849243164062e+00 -2.743593454360961914e+00 -7.802075147628784180e-01 7.000000000000000000e+00
-8.817318916320800781e+00 -4.218876361846923828e+00 -8.551721572875976562e-01 1.000000000000000000e+00
-1.202978897094726918e+01 -5.750806808471679688e+00 -6.987897157669067383e-01 1.200000000000000000e+01
-4.700758743286132812e+01 -2.245168876647948863e+01 -9.093052744865417480e-01 1.400000000000000000e+01
-2.419664382934569868e+00 -1.151011824607848899e+00 -7.179640531539916992e-01 2.100000000000000000e+01
-2.837239027023314986e+00 -1.348434090614319070e+00 -7.252421975135803223e-01 1.100000000000000000e+01
-3.399473428726195845e+00 -1.614915847778320090e+00 -7.315616607666015625e-01 1.200000000000000000e+01
-4.252643108367919922e+00 -2.018393754959106001e+00 -7.455666661262512207e-01 1.100000000000000000e+01
-5.757615089416503906e+00 -2.730223178863524947e+00 -7.824012041091918945e-01 8.000000000000000000e+00
-8.825520515441894531e+00 -4.183117389678955078e+00 -8.544749021530151367e-01 1.000000000000000000e+00
-1.211757373809813920e+01 -5.738304615020751953e+00 -7.026625275611877441e-01 1.200000000000000000e+01
-4.703171920776367188e+01 -2.225188064575194957e+01 -9.081883430480957031e-01 1.400000000000000000e+01
-2.423667430877685991e+00 -1.142558693885803001e+00 -7.179640531539916992e-01 2.100000000000000000e+01
-2.829587697982788086e+00 -1.332709550857543945e+00 -7.220928668975830078e-01 1.200000000000000000e+01
-3.403313636779785156e+00 -1.602203369140625000e+00 -7.311800718307495117e-01 1.300000000000000000e+01
-4.252512454986572266e+00 -2.000174045562744141e+00 -7.443152070045471191e-01 1.100000000000000000e+01
-5.745550632476806641e+00 -2.699977397918701172e+00 -7.794763445854187012e-01 9.000000000000000000e+00
-8.832855224609375000e+00 -4.148896694183349609e+00 -8.537776470184326172e-01 1.000000000000000000e+00
-1.223155021667479936e+01 -5.740093231201171875e+00 -7.081055045127868652e-01 2.000000000000000000e+01
-4.709281158447266336e+01 -2.207993316650390980e+01 -9.078741669654846191e-01 1.400000000000000000e+01
-2.434642076492310014e+00 -1.137362122535706010e+00 -7.200345993041992188e-01 1.900000000000000000e+01
-2.839520215988159180e+00 -1.325296878814697044e+00 -7.234426140785217285e-01 1.100000000000000000e+01
-3.401768922805786133e+00 -1.586993813514709029e+00 -7.296535968780517578e-01 1.100000000000000000e+01
-4.263049602508544922e+00 -1.986986875534058061e+00 -7.449409365653991699e-01 1.200000000000000000e+01
-5.744143486022949219e+00 -2.674877166748046875e+00 -7.780138850212097168e-01 9.000000000000000000e+00
-8.800319671630859375e+00 -4.096179485321044922e+00 -8.492455482482910156e-01 1.000000000000000000e+00
-1.231308650970458984e+01 -5.725996494293212891e+00 -7.116643190383911133e-01 1.200000000000000000e+01
-4.706441116333007812e+01 -2.186654472351073863e+01 -9.058496952056884766e-01 1.400000000000000000e+01
-2.433337926864624023e+00 -1.126422166824341042e+00 -7.184816598892211914e-01 2.000000000000000000e+01
-2.849435329437255859e+00 -1.317831158638000044e+00 -7.247923016548156738e-01 1.300000000000000000e+01
-3.396595478057860884e+00 -1.570166945457458052e+00 -7.273638844490051270e-01 1.200000000000000000e+01
-4.273546218872070312e+00 -1.973750472068787065e+00 -7.455666661262512207e-01 1.100000000000000000e+01
-5.749840259552001953e+00 -2.653146743774414062e+00 -7.775264382362365723e-01 9.000000000000000000e+00
-8.832656860351562500e+00 -4.073780059814453125e+00 -8.509886860847473145e-01 1.000000000000000000e+00
-1.244183540344237926e+01 -5.733131885528563565e+00 -7.179446220397949219e-01 4.000000000000000000e+00
-4.704963302612304688e+01 -2.166031455993651988e+01 -9.041044712066650391e-01 1.400000000000000000e+01
-2.426719427108765093e+00 -1.113088846206665039e+00 -7.153758406639099121e-01 2.000000000000000000e+01
-4.849235916137695312e+01 -2.223225593566894887e+01 9.311556816101074219e-01 6.300000000000000000e+01
-2.857561111450194868e+00 -1.309500336647033913e+00 -7.256920933723449707e-01 1.200000000000000000e+01
-3.412765264511107954e+00 -1.563206553459167036e+00 -7.296535968780517578e-01 1.100000000000000000e+01
-4.284002304077148438e+00 -1.960464954376220925e+00 -7.461923956871032715e-01 1.100000000000000000e+01
-5.762677192687988281e+00 -2.634710788726807085e+00 -7.780138850212097168e-01 9.000000000000000000e+00
-8.817829132080078125e+00 -4.029673576354979581e+00 -8.481996655464172363e-01 1.000000000000000000e+00
-1.253808021545409979e+01 -5.724506855010986328e+00 -7.223408818244934082e-01 8.000000000000000000e+00
-4.708856582641602273e+01 -2.147934913635253906e+01 -9.034063816070556641e-01 1.400000000000000000e+01
-2.432348728179932085e+00 -1.105410456657409890e+00 -7.158935070037841797e-01 2.200000000000000000e+01
-4.856967163085938211e+01 -2.206285095214844105e+01 9.311556816101074219e-01 6.300000000000000000e+01
-2.849694013595581055e+00 -1.293878078460692915e+00 -7.225427627563476562e-01 1.200000000000000000e+01
-3.414625644683837891e+00 -1.549661517143249956e+00 -7.288903594017028809e-01 1.100000000000000000e+01
-4.265632152557373047e+00 -1.934078931808471902e+00 -7.418122291564941406e-01 1.100000000000000000e+01
-5.771839141845703125e+00 -2.614579200744628906e+00 -7.780138850212097168e-01 1.100000000000000000e+01
-8.860881805419921875e+00 -4.012017726898193359e+00 -8.509886860847473145e-01 1.000000000000000000e+00
-1.261621761322020951e+01 -5.707047462463378906e+00 -7.256903648376464844e-01 8.000000000000000000e+00
-4.707943344116210938e+01 -2.127696609497069957e+01 -9.018007516860961914e-01 1.400000000000000000e+01
-2.446569442749022993e+00 -1.102099180221558061e+00 -7.189993262290954590e-01 2.100000000000000000e+01
-2.857522964477539062e+00 -1.286020636558532937e+00 -7.234426140785217285e-01 1.200000000000000000e+01
-3.426907539367675781e+00 -1.541551351547240989e+00 -7.304168343544006348e-01 1.100000000000000000e+01
-4.275625705718994141e+00 -1.921542406082153098e+00 -7.424379587173461914e-01 1.100000000000000000e+01
-5.765990257263183594e+00 -2.588919878005981001e+00 -7.760639786720275879e-01 9.000000000000000000e+00
-8.848689079284667969e+00 -3.971190929412841797e+00 -8.485482931137084961e-01 1.000000000000000000e+00
-1.262413883209229049e+01 -5.660276412963867188e+00 -7.250623106956481934e-01 1.600000000000000000e+01
-4.721543121337891336e+01 -2.115015792846680043e+01 -9.030573368072509766e-01 1.400000000000000000e+01
-2.450401544570922852e+00 -1.093552231788635032e+00 -7.189993262290954590e-01 1.900000000000000000e+01
-2.854875326156616211e+00 -1.272863864898682085e+00 -7.216429710388183594e-01 1.200000000000000000e+01
-3.421508073806763139e+00 -1.524784922599792036e+00 -7.281271219253540039e-01 1.200000000000000000e+01
-4.293134689331054688e+00 -1.911426782608032005e+00 -7.443152070045471191e-01 1.100000000000000000e+01
-5.774991989135742188e+00 -2.568777084350585938e+00 -7.760639786720275879e-01 1.100000000000000000e+01
-8.887985229492187500e+00 -3.951611042022705078e+00 -8.509886860847473145e-01 1.000000000000000000e+00
-1.271683120727539062e+01 -5.648605823516845703e+00 -7.292492389678955078e-01 1.200000000000000000e+01
-4.720489120483397727e+01 -2.094790458679198863e+01 -9.014517068862915039e-01 1.400000000000000000e+01
-2.448903083801269975e+00 -1.082648754119873047e+00 -7.174463868141174316e-01 2.000000000000000000e+01
-2.861083507537841797e+00 -1.263678073883057085e+00 -7.220928668975830078e-01 1.200000000000000000e+01
-3.423217773437500000e+00 -1.511246562004088911e+00 -7.273638844490051270e-01 1.200000000000000000e+01
-4.299780845642089844e+00 -1.896429300308227983e+00 -7.443152070045471191e-01 1.200000000000000000e+01
-5.773024082183837891e+00 -2.543800354003905806e+00 -7.746015191078186035e-01 9.000000000000000000e+00
-8.861610412597656250e+00 -3.902894735336304155e+00 -8.471538424491882324e-01 3.000000000000000000e+00
-1.282056427001952947e+01 -5.641183376312255859e+00 -7.340641021728515625e-01 1.200000000000000000e+01
-4.714225769042968750e+01 -2.072345161437987926e+01 -8.988687396049499512e-01 1.400000000000000000e+01
-2.452667236328125000e+00 -1.074093818664551003e+00 -7.174463868141174316e-01 2.000000000000000000e+01
-2.870833396911621094e+00 -1.256026744842529075e+00 -7.234426140785217285e-01 1.200000000000000000e+01
-3.428472042083739790e+00 -1.499288082122802956e+00 -7.273638844490051270e-01 1.100000000000000000e+01
-4.295513629913330078e+00 -1.876663684844970925e+00 -7.424379587173461914e-01 1.100000000000000000e+01
-5.789145946502686435e+00 -2.526809453964232954e+00 -7.755764722824096680e-01 1.100000000000000000e+01
-8.886137008666992188e+00 -3.876718282699584961e+00 -8.481996655464172363e-01 1.000000000000000000e+00
-1.287679576873778942e+01 -5.612357139587402344e+00 -7.361575365066528320e-01 8.000000000000000000e+00
-5.155528640747070312e+01 -2.243827819824219105e+01 1.506585693359375000e+01 1.900000000000000000e+01
-2.447540283203125000e+00 -1.061681985855102983e+00 -7.148581743240356445e-01 1.900000000000000000e+01
-2.873412132263184038e+00 -1.245223045349121094e+00 -7.229927182197570801e-01 1.200000000000000000e+01
-3.439089298248291016e+00 -1.489652276039123979e+00 -7.285087704658508301e-01 1.200000000000000000e+01
-4.300225257873535156e+00 -1.860873579978943093e+00 -7.421250939369201660e-01 1.200000000000000000e+01
-5.039738082885742188e+01 -2.179845046997069957e+01 6.742055892944335938e+00 5.800000000000000000e+01
-5.801575183868408203e+00 -2.508161783218383789e+00 -7.760639786720275879e-01 1.100000000000000000e+01
-8.877668380737304688e+00 -3.836192607879639116e+00 -8.461079597473144531e-01 1.000000000000000000e+00
-1.294948482513427912e+01 -5.590331077575683594e+00 -7.391930222511291504e-01 1.200000000000000000e+01
-4.728578567504882812e+01 -2.039383506774901988e+01 -8.988687396049499512e-01 1.400000000000000000e+01
-2.453006267547606978e+00 -1.053894639015197976e+00 -7.153758406639099121e-01 1.900000000000000000e+01
-2.861624479293822798e+00 -1.228267788887023926e+00 -7.189435958862304688e-01 1.200000000000000000e+01
-3.444268226623535156e+00 -1.477638602256774902e+00 -7.285087704658508301e-01 1.200000000000000000e+01
-4.306694507598876953e+00 -1.845851659774780051e+00 -7.421250939369201660e-01 1.200000000000000000e+01
-5.788396835327148438e+00 -2.478518724441527876e+00 -7.731391191482543945e-01 9.000000000000000000e+00
-8.891004562377929688e+00 -3.805180311203002930e+00 -8.461079597473144531e-01 1.000000000000000000e+00
-1.294321060180664062e+01 -5.534101963043212891e+00 -7.377276420593261719e-01 1.200000000000000000e+01
-5.281619644165039062e+01 -2.257161140441894887e+01 1.326041507720947088e+01 1.900000000000000000e+01
-5.066576004028320312e+01 -2.164213943481444957e+01 1.476252079010009943e+01 1.900000000000000000e+01
-2.465558052062987837e+00 -1.049107551574707031e+00 -7.179640531539916992e-01 1.900000000000000000e+01
-2.880241870880126953e+00 -1.224370360374450906e+00 -7.225427627563476562e-01 1.100000000000000000e+01
-3.442177534103393999e+00 -1.462535858154297097e+00 -7.269822955131530762e-01 1.200000000000000000e+01
-4.313111782073974609e+00 -1.830807209014893022e+00 -7.421250939369201660e-01 1.200000000000000000e+01
-5.787875175476074219e+00 -2.454423189163208008e+00 -7.719204425811767578e-01 1.100000000000000000e+01
-8.889557838439941406e+00 -3.767901420593262163e+00 -8.447134494781494141e-01 1.000000000000000000e+00
-1.301394557952881037e+01 -5.510694026947020596e+00 -7.406584620475769043e-01 1.700000000000000000e+01
-5.089776611328125000e+01 -2.152099800109862926e+01 1.480703735351563033e+01 1.900000000000000000e+01
-2.465644598007202148e+00 -1.038994431495666948e+00 -7.169287800788879395e-01 1.400000000000000000e+01
-2.877313852310181108e+00 -1.211284518241882102e+00 -7.207431793212890625e-01 1.200000000000000000e+01
-3.441833019256591797e+00 -1.448227286338805930e+00 -7.258374094963073730e-01 1.200000000000000000e+01
-4.324939250946044922e+00 -1.818037033081054910e+00 -7.430636882781982422e-01 1.200000000000000000e+01
-5.807389259338378906e+00 -2.438816547393798828e+00 -7.733828425407409668e-01 1.100000000000000000e+01
-8.902656555175781250e+00 -3.736848115921020952e+00 -8.447134494781494141e-01 1.000000000000000000e+00
-1.305704689025879084e+01 -5.475274085998535156e+00 -7.420191764831542969e-01 2.500000000000000000e+01
-5.221994018554688211e+01 -2.186549377441405895e+01 1.516938400268555043e+01 2.000000000000000000e+01
-2.467653274536132812e+00 -1.029206752777100053e+00 -7.164111137390136719e-01 1.400000000000000000e+01
-2.896124839782714844e+00 -1.206726670265197976e+00 -7.243424057960510254e-01 1.200000000000000000e+01
-3.443493127822875977e+00 -1.434092998504638894e+00 -7.250741720199584961e-01 1.100000000000000000e+01
-4.326101779937744141e+00 -1.799896597862244096e+00 -7.421250939369201660e-01 1.200000000000000000e+01
-5.836452484130859375e+00 -2.425895929336547852e+00 -7.760639786720275879e-01 1.100000000000000000e+01
-8.879493713378906250e+00 -3.688905715942382812e+00 -8.412272334098815918e-01 1.000000000000000000e+00
-1.314343547821044922e+01 -5.454942703247070312e+00 -7.457873821258544922e-01 2.500000000000000000e+01
-5.125349426269531250e+01 -2.126134109497069957e+01 1.281051254272460938e+01 1.800000000000000000e+01
-2.478373050689696822e+00 -1.023536443710326926e+00 -7.184816598892211914e-01 1.300000000000000000e+01
-2.889510869979857954e+00 -1.192150592803955078e+00 -7.216429710388183594e-01 1.100000000000000000e+01
-3.452107906341553178e+00 -1.423561215400696023e+00 -7.258374094963073730e-01 1.100000000000000000e+01
-4.323225975036621094e+00 -1.781022548675537109e+00 -7.405607700347900391e-01 1.100000000000000000e+01
-5.819184780120849609e+00 -2.394931316375731978e+00 -7.726516127586364746e-01 1.100000000000000000e+01
-8.892316818237304688e+00 -3.657887935638428178e+00 -8.412272334098815918e-01 1.000000000000000000e+00
-1.314207649230957031e+01 -5.400679588317871094e+00 -7.446359992027282715e-01 1.200000000000000000e+01
-5.133489227294921875e+01 -2.106444168090819957e+01 1.486811923980713068e+01 1.900000000000000000e+01
-2.485329627990723100e+00 -1.016775250434875044e+00 -7.195169329643249512e-01 1.400000000000000000e+01
-2.882624864578247070e+00 -1.178138494491576926e+00 -7.189435958862304688e-01 1.100000000000000000e+01
-3.464079618453979048e+00 -1.415075421333312988e+00 -7.273638844490051270e-01 1.200000000000000000e+01
-4.329108238220214844e+00 -1.766676425933837891e+00 -7.405607700347900391e-01 1.200000000000000000e+01
-5.828933238983154297e+00 -2.376370429992675781e+00 -7.728953957557678223e-01 1.100000000000000000e+01
-8.915468215942382812e+00 -3.632890939712523970e+00 -8.422731161117553711e-01 1.000000000000000000e+00
-1.318211174011229936e+01 -5.366105556488037109e+00 -7.458920478820800781e-01 1.700000000000000000e+01
-2.488863706588745117e+00 -1.008093595504760964e+00 -7.195169329643249512e-01 1.200000000000000000e+01
-2.883106708526610884e+00 -1.166607141494750977e+00 -7.180437445640563965e-01 1.200000000000000000e+01
-3.461717844009398970e+00 -1.400030612945557085e+00 -7.258374094963073730e-01 1.100000000000000000e+01
-4.333417415618895596e+00 -1.750814318656920943e+00 -7.402479052543640137e-01 1.200000000000000000e+01
-5.826148033142089844e+00 -2.351551055908203125e+00 -7.714329361915588379e-01 1.100000000000000000e+01
-8.909618377685546875e+00 -3.594294071197510210e+00 -8.405299782752990723e-01 1.000000000000000000e+00
-1.311369609832764027e+01 -5.284969806671142578e+00 -7.409724593162536621e-01 8.000000000000000000e+00
-5.092867279052733664e+01 -2.049384880065917969e+01 1.470972156524658025e+01 1.900000000000000000e+01
-2.495953559875487837e+00 -1.000837683677672896e+00 -7.205522060394287109e-01 1.100000000000000000e+01
-2.898015499114989790e+00 -1.160884022712707964e+00 -7.207431793212890625e-01 1.100000000000000000e+01
-3.466583728790283203e+00 -1.387938380241394043e+00 -7.258374094963073730e-01 1.300000000000000000e+01
-4.352341175079345703e+00 -1.740812301635741965e+00 -7.424379587173461914e-01 1.100000000000000000e+01
-5.834320545196533203e+00 -2.331199884414672852e+00 -7.714329361915588379e-01 1.100000000000000000e+01
-5.219869613647460938e+01 -2.085685539245605113e+01 8.902997970581054688e+00 2.800000000000000000e+01
-8.892505645751953125e+00 -3.551348686218262163e+00 -8.377410173416137695e-01 1.000000000000000000e+00
-1.343258571624756037e+01 -5.359058380126953125e+00 -7.579293251037597656e-01 8.000000000000000000e+00
-5.106454849243164062e+01 -2.035202980041503906e+01 1.472939205169677912e+01 1.900000000000000000e+01
-2.490454196929932085e+00 -9.885554313659667969e-01 -7.179640531539916992e-01 1.100000000000000000e+01
-2.902050018310546875e+00 -1.150761008262634055e+00 -7.207431793212890625e-01 1.100000000000000000e+01
-3.456806421279906782e+00 -1.370042443275452104e+00 -7.227844595909118652e-01 1.100000000000000000e+01
-4.354718208312988281e+00 -1.724154829978943093e+00 -7.418122291564941406e-01 1.200000000000000000e+01
-5.842422485351563388e+00 -2.310820102691649947e+00 -7.714329361915588379e-01 1.100000000000000000e+01
-8.919671058654785156e+00 -3.526146173477172852e+00 -8.391354680061340332e-01 1.000000000000000000e+00
-1.350322437286376953e+01 -5.332678318023681641e+00 -7.608601450920104980e-01 8.000000000000000000e+00
-4.846109008789063211e+01 -1.911864852905273082e+01 -9.093402028083801270e-01 1.400000000000000000e+01
-2.497485637664794922e+00 -9.812690019607543945e-01 -7.189993262290954590e-01 1.100000000000000000e+01
-2.906049251556396040e+00 -1.140623927116394043e+00 -7.207431793212890625e-01 1.100000000000000000e+01
-3.472533464431763139e+00 -1.362269520759582964e+00 -7.250741720199584961e-01 1.100000000000000000e+01
