-5.485684871673583984e+00 -2.499191856384276988e+01 -1.340951919555664062e+00 1.100000000000000000e+01
-1.070970177650452104e+00 -4.818892478942871094e+00 -7.818594574928283691e-01 4.000000000000000000e+00
-1.548955202102660911e+00 -6.958144187927246094e+00 -8.752655982971191406e-01 1.000000000000000000e+00
-2.212703466415404829e+00 -9.931630134582519531e+00 -8.902087807655334473e-01 7.000000000000000000e+00
-5.587679862976074219e+00 -2.503889465332030895e+01 -1.344510674476623979e+00 1.100000000000000000e+01
-1.088655352592468040e+00 -4.818978309631347656e+00 -7.824851870536804199e-01 6.000000000000000000e+00
-1.570605635643004927e+00 -6.941078186035156250e+00 -8.738031983375549316e-01 3.000000000000000000e+00
-2.249117851257324219e+00 -9.931617736816406250e+00 -8.909059762954711914e-01 5.000000000000000000e+00
-5.673280715942382812e+00 -2.501144599914551137e+01 -1.344092011451720969e+00 2.300000000000000000e+01
-1.107680082321166992e+00 -4.824775218963623047e+00 -7.840495109558105469e-01 7.000000000000000000e+00
-1.593490362167357954e+00 -6.929749488830566406e+00 -8.730719685554504395e-01 3.000000000000000000e+00
-2.303879737854003906e+00 -1.001108074188232067e+01 -8.987500071525573730e-01 4.000000000000000000e+00
-5.765935420989990234e+00 -2.501484489440917969e+01 -1.345348119735717995e+00 2.300000000000000000e+01
-1.118171334266663042e+00 -4.789904594421386719e+00 -7.790436148643493652e-01 7.000000000000000000e+00
-1.615714788436890093e+00 -6.910331726074218750e+00 -8.713657855987548828e-01 1.000000000000000000e+00
-2.281543254852294922e+00 -9.750370979309082031e+00 -8.760895133018493652e-01 3.000000000000000000e+00
-5.861226558685302734e+00 -2.500909996032714844e+01 -1.346185445785522017e+00 2.300000000000000000e+01
-1.132149696350098100e+00 -4.774439811706542969e+00 -7.771664261817932129e-01 7.000000000000000000e+00
-1.642578721046447976e+00 -6.916238307952880859e+00 -8.728282451629638672e-01 3.000000000000000000e+00
-2.314182519912720171e+00 -9.736532211303710938e+00 -8.755666017532348633e-01 7.000000000000000000e+00
-5.942938804626464844e+00 -2.496517181396484020e+01 -1.344929456710814986e+00 1.100000000000000000e+01
-1.147605299949645996e+00 -4.772779941558837891e+00 -7.774792909622192383e-01 9.000000000000000000e+00
-1.668016672134398970e+00 -6.926483154296875000e+00 -8.747781515121459961e-01 1.000000000000000000e+00
-2.368566274642943892e+00 -9.827997207641601562e+00 -8.844564557075500488e-01 5.000000000000000000e+00
-6.025088787078857422e+00 -2.496191215515137074e+01 -1.345766782760619895e+00 1.100000000000000000e+01
-1.167069435119628906e+00 -4.780259132385253906e+00 -7.793564796447753906e-01 9.000000000000000000e+00
-1.686055064201354980e+00 -6.895550727844238281e+00 -8.716095685958862305e-01 3.000000000000000000e+00
-2.422747611999512163e+00 -9.900952339172363281e+00 -8.917775750160217285e-01 7.000000000000000000e+00
-6.124545574188232422e+00 -2.499116325378417969e+01 -1.348488211631774902e+00 1.100000000000000000e+01
-1.183273315429687944e+00 -4.774238586425781250e+00 -7.790436148643493652e-01 9.000000000000000000e+00
-1.705810666084289995e+00 -6.872283458709716797e+00 -8.694158792495727539e-01 3.000000000000000000e+00
-2.366994380950928178e+00 -9.528912544250488281e+00 -8.590070009231567383e-01 3.000000000000000000e+00
-6.219458580017089844e+00 -2.500064468383789062e+01 -1.350162982940674050e+00 1.200000000000000000e+01
-1.198003768920897993e+00 -4.762416362762451172e+00 -7.777921557426452637e-01 9.000000000000000000e+00
-1.146820831298827947e+01 -4.555588150024414062e+01 5.768075942993164062e+00 4.400000000000000000e+01
-1.736093282699584961e+00 -6.891311645507813388e+00 -8.725845217704772949e-01 3.000000000000000000e+00
-2.389526605606079102e+00 -9.478090286254882812e+00 -8.551721572875976562e-01 3.000000000000000000e+00
-6.292021274566650391e+00 -2.492068672180176137e+01 -1.347022891044616921e+00 1.100000000000000000e+01
-1.213984131813049094e+00 -4.752251625061035156e+00 -7.768535614013671875e-01 9.000000000000000000e+00
-1.757895588874816895e+00 -6.871439933776854581e+00 -8.708783388137817383e-01 1.000000000000000000e+00
-2.384718418121337891e+00 -9.314856529235839844e+00 -8.412272334098815918e-01 6.000000000000000000e+00
-6.403158664703369141e+00 -2.497484588623046875e+01 -1.351209759712219016e+00 1.200000000000000000e+01
-1.233043074607848899e+00 -4.757546424865722656e+00 -7.784178853034973145e-01 9.000000000000000000e+00
-1.780873298645019975e+00 -6.861419200897216797e+00 -8.703908324241638184e-01 3.000000000000000000e+00
-2.419723033905028853e+00 -9.316118240356445312e+00 -8.420987725257873535e-01 9.000000000000000000e+00
-6.501358985900878906e+00 -2.499486732482910156e+01 -1.353512525558471902e+00 1.200000000000000000e+01
-1.248964309692383035e+00 -4.747263908386229581e+00 -7.774792909622192383e-01 9.000000000000000000e+00
-1.798423528671265093e+00 -6.826052188873291016e+00 -8.667347431182861328e-01 3.000000000000000000e+00
-2.451820373535155806e+00 -9.299480438232421875e+00 -8.414015173912048340e-01 9.000000000000000000e+00
-6.589867115020751953e+00 -2.495928382873535156e+01 -1.352884411811829057e+00 1.200000000000000000e+01
-1.267564773559570090e+00 -4.750509738922119141e+00 -7.787307500839233398e-01 9.000000000000000000e+00
-1.827876806259155051e+00 -6.840828895568847656e+00 -8.694158792495727539e-01 1.000000000000000000e+00
-2.480664014816284180e+00 -9.277392387390136719e+00 -8.401813507080078125e-01 1.000000000000000000e+00
-6.677984237670898438e+00 -2.493998718261719105e+01 -1.353093862533568892e+00 1.200000000000000000e+01
-1.283311128616333008e+00 -4.746280193328857422e+00 -7.787307500839233398e-01 9.000000000000000000e+00
-1.838100671768188032e+00 -6.788743495941162109e+00 -8.635661602020263672e-01 4.000000000000000000e+00
-2.491615772247314009e+00 -9.196039199829101562e+00 -8.335575461387634277e-01 1.000000000000000000e+00
-6.782617092132568359e+00 -2.499866294860839844e+01 -1.357490062713623047e+00 1.200000000000000000e+01
-1.296737432479857954e+00 -4.730340957641601562e+00 -7.768535614013671875e-01 9.000000000000000000e+00
-1.187624359130859020e+01 -4.329346466064453125e+01 5.512150287628173828e+00 3.700000000000000000e+01
-1.858108162879944070e+00 -6.768885612487792969e+00 -8.618599772453308105e-01 9.000000000000000000e+00
-2.523700714111328125e+00 -9.187285423278808594e+00 -8.335575461387634277e-01 1.000000000000000000e+00
-6.857124328613281250e+00 -2.492861747741698863e+01 -1.354977965354918990e+00 1.200000000000000000e+01
-1.313473820686340110e+00 -4.729821681976318359e+00 -7.774792909622192383e-01 9.000000000000000000e+00
-1.874694347381592019e+00 -6.741649150848388672e+00 -8.591789007186889648e-01 1.100000000000000000e+01
-6.944041728973388672e+00 -2.492113304138183949e+01 -1.355815291404723899e+00 1.200000000000000000e+01
-1.344037914276123047e+01 -4.820298385620117188e+01 1.155303668975830078e+01 1.500000000000000000e+01
-1.332651972770690918e+00 -4.734715461730957031e+00 -7.790436148643493652e-01 7.000000000000000000e+00
-1.885830044746398926e+00 -6.691119194030761719e+00 -8.535729050636291504e-01 1.100000000000000000e+01
-7.012534618377686435e+00 -2.483139228820801137e+01 -1.352256417274475098e+00 1.200000000000000000e+01
-1.339657783508300959e+01 -4.740565490722656250e+01 1.137307548522949041e+01 1.400000000000000000e+01
-1.352449536323546919e+00 -4.735261917114257812e+00 -7.799822688102722168e-01 9.000000000000000000e+00
-1.908233165740967019e+00 -6.672377109527587891e+00 -8.521104454994201660e-01 1.100000000000000000e+01
-3.238612413406372070e+00 -1.131674385070800959e+01 -1.029832243919373003e+00 2.000000000000000000e+00
-7.135337829589843750e+00 -2.490028190612792969e+01 -1.357490062713623047e+00 1.200000000000000000e+01
-1.365675687789916992e+00 -4.719126701354979581e+00 -7.781050205230712891e-01 9.000000000000000000e+00
-1.927092552185059038e+00 -6.650422573089599609e+00 -8.501605391502380371e-01 8.000000000000000000e+00
-7.230009078979492188e+00 -2.490207481384276988e+01 -1.358955383300781028e+00 1.200000000000000000e+01
-1.363498020172118963e+01 -4.693190765380858664e+01 1.128309535980224965e+01 1.400000000000000000e+01
-1.381028771400452104e+00 -4.710539817810058594e+00 -7.774792909622192383e-01 9.000000000000000000e+00
-1.946381092071532981e+00 -6.630321979522705078e+00 -8.484543561935424805e-01 6.000000000000000000e+00
-3.302938699722290039e+00 -1.124415588378906072e+01 -1.025300145149230957e+00 2.000000000000000000e+00
-7.330415248870849609e+00 -2.492267227172851918e+01 -1.361467599868773970e+00 1.200000000000000000e+01
-1.379871940612792969e+01 -4.688402938842772727e+01 1.128309535980224965e+01 1.400000000000000000e+01
-1.389590144157409890e+00 -4.679179668426513672e+00 -7.730991244316101074e-01 9.000000000000000000e+00
-1.940092325210571067e+00 -6.524544239044188565e+00 -8.357799649238586426e-01 6.000000000000000000e+00
-3.330804109573363814e+00 -1.119436550140381037e+01 -1.021813869476317915e+00 2.000000000000000000e+00
-7.427631378173828125e+00 -2.493138694763183949e+01 -1.363351702690124956e+00 1.200000000000000000e+01
-1.409966468811034934e+00 -4.693709373474121094e+00 -7.762278318405151367e-01 9.000000000000000000e+00
-1.938281416893004927e+00 -6.444279193878173828e+00 -8.262741565704345703e-01 5.000000000000000000e+00
-7.513986587524414062e+00 -2.493470191955566051e+01 -1.364817023277282937e+00 1.200000000000000000e+01
-8.770842552185058594e+00 -2.888636589050292969e+01 1.582116007804871050e+00 1.500000000000000000e+01
-1.426916837692260964e+00 -4.690649032592773438e+00 -7.765406966209411621e-01 1.000000000000000000e+01
-1.945147633552551047e+00 -6.386202335357666016e+00 -8.196932077407836914e-01 1.000000000000000000e+01
-7.595149993896484375e+00 -2.488921928405762074e+01 -1.363770365715027078e+00 1.200000000000000000e+01
-1.422995948791504084e+01 -4.657316970825195312e+01 -8.500369191169738770e-01 1.300000000000000000e+01
-1.151088237762450950e+00 -3.741670846939086914e+00 -7.609462738037109375e-01 1.000000000000000000e+00
-1.443863034248352051e+00 -4.687527656555175781e+00 -7.768535614013671875e-01 9.000000000000000000e+00
-1.941686749458312988e+00 -6.295908451080322266e+00 -8.089687228202819824e-01 1.000000000000000000e+01
-7.691416740417479581e+00 -2.489308738708496094e+01 -1.365445137023926003e+00 1.200000000000000000e+01
-1.442081069946289062e+01 -4.661491012573242188e+01 -8.517123460769653320e-01 1.300000000000000000e+01
-1.167061209678649902e+00 -3.747002124786376953e+00 -7.628543376922607422e-01 1.000000000000000000e+00
-1.459040641784667969e+00 -4.678687095642089844e+00 -7.762278318405151367e-01 9.000000000000000000e+00
-1.951819062232970969e+00 -6.251194953918457031e+00 -8.040939569473266602e-01 1.000000000000000000e+01
-3.457931756973267046e+00 -1.106811237335205078e+01 -1.014492869377136008e+00 2.000000000000000000e+00
-7.768723011016845703e+00 -2.483558845520019887e+01 -1.363770365715027078e+00 1.200000000000000000e+01
-1.181314349174499956e+00 -3.746650218963623047e+00 -7.636175751686096191e-01 3.000000000000000000e+00
-1.471795439720154031e+00 -4.662263393402099609e+00 -7.743505835533142090e-01 9.000000000000000000e+00
-1.952090859413146973e+00 -6.176203250885009766e+00 -7.953193187713623047e-01 1.200000000000000000e+01
-3.521778345108031782e+00 -1.113576030731200994e+01 -1.021813869476317915e+00 2.000000000000000000e+00
-7.852956295013427734e+00 -2.480070304870605113e+01 -1.363351702690124956e+00 1.200000000000000000e+01
-9.042216300964355469e+00 -2.836719131469726918e+01 5.196977853775024414e-01 2.000000000000000000e+01
-1.184835076332092063e+00 -3.712578773498535156e+00 -7.575117349624633789e-01 5.000000000000000000e+00
-1.492870688438415971e+00 -4.672150611877441406e+00 -7.768535614013671875e-01 9.000000000000000000e+00
-1.948838949203490989e+00 -6.091832637786865234e+00 -7.853260636329650879e-01 1.200000000000000000e+01
-3.572776079177856001e+00 -1.116134929656982067e+01 -1.025300145149230957e+00 2.000000000000000000e+00
-7.935821533203125000e+00 -2.476172828674316051e+01 -1.362723588943481001e+00 1.200000000000000000e+01
-1.468580627441406072e+01 -4.579584884643554688e+01 1.110313415527343928e+01 1.400000000000000000e+01
-1.196623086929321067e+00 -3.702606916427611861e+00 -7.563668489456176758e-01 6.000000000000000000e+00
-1.512417435646056907e+00 -4.674165248870849609e+00 -7.781050205230712891e-01 9.000000000000000000e+00
-1.952800154685973899e+00 -6.027994632720947266e+00 -7.780138850212097168e-01 1.300000000000000000e+01
-3.575570344924927202e+00 -1.103067111968993963e+01 -1.014492869377136008e+00 2.000000000000000000e+00
-8.073380470275878906e+00 -2.487685394287109020e+01 -1.370678663253783958e+00 1.200000000000000000e+01
-1.210760831832885964e+00 -3.702139377593994141e+00 -7.571300864219665527e-01 7.000000000000000000e+00
-1.528724074363708052e+00 -4.668857574462890625e+00 -7.781050205230712891e-01 9.000000000000000000e+00
-1.954042077064513938e+00 -5.960779190063476562e+00 -7.702142596244812012e-01 1.300000000000000000e+01
-3.612810850143433061e+00 -1.101433658599854049e+01 -1.014144182205199973e+00 2.000000000000000000e+00
-8.190078735351562500e+00 -2.493960380554198863e+01 -1.375702977180480957e+00 1.200000000000000000e+01
-1.509343624114990057e+01 -4.593396377563477273e+01 1.116252136230468928e+01 1.400000000000000000e+01
-1.222442865371704102e+00 -3.694162845611571822e+00 -7.563668489456176758e-01 7.000000000000000000e+00
-1.537557363510132058e+00 -4.640991210937500000e+00 -7.743505835533142090e-01 9.000000000000000000e+00
-1.949839234352112038e+00 -5.878555774688720703e+00 -7.604647278785705566e-01 1.300000000000000000e+01
-1.452672386169433949e+01 -4.379651260375977273e+01 7.308305263519287109e+00 1.500000000000000000e+01
-8.285901069641113281e+00 -2.493739891052246094e+01 -1.377168297767638938e+00 1.200000000000000000e+01
-9.363880157470703125e+00 -2.814886283874512074e+01 -5.178129076957702637e-01 4.000000000000000000e+00
-1.240316629409790039e+00 -3.704766750335692915e+00 -7.594197988510131836e-01 7.000000000000000000e+00
-1.556259155273437944e+00 -4.643087863922119141e+00 -7.756021022796630859e-01 9.000000000000000000e+00
-1.959611535072327104e+00 -5.839720726013183594e+00 -7.563211321830749512e-01 1.100000000000000000e+01
-8.372899055480957031e+00 -2.490832328796387074e+01 -1.377168297767638938e+00 1.200000000000000000e+01
-9.497798919677734375e+00 -2.822213935852051137e+01 -5.197675824165344238e-01 4.000000000000000000e+00
-1.248832702636718972e+00 -3.687397956848144975e+00 -7.567484974861145020e-01 8.000000000000000000e+00
-1.578800201416016069e+00 -4.656334877014160156e+00 -7.787307500839233398e-01 9.000000000000000000e+00
-1.448669433593750000e+01 -4.270090866088867188e+01 5.536524295806884766e+00 3.800000000000000000e+01
-1.960841417312622070e+00 -5.776452541351318359e+00 -7.490090131759643555e-01 1.100000000000000000e+01
-1.508611011505126953e+01 -4.444224929809570312e+01 7.433453083038330078e+00 1.600000000000000000e+01
-8.486799240112304688e+00 -2.495836448669433949e+01 -1.381564617156981978e+00 1.200000000000000000e+01
-9.506034851074218750e+00 -2.792379379272460938e+01 -5.148808956146240234e-01 8.000000000000000000e+00
-9.597793579101562500e+00 -2.804883384704589844e+01 5.174638628959655762e-01 2.000000000000000000e+01
-1.260424017906188965e+00 -3.679301738739014116e+00 -7.559852600097656250e-01 8.000000000000000000e+00
-1.593762516975403054e+00 -4.647058010101318359e+00 -7.781050205230712891e-01 9.000000000000000000e+00
-1.964876890182494895e+00 -5.722634792327880859e+00 -7.429155111312866211e-01 9.000000000000000000e+00
-3.548735380172729048e+00 -1.032969760894775035e+01 -9.555755853652954102e-01 2.000000000000000000e+00
-8.569971084594726562e+00 -2.491725540161133168e+01 -1.380936503410338911e+00 1.200000000000000000e+01
-9.652927398681640625e+00 -2.803413772583008168e+01 -5.175336599349975586e-01 8.000000000000000000e+00
-1.269408345222472922e+00 -3.667902708053588867e+00 -7.544587850570678711e-01 8.000000000000000000e+00
-1.607060432434082031e+00 -4.638295173645020419e+00 -7.774792909622192383e-01 9.000000000000000000e+00
-1.977640986442565918e+00 -5.701430320739746094e+00 -7.409656047821044922e-01 7.000000000000000000e+00
-8.675740242004394531e+00 -2.496944618225098012e+01 -1.385332703590393066e+00 1.200000000000000000e+01
-9.746207237243652344e+00 -2.801878356933594105e+01 -5.178129076957702637e-01 8.000000000000000000e+00
-1.284798145294189009e+00 -3.670861482620238814e+00 -7.559852600097656250e-01 8.000000000000000000e+00
-1.619321942329406960e+00 -4.621471881866455078e+00 -7.756021022796630859e-01 9.000000000000000000e+00
-2.011329412460327148e+00 -5.733829021453857422e+00 -7.460840940475463867e-01 5.000000000000000000e+00
-2.507998704910277876e+00 -7.145723342895507812e+00 -6.625579595565795898e-01 4.000000000000000000e+00
-8.752253532409667969e+00 -2.490886116027832031e+01 -1.383658051490783913e+00 1.200000000000000000e+01
-9.828026771545410156e+00 -2.793931770324707031e+01 -5.169751644134521484e-01 4.000000000000000000e+00
-1.300850749015808105e+00 -3.671452760696411133e+00 -7.571300864219665527e-01 9.000000000000000000e+00
-1.637055158615112083e+00 -4.615220069885253906e+00 -7.756021022796630859e-01 9.000000000000000000e+00
-2.016724109649658203e+00 -5.679297447204589844e+00 -7.399906516075134277e-01 5.000000000000000000e+00
-2.536084651947021040e+00 -7.137917995452880859e+00 -6.627322435379028320e-01 8.000000000000000000e+00
-8.847831726074218750e+00 -2.487507247924805043e+01 -1.383658051490783913e+00 1.200000000000000000e+01
-1.309685826301574929e+00 -3.655800104141234907e+00 -7.548403739929199219e-01 9.000000000000000000e+00
-1.653155326843261941e+00 -4.609477519989013672e+00 -7.756021022796630859e-01 9.000000000000000000e+00
-2.025803565979003906e+00 -5.642330169677734375e+00 -7.360908389091491699e-01 1.100000000000000000e+01
-2.540103912353516069e+00 -7.070894718170166016e+00 -6.573286056518554688e-01 6.000000000000000000e+00
-8.944070816040039062e+00 -2.487034797668457031e+01 -1.385123372077941895e+00 1.200000000000000000e+01
-1.107324242591857910e+00 -3.062288999557495117e+00 -7.517864108085632324e-01 1.000000000000000000e+00
-1.319828510284424050e+00 -3.647975444793701172e+00 -7.540771365165710449e-01 9.000000000000000000e+00
-1.673682570457458052e+00 -4.620976924896240234e+00 -7.784178853034973145e-01 1.000000000000000000e+01
-2.046902656555175781e+00 -5.645269393920898438e+00 -7.373095154762268066e-01 1.100000000000000000e+01
-2.571138381958007812e+00 -7.087228298187255859e+00 -6.595946550369262695e-01 1.000000000000000000e+00
-9.046703338623046875e+00 -2.490970802307128906e+01 -1.388891577720642090e+00 1.200000000000000000e+01
-1.123359441757201926e+00 -3.073047399520874023e+00 -7.553856372833251953e-01 1.000000000000000000e+00
-1.331879973411560059e+00 -3.641502380371094194e+00 -7.536955475807189941e-01 9.000000000000000000e+00
-1.684369087219238059e+00 -4.600266933441162109e+00 -7.759149670600891113e-01 1.000000000000000000e+01
-2.067279100418090820e+00 -5.639953613281250000e+00 -7.375532388687133789e-01 1.600000000000000000e+01
-3.863608360290526900e+00 -1.053501033782958984e+01 -9.817222952842712402e-01 2.000000000000000000e+00
-9.137729644775390625e+00 -2.488922691345214844e+01 -1.389519691467284934e+00 1.200000000000000000e+01
-1.126505970954895020e+00 -3.046975612640380859e+00 -7.499868273735046387e-01 1.000000000000000000e+00
-1.347942233085632102e+00 -3.643961429595946822e+00 -7.552220225334167480e-01 9.000000000000000000e+00
-1.696416854858397993e+00 -4.581095695495604581e+00 -7.737248539924621582e-01 9.000000000000000000e+00
-2.090696573257445845e+00 -5.639783859252929688e+00 -7.385281920433044434e-01 1.800000000000000000e+01
-9.234453201293945312e+00 -2.487054824829101918e+01 -1.390357017517090066e+00 1.200000000000000000e+01
-1.142592191696166992e+00 -3.057628393173218218e+00 -7.535860538482666016e-01 2.000000000000000000e+00
-1.364091634750365989e+00 -3.648428678512572798e+00 -7.571300864219665527e-01 1.000000000000000000e+01
-1.716552138328552024e+00 -4.586246013641357422e+00 -7.756021022796630859e-01 9.000000000000000000e+00
-2.077635288238524947e+00 -5.545083522796630859e+00 -7.270724773406982422e-01 2.000000000000000000e+01
-9.342264175415039062e+00 -2.489425849914551137e+01 -1.393497228622436968e+00 1.200000000000000000e+01
-1.147061705589293990e+00 -3.037213802337646040e+00 -7.495369315147399902e-01 2.000000000000000000e+00
-1.371960997581481934e+00 -3.630789279937744141e+00 -7.544587850570678711e-01 1.000000000000000000e+01
-1.736744046211242898e+00 -4.591311931610107422e+00 -7.774792909622192383e-01 9.000000000000000000e+00
-2.097681522369385210e+00 -5.539654254913330078e+00 -7.273162603378295898e-01 1.600000000000000000e+01
-2.671071529388428178e+00 -7.050172805786132812e+00 -6.595946550369262695e-01 1.000000000000000000e+00
-9.444685935974121094e+00 -2.490258216857910156e+01 -1.395799994468688965e+00 1.200000000000000000e+01
-1.161825776100158913e+00 -3.044115304946898970e+00 -7.522363066673278809e-01 2.000000000000000000e+00
-1.383225679397583008e+00 -3.622309923171997070e+00 -7.536955475807189941e-01 1.000000000000000000e+01
-1.754170775413512962e+00 -4.588912010192871094e+00 -7.781050205230712891e-01 9.000000000000000000e+00
-2.103526353836060014e+00 -5.497072219848632812e+00 -7.226852178573608398e-01 1.800000000000000000e+01
-9.531554222106933594e+00 -2.486946105957030895e+01 -1.395799994468688965e+00 1.200000000000000000e+01
-1.175418615341186968e+00 -3.049337387084960938e+00 -7.544858455657958984e-01 1.000000000000000000e+00
-1.395230054855346902e+00 -3.617703199386597124e+00 -7.536955475807189941e-01 9.000000000000000000e+00
-1.766532659530640093e+00 -4.575698375701904297e+00 -7.768535614013671875e-01 1.000000000000000000e+01
-2.123174905776977983e+00 -5.493769645690917969e+00 -7.231726646423339844e-01 1.600000000000000000e+01
-3.985085725784302202e+00 -1.030616283416748047e+01 -9.667314887046813965e-01 2.000000000000000000e+00
-9.606762886047363281e+00 -2.481909179687500000e+01 -1.394753217697143999e+00 1.200000000000000000e+01
-1.181812167167664018e+00 -3.034320592880249023e+00 -7.517864108085632324e-01 1.000000000000000000e+00
-1.411413908004760964e+00 -3.621957302093505859e+00 -7.556036114692687988e-01 9.000000000000000000e+00
-1.783929824829102007e+00 -4.573184967041015625e+00 -7.774792909622192383e-01 9.000000000000000000e+00
-2.117066860198975053e+00 -5.421606063842773438e+00 -7.146418094635009766e-01 1.600000000000000000e+01
-4.000735759735107422e+00 -1.024022674560547053e+01 -9.618507623672485352e-01 2.000000000000000000e+00
-9.719527244567871094e+00 -2.485236740112305043e+01 -1.398521423339843972e+00 1.200000000000000000e+01
-1.192396640777587891e+00 -3.030176877975463867e+00 -7.517864108085632324e-01 1.000000000000000000e+00
-1.424048304557800071e+00 -3.617008447647095171e+00 -7.556036114692687988e-01 8.000000000000000000e+00
-1.800606727600098100e+00 -4.568767547607421875e+00 -7.777921557426452637e-01 1.000000000000000000e+01
-2.149091958999633789e+00 -5.447421550750732422e+00 -7.190291285514831543e-01 1.300000000000000000e+01
-4.010122299194335938e+00 -1.015948295593262074e+01 -9.555755853652954102e-01 2.000000000000000000e+00
-9.823833465576171875e+00 -2.486286926269530895e+01 -1.401033520698546919e+00 1.200000000000000000e+01
-1.202966690063477007e+00 -3.025995969772338867e+00 -7.517864108085632324e-01 1.000000000000000000e+00
-1.438116550445557085e+00 -3.615664005279541016e+00 -7.563668489456176758e-01 8.000000000000000000e+00
-1.816543698310852051e+00 -4.562454700469970703e+00 -7.777921557426452637e-01 1.000000000000000000e+01
-2.186467647552489790e+00 -5.485987186431884766e+00 -7.251225709915161133e-01 1.500000000000000000e+01
-2.718687772750854048e+00 -6.817902088165283203e+00 -6.421635150909423828e-01 1.000000000000000000e+00
-9.956467628479003906e+00 -2.494343376159667969e+01 -1.407523155212401900e+00 1.200000000000000000e+01
-1.228046536445617898e+00 -3.057945728302001953e+00 -7.607844471931457520e-01 1.000000000000000000e+00
-1.447800993919373003e+00 -3.603335142135620117e+00 -7.548403739929199219e-01 8.000000000000000000e+00
-1.836881279945373979e+00 -4.567081928253173828e+00 -7.796693444252014160e-01 1.000000000000000000e+01
-2.196707248687744141e+00 -5.456224441528320312e+00 -7.221977114677429199e-01 1.600000000000000000e+01
-2.742470264434814009e+00 -6.808370590209960938e+00 -6.421635150909423828e-01 1.000000000000000000e+00
-1.006438922882080078e+01 -2.496039199829101918e+01 -1.410454034805298074e+00 1.200000000000000000e+01
-1.231387972831726074e+00 -3.035582304000854048e+00 -7.562854290008544922e-01 1.000000000000000000e+00
-1.458893537521362083e+00 -3.594621181488037109e+00 -7.540771365165710449e-01 8.000000000000000000e+00
-1.851325154304503950e+00 -4.556982040405273438e+00 -7.790436148643493652e-01 1.000000000000000000e+01
-2.227704524993896040e+00 -5.477944850921630859e+00 -7.260975241661071777e-01 1.600000000000000000e+01
-4.068234443664550781e+00 -9.998822212219238281e+00 -9.444196224212646484e-01 2.000000000000000000e+00
-1.017254924774169922e+01 -2.497690200805664062e+01 -1.413384795188904031e+00 1.200000000000000000e+01
-1.241976618766784890e+00 -3.031265497207642046e+00 -7.562854290008544922e-01 1.000000000000000000e+00
-1.472921490669250044e+00 -3.593139886856079102e+00 -7.548403739929199219e-01 8.000000000000000000e+00
-1.862721323966979980e+00 -4.539526939392089844e+00 -7.771664261817932129e-01 1.000000000000000000e+01
-2.237007856369018999e+00 -5.446264266967773438e+00 -7.229289412498474121e-01 1.800000000000000000e+01
-1.027790832519531072e+01 -2.498557090759276988e+01 -1.415897011756896973e+00 1.200000000000000000e+01
-1.252550125122070090e+00 -3.026911735534667969e+00 -7.562854290008544922e-01 1.000000000000000000e+00
-1.489960908889770952e+00 -3.598860263824462891e+00 -7.571300864219665527e-01 8.000000000000000000e+00
-1.880068421363831010e+00 -4.536646842956542969e+00 -7.777921557426452637e-01 1.200000000000000000e+01
-2.259047746658325195e+00 -5.445756912231445312e+00 -7.239038944244384766e-01 2.200000000000000000e+01
-4.148632049560546875e+00 -9.995939254760742188e+00 -9.468600153923034668e-01 2.000000000000000000e+00
-1.037119197845458984e+01 -2.496429824829101918e+01 -1.416734337806702104e+00 1.200000000000000000e+01
-1.264083027839661089e+00 -3.026337862014770952e+00 -7.571852207183837891e-01 1.000000000000000000e+00
-1.497344970703125000e+00 -3.583030939102172852e+00 -7.548403739929199219e-01 8.000000000000000000e+00
-1.898151397705077903e+00 -4.537676811218261719e+00 -7.790436148643493652e-01 1.000000000000000000e+01
-2.255626440048218218e+00 -5.386966228485107422e+00 -7.170792222023010254e-01 2.800000000000000000e+01
-4.143264770507813388e+00 -9.890244483947753906e+00 -9.381443858146667480e-01 2.000000000000000000e+00
-1.047400093078612926e+01 -2.497765731811523082e+01 -1.419455766677856001e+00 1.300000000000000000e+01
-1.265550971031188965e+00 -3.000360250473022017e+00 -7.517864108085632324e-01 1.000000000000000000e+00
-1.508316278457642046e+00 -3.574164867401123047e+00 -7.540771365165710449e-01 8.000000000000000000e+00
-1.915516614913939986e+00 -4.534662723541259766e+00 -7.796693444252014160e-01 1.300000000000000000e+01
-2.279055356979370117e+00 -5.390029907226563388e+00 -7.185416221618652344e-01 1.600000000000000000e+01
-4.177762985229492188e+00 -9.875721931457519531e+00 -9.381443858146667480e-01 2.000000000000000000e+00
-1.059383392333984020e+01 -2.501818847656250000e+01 -1.423851966857909934e+00 1.300000000000000000e+01
-1.295870661735534890e+00 -3.042539596557617188e+00 -7.634838819503784180e-01 1.000000000000000000e+00
-1.520783305168152078e+00 -3.568877935409545898e+00 -7.540771365165710449e-01 8.000000000000000000e+00
-1.925908803939818892e+00 -4.515229701995849609e+00 -7.774792909622192383e-01 2.100000000000000000e+01
-2.298635482788085938e+00 -5.383867263793945312e+00 -7.187854051589965820e-01 2.400000000000000000e+01
-4.163686275482177734e+00 -9.747479438781738281e+00 -9.273371100425720215e-01 2.000000000000000000e+00
-1.068738079071044922e+01 -2.499574851989746094e+01 -1.424689412117003950e+00 1.300000000000000000e+01
-1.539439082145690918e+00 -3.577975034713745117e+00 -7.571300864219665527e-01 9.000000000000000000e+00
-1.937751412391663042e+00 -4.499408245086669922e+00 -7.759149670600891113e-01 1.200000000000000000e+01
-2.312699794769287109e+00 -5.364872932434082031e+00 -7.173229455947875977e-01 3.100000000000000000e+01
-4.199264049530029297e+00 -9.736545562744140625e+00 -9.276857376098632812e-01 2.000000000000000000e+00
-1.080306529998778942e+01 -2.502430343627930043e+01 -1.428457617759705034e+00 1.300000000000000000e+01
-1.551136970520019975e+00 -3.570778846740723100e+00 -7.567484974861145020e-01 9.000000000000000000e+00
-1.952657699584960938e+00 -4.490805625915527344e+00 -7.756021022796630859e-01 3.300000000000000000e+01
-2.321114063262939009e+00 -5.333105564117431641e+00 -7.141543626785278320e-01 3.000000000000000000e+01
-4.201408386230468750e+00 -9.648758888244628906e+00 -9.207132458686828613e-01 2.000000000000000000e+00
-1.087917900085449041e+01 -2.496080780029296875e+01 -1.426992177963257058e+00 1.300000000000000000e+01
-1.563591837882996050e+00 -3.565342664718627930e+00 -7.567484974861145020e-01 9.000000000000000000e+00
-1.968321681022644043e+00 -4.483962059020996094e+00 -7.756021022796630859e-01 2.500000000000000000e+01
-2.338118791580200195e+00 -5.321335792541503906e+00 -7.136668562889099121e-01 2.600000000000000000e+01
-4.235063076019287109e+00 -9.634034156799316406e+00 -9.207132458686828613e-01 2.000000000000000000e+00
-1.097106838226318004e+01 -2.493364906311035156e+01 -1.427620172500609907e+00 1.300000000000000000e+01
-1.569669604301453081e+00 -3.545501470565795898e+00 -7.536955475807189941e-01 9.000000000000000000e+00
-1.983961701393126997e+00 -4.477064132690429688e+00 -7.756021022796630859e-01 2.500000000000000000e+01
-2.363118648529053178e+00 -5.327658653259277344e+00 -7.156167626380920410e-01 2.200000000000000000e+01
-4.268666744232177734e+00 -9.619193077087402344e+00 -9.207132458686828613e-01 2.000000000000000000e+00
-1.105803585052490057e+01 -2.489520072937012074e+01 -1.427620172500609907e+00 1.300000000000000000e+01
-1.584439158439636008e+00 -3.545377969741820845e+00 -7.548403739929199219e-01 9.000000000000000000e+00
-1.997964262962341087e+00 -4.466505050659179688e+00 -7.749763131141662598e-01 1.800000000000000000e+01
-2.374400377273560014e+00 -5.303071498870849609e+00 -7.134231328964233398e-01 1.800000000000000000e+01
-4.302217960357666016e+00 -9.604233741760253906e+00 -9.207132458686828613e-01 2.000000000000000000e+00
-1.000742053985596058e+01 -2.231959342956542969e+01 -1.281916856765747070e+00 1.100000000000000000e+01
-1.599227070808411089e+00 -3.545194387435913086e+00 -7.559852600097656250e-01 9.000000000000000000e+00
-2.007039785385131836e+00 -4.445100784301757812e+00 -7.724733948707580566e-01 1.500000000000000000e+01
-2.021740436553955078e+00 -4.473494529724121094e+00 -6.027657985687255859e-01 1.000000000000000000e+00
-4.307807922363281250e+00 -9.527432441711425781e+00 -9.147866964340209961e-01 2.000000000000000000e+00
-1.610778808593750000e+00 -3.537803649902344194e+00 -7.556036114692687988e-01 9.000000000000000000e+00
-2.026639938354492188e+00 -4.447055339813232422e+00 -7.740377187728881836e-01 1.600000000000000000e+01
-2.413012266159058061e+00 -5.289978027343750000e+00 -7.139106392860412598e-01 1.600000000000000000e+01
-4.334421157836914062e+00 -9.497837066650390625e+00 -9.133921861648559570e-01 2.000000000000000000e+00
-1.619839191436768022e+00 -3.525023698806763139e+00 -7.540771365165710449e-01 1.000000000000000000e+01
-2.047103404998778853e+00 -4.450721740722656250e+00 -7.759149670600891113e-01 1.600000000000000000e+01
-2.407389163970946822e+00 -5.229230403900145596e+00 -7.068421840667724609e-01 1.600000000000000000e+01
-4.069154739379882812e+00 -8.834789276123046875e+00 -8.509886860847473145e-01 1.000000000000000000e+00
-1.629656076431273970e+00 -3.514004945755004883e+00 -7.529323101043701172e-01 1.000000000000000000e+01
-2.064290046691894975e+00 -4.447132587432861328e+00 -7.765406966209411621e-01 1.600000000000000000e+01
-1.378827667236327947e+01 -2.969072914123535156e+01 4.019494533538818359e+00 1.600000000000000000e+01
-2.430646419525146040e+00 -5.231596946716308594e+00 -7.083046436309814453e-01 1.800000000000000000e+01
-4.113406181335449219e+00 -8.849438667297363281e+00 -8.537776470184326172e-01 1.000000000000000000e+00
-1.645241022109984907e+00 -3.515407562255858931e+00 -7.544587850570678711e-01 1.100000000000000000e+01
-2.077287197113037109e+00 -4.434533119201660156e+00 -7.756021022796630859e-01 1.900000000000000000e+01
-1.402324581146240057e+01 -2.992282676696776988e+01 4.057518005371093750e+00 1.700000000000000000e+01
-2.451421499252318892e+00 -5.228472709655761719e+00 -7.090358138084411621e-01 2.000000000000000000e+01
-4.384568214416503906e+00 -9.347306251525878906e+00 -9.032821059226989746e-01 2.000000000000000000e+00
-1.655825376510619895e+00 -3.506092548370360884e+00 -7.536955475807189941e-01 9.000000000000000000e+00
-2.097819089889525923e+00 -4.437970638275145596e+00 -7.774792909622192383e-01 1.500000000000000000e+01
-2.449281930923461914e+00 -5.176818370819091797e+00 -7.031860947608947754e-01 2.000000000000000000e+01
-4.383073329925537109e+00 -9.259911537170410156e+00 -8.963096737861633301e-01 2.000000000000000000e+00
-1.675655007362365945e+00 -3.516242027282714844e+00 -7.571300864219665527e-01 9.000000000000000000e+00
-2.109045505523682085e+00 -4.421705722808837891e+00 -7.759149670600891113e-01 1.300000000000000000e+01
-1.412408351898193004e+01 -2.959846115112305043e+01 4.026806831359863281e+00 1.600000000000000000e+01
-2.469903230667113814e+00 -5.173611164093017578e+00 -7.039173245429992676e-01 1.800000000000000000e+01
-1.422537899017333984e+01 -2.958457756042480113e+01 1.720387578010559082e+00 1.700000000000000000e+01
-1.681112647056580034e+00 -3.496216773986815962e+00 -7.540771365165710449e-01 1.100000000000000000e+01
-2.126180648803710938e+00 -4.417876720428466797e+00 -7.765406966209411621e-01 1.300000000000000000e+01
-1.408952808380126953e+01 -2.926280593872069957e+01 3.987808704376221147e+00 1.600000000000000000e+01
-2.480194091796875000e+00 -5.148862361907958984e+00 -7.017236948013305664e-01 2.000000000000000000e+01
-2.927016735076903853e+00 -6.073750972747802734e+00 -5.898700952529907227e-01 1.000000000000000000e+00
-1.212089729309082031e+01 -2.512922096252441051e+01 -1.462161898612976074e+00 1.300000000000000000e+01
-1.417177200317382990e+01 -2.922454643249512074e+01 1.702174663543700950e+00 1.700000000000000000e+01
-1.691592693328856978e+00 -3.486794471740723100e+00 -7.533138990402221680e-01 1.100000000000000000e+01
-2.150217294692993164e+00 -4.428197860717773438e+00 -7.796693444252014160e-01 1.300000000000000000e+01
-1.418638420104979936e+01 -2.920273399353026988e+01 3.986346244812012163e+00 1.600000000000000000e+01
-2.518109321594237837e+00 -5.181237697601318359e+00 -7.073296904563903809e-01 1.800000000000000000e+01
-4.427527427673339844e+00 -9.105996131896972656e+00 -8.858509659767150879e-01 1.000000000000000000e+00
-1.216484260559082031e+01 -2.499696350097655895e+01 -1.456928372383117898e+00 1.300000000000000000e+01
-1.707205891609191895e+00 -3.487921953201293945e+00 -7.548403739929199219e-01 1.100000000000000000e+01
-2.160447359085083008e+00 -4.410021781921386719e+00 -7.777921557426452637e-01 1.300000000000000000e+01
-2.508213758468627930e+00 -5.115380764007568359e+00 -6.995300054550170898e-01 1.700000000000000000e+01
-1.438067531585693004e+01 -2.931574821472167969e+01 5.171723365783691406e+00 1.300000000000000000e+01
-4.459286689758300781e+00 -9.090485572814941406e+00 -8.858509659767150879e-01 1.000000000000000000e+00
-1.220801162719726918e+01 -2.486470794677734020e+01 -1.451694726943969949e+00 1.300000000000000000e+01
-1.715893626213073953e+00 -3.474900245666503906e+00 -7.533138990402221680e-01 1.100000000000000000e+01
-2.170576572418212891e+00 -4.391828060150145596e+00 -7.759149670600891113e-01 1.300000000000000000e+01
-2.571822643280028853e+00 -5.199118137359619141e+00 -7.122044563293457031e-01 2.200000000000000000e+01
-1.439548015594482067e+01 -2.910146331787109020e+01 5.142313957214354581e+00 1.200000000000000000e+01
-4.505130290985107422e+00 -9.103435516357421875e+00 -8.886399269104003906e-01 1.000000000000000000e+00
-1.230005073547362926e+01 -2.483267974853515980e+01 -1.452322840690613015e+00 1.300000000000000000e+01
-1.453800773620604936e+01 -2.932517051696776988e+01 -5.713219642639160156e-01 1.100000000000000000e+01
-1.460098266601563033e+01 -2.933631134033203125e+01 5.719851851463317871e-01 2.400000000000000000e+01
-1.456605148315430043e+01 -2.925332832336426137e+01 1.712641835212707964e+00 1.700000000000000000e+01
-1.732389807701111062e+00 -3.477675914764403853e+00 -7.552220225334167480e-01 1.200000000000000000e+01
-2.189419269561768022e+00 -4.391295909881591797e+00 -7.771664261817932129e-01 1.300000000000000000e+01
-1.452153682708740057e+01 -2.911297225952148082e+01 3.994633436203002930e+00 1.600000000000000000e+01
-2.556273460388184038e+00 -5.122612953186035156e+00 -7.029423713684082031e-01 2.600000000000000000e+01
-1.459910297393799006e+01 -2.924291610717773082e+01 5.176729202270507812e+00 1.300000000000000000e+01
-4.522640705108642578e+00 -9.059132575988769531e+00 -8.858509659767150879e-01 1.000000000000000000e+00
-1.240986919403075994e+01 -2.483604621887207031e+01 -1.455044269561768022e+00 1.300000000000000000e+01
-1.740992546081542969e+00 -3.464590549468994141e+00 -7.536955475807189941e-01 1.200000000000000000e+01
-1.432836818695068004e+01 -2.850117874145508168e+01 2.790901184082030806e+00 3.200000000000000000e+01
-2.203846931457519975e+00 -4.381861686706542969e+00 -7.768535614013671875e-01 1.200000000000000000e+01
-1.403240299224854049e+01 -2.788820075988769887e+01 3.833278417587279829e+00 1.500000000000000000e+01
-2.583957433700561968e+00 -5.133162975311279297e+00 -7.056235074996948242e-01 2.400000000000000000e+01
-1.475284004211425959e+01 -2.930726623535155895e+01 5.196753025054931641e+00 1.300000000000000000e+01
-4.545274257659912109e+00 -9.025495529174804688e+00 -8.841078281402587891e-01 1.000000000000000000e+00
-1.475550746917724965e+01 -2.928710746765137074e+01 6.374547004699707031e+00 5.700000000000000000e+01
-1.253064823150634943e+01 -2.486034965515137074e+01 -1.459021806716918945e+00 1.300000000000000000e+01
-1.467965221405028942e+01 -2.897276306152344105e+01 1.702174663543700950e+00 1.700000000000000000e+01
-1.749525070190429910e+00 -3.451487779617310014e+00 -7.521690726280212402e-01 1.100000000000000000e+01
-2.223597764968872070e+00 -4.382950305938720703e+00 -7.784178853034973145e-01 1.300000000000000000e+01
-1.421052455902099965e+01 -2.799836158752441051e+01 3.855214834213256836e+00 1.600000000000000000e+01
-2.605454683303833008e+00 -5.131191730499267578e+00 -7.065984606742858887e-01 2.400000000000000000e+01
-1.485147380828857067e+01 -2.924854660034180043e+01 5.195501327514648438e+00 1.300000000000000000e+01
-4.603821754455566406e+00 -9.062865257263183594e+00 -8.893371820449829102e-01 1.000000000000000000e+00
-1.259924697875976918e+01 -2.478085136413573863e+01 -1.456928372383117898e+00 1.300000000000000000e+01
-1.479705715179443004e+01 -2.895335769653319957e+01 1.704058766365051047e+00 1.700000000000000000e+01
-1.764243602752685991e+00 -3.450603723526000977e+00 -7.533138990402221680e-01 9.000000000000000000e+00
-2.233484268188477007e+00 -4.364611148834229404e+00 -7.765406966209411621e-01 1.300000000000000000e+01
-2.638733625411986861e+00 -5.152101993560791016e+00 -7.107419967651367188e-01 2.600000000000000000e+01
-1.484542179107666016e+01 -2.898554420471191051e+01 5.157957077026367188e+00 1.300000000000000000e+01
-4.590001583099365234e+00 -8.958080291748046875e+00 -8.806216120719909668e-01 1.000000000000000000e+00
-1.271848106384276988e+01 -2.480069923400878906e+01 -1.460696578025818093e+00 1.300000000000000000e+01
-1.777177453041077104e+00 -3.446169376373291016e+00 -7.536955475807189941e-01 1.000000000000000000e+01
-2.246893882751464844e+00 -4.353277206420898438e+00 -7.759149670600891113e-01 1.300000000000000000e+01
-2.670367956161499023e+00 -5.169314861297607422e+00 -7.143980860710144043e-01 2.200000000000000000e+01
-1.491024494171142933e+01 -2.886334419250487926e+01 5.145442485809326172e+00 1.300000000000000000e+01
-4.612095832824707031e+00 -8.924304008483886719e+00 -8.788785338401794434e-01 1.000000000000000000e+00
-1.284167861938476918e+01 -2.482711219787598012e+01 -1.464883446693419966e+00 1.300000000000000000e+01
-1.789805769920348899e+00 -3.444053411483765093e+00 -7.544587850570678711e-01 9.000000000000000000e+00
-2.260559082031250000e+00 -4.346197128295898438e+00 -7.759149670600891113e-01 1.300000000000000000e+01
-2.669178962707519975e+00 -5.127444744110107422e+00 -7.097670435905456543e-01 1.800000000000000000e+01
-1.513219451904297053e+01 -2.906867408752441051e+01 5.190495491027832031e+00 1.300000000000000000e+01
-4.640109539031982422e+00 -8.909770965576171875e+00 -8.788785338401794434e-01 1.000000000000000000e+00
-1.294176673889159979e+01 -2.482915306091308949e+01 -1.467395544052124023e+00 1.300000000000000000e+01
-1.511480998992919922e+01 -2.883837127685546875e+01 1.706361532211303933e+00 1.700000000000000000e+01
-1.799082756042480025e+00 -3.432568073272705078e+00 -7.533138990402221680e-01 9.000000000000000000e+00
-2.279386997222899947e+00 -4.345276832580566406e+00 -7.771664261817932129e-01 1.600000000000000000e+01
-1.515673637390137074e+01 -2.888157463073730113e+01 4.004870414733886719e+00 1.600000000000000000e+01
-2.630772590637207031e+00 -5.010883808135986328e+00 -6.948990225791931152e-01 2.900000000000000000e+01
-1.530844402313232067e+01 -2.914592742919921875e+01 5.214273452758789062e+00 1.300000000000000000e+01
-4.615594863891601562e+00 -8.787686347961425781e+00 -8.684198260307312012e-01 1.000000000000000000e+00
-1.305623817443848012e+01 -2.483686256408691051e+01 -1.470535755157470925e+00 1.300000000000000000e+01
-1.517804908752441051e+01 -2.871480369567871094e+01 1.702174663543700950e+00 1.700000000000000000e+01
-1.811053633689879927e+00 -3.426267147064208984e+00 -7.533138990402221680e-01 1.000000000000000000e+01
-2.298235654830933061e+00 -4.344278335571289062e+00 -7.784178853034973145e-01 1.600000000000000000e+01
-1.520174503326416016e+01 -2.872322082519530895e+01 3.990246057510375977e+00 1.600000000000000000e+01
-2.664967775344849077e+00 -5.033248424530029297e+00 -6.992862820625305176e-01 2.600000000000000000e+01
-4.739501953125000000e+00 -8.947585105895996094e+00 -8.858509659767150879e-01 1.000000000000000000e+00
-1.313350105285645064e+01 -2.477349090576171875e+01 -1.469488978385925071e+00 1.300000000000000000e+01
-1.825773000717163086e+00 -3.425122022628784180e+00 -7.544587850570678711e-01 1.000000000000000000e+01
-2.311526536941527876e+00 -4.332743644714354581e+00 -7.777921557426452637e-01 1.600000000000000000e+01
-1.530191516876221058e+01 -2.866998291015625000e+01 3.990246057510375977e+00 1.600000000000000000e+01
-2.699350833892821822e+00 -5.055435180664063388e+00 -7.036736011505126953e-01 2.800000000000000000e+01
-4.723768711090087891e+00 -8.843117713928222656e+00 -8.771353960037231445e-01 1.000000000000000000e+00
-1.323496246337890980e+01 -2.475567626953125000e+01 -1.471163749694823997e+00 1.300000000000000000e+01
-1.836788296699523926e+00 -3.416998863220214844e+00 -7.540771365165710449e-01 1.100000000000000000e+01
-1.551831912994384943e+01 -2.885683250427246094e+01 2.866552352905272993e+00 3.500000000000000000e+01
-2.318213462829589844e+00 -4.308992385864257812e+00 -7.749763131141662598e-01 1.600000000000000000e+01
-1.563709926605224965e+01 -2.905339241027832031e+01 4.051180839538574219e+00 1.700000000000000000e+01
-2.713216781616210938e+00 -5.038990497589111328e+00 -7.026986479759216309e-01 2.400000000000000000e+01
-4.735711097717285156e+00 -8.791493415832519531e+00 -8.736491799354553223e-01 1.000000000000000000e+00
-1.334972953796387074e+01 -2.476206970214844105e+01 -1.474303841590880904e+00 1.300000000000000000e+01
-1.849640250205994096e+00 -3.412292242050170898e+00 -7.544587850570678711e-01 1.000000000000000000e+01
-1.558476161956786932e+01 -2.873943519592285156e+01 2.860277175903319868e+00 3.400000000000000000e+01
-2.333240509033203125e+00 -4.300873756408691406e+00 -7.749763131141662598e-01 1.600000000000000000e+01
-2.740261793136597124e+00 -5.046934127807617188e+00 -7.051360011100769043e-01 2.800000000000000000e+01
-3.294234991073607954e+00 -6.064701557159423828e+00 -6.038149595260620117e-01 1.000000000000000000e+00
-1.343608379364014027e+01 -2.471531867980957031e+01 -1.474303841590880904e+00 1.300000000000000000e+01
-1.859656929969788042e+00 -3.402369737625122070e+00 -7.536955475807189941e-01 1.000000000000000000e+01
-2.352979183197021040e+00 -4.301368236541748047e+00 -7.765406966209411621e-01 1.600000000000000000e+01
-2.759768724441527876e+00 -5.040820598602294922e+00 -7.056235074996948242e-01 2.000000000000000000e+01
-4.768258094787597656e+00 -8.705794334411621094e+00 -8.684198260307312012e-01 1.000000000000000000e+00
-1.355299568176270064e+01 -2.472431182861328125e+01 -1.477653384208678977e+00 1.300000000000000000e+01
-1.872469663619994895e+00 -3.397577047348022017e+00 -7.540771365165710449e-01 1.200000000000000000e+01
-2.375612020492554155e+00 -4.306966304779052734e+00 -7.790436148643493652e-01 1.600000000000000000e+01
-2.783103704452515093e+00 -5.041583538055419922e+00 -7.070859074592590332e-01 2.000000000000000000e+01
-4.798618316650390625e+00 -8.689097404479980469e+00 -8.684198260307312012e-01 1.000000000000000000e+00
-1.363921737670898082e+01 -2.467685317993164062e+01 -1.477653384208678977e+00 1.300000000000000000e+01
-1.886225223541259988e+00 -3.394452333450316939e+00 -7.548403739929199219e-01 1.100000000000000000e+01
-2.383910894393920898e+00 -4.286562919616699219e+00 -7.768535614013671875e-01 1.900000000000000000e+01
-2.819028139114379883e+00 -5.064794063568115234e+00 -7.117169499397277832e-01 2.200000000000000000e+01
-3.384702205657958984e+00 -6.078612804412841797e+00 -6.086956858634948730e-01 1.000000000000000000e+00
-1.374471759796142933e+01 -2.466398429870605113e+01 -1.479746818542480025e+00 1.300000000000000000e+01
-1.894224166870116965e+00 -3.380996465682982954e+00 -7.533138990402221680e-01 1.100000000000000000e+01
-2.395961046218872070e+00 -4.273046493530273438e+00 -7.759149670600891113e-01 1.800000000000000000e+01
-2.846405267715454102e+00 -5.072234153747558594e+00 -7.141543626785278320e-01 2.200000000000000000e+01
-3.398097276687622070e+00 -6.052862644195556641e+00 -6.073012351989746094e-01 3.000000000000000000e+00
-1.385225105285645064e+01 -2.465416336059569957e+01 -1.482049584388732910e+00 1.300000000000000000e+01
-1.914921522140502930e+00 -3.387370824813843218e+00 -7.563668489456176758e-01 1.100000000000000000e+01
-2.415268659591674805e+00 -4.268972873687744141e+00 -7.768535614013671875e-01 1.800000000000000000e+01
-2.879553556442261186e+00 -5.085451126098632812e+00 -7.175666689872741699e-01 3.300000000000000000e+01
-3.438007593154906782e+00 -6.069241046905517578e+00 -6.102645397186279297e-01 7.000000000000000000e+00
-1.388771247863770064e+01 -2.449654579162598012e+01 -1.475769281387329102e+00 1.300000000000000000e+01
-2.181434059143066051e+01 -3.827564620971679688e+01 2.308853149414062944e+00 3.200000000000000000e+01
-1.922845602035522017e+00 -3.373842954635620117e+00 -7.548403739929199219e-01 1.100000000000000000e+01
-2.425261974334716797e+00 -4.251936912536621094e+00 -7.752892374992370605e-01 1.300000000000000000e+01
-2.871700286865233931e+00 -5.030545234680175781e+00 -7.112295031547546387e-01 2.200000000000000000e+01
-3.455219984054564986e+00 -6.050282478332520419e+00 -6.095672845840454102e-01 8.000000000000000000e+00
-1.401872634887694957e+01 -2.452768325805664062e+01 -1.480584144592284934e+00 1.300000000000000000e+01
-1.927570462226867898e+00 -3.357569932937622070e+00 -7.525506615638732910e-01 1.100000000000000000e+01
