3.865140151977539062e+01 1.002472591400145951e+01 6.324332714080811435e+00 1.400000000000000000e+01
5.828427314758300781e+00 1.510590195655822976e+00 -5.267692804336547852e-01 9.000000000000000000e+00
8.497971534729003906e+00 2.199307203292847124e+00 -4.600330591201782227e-01 1.000000000000000000e+00
1.481107139587401988e+01 3.827645540237427202e+00 -2.670218050479888916e-01 2.000000000000000000e+00
3.519161224365233664e+01 9.094617843627929688e+00 9.739360809326171875e+00 7.000000000000000000e+00
2.235934734344481978e+00 5.745064616203308105e-01 -6.185775399208068848e-01 1.500000000000000000e+01
2.582238674163817915e+00 6.625258326530456543e-01 -6.154660582542419434e-01 1.200000000000000000e+01
2.993347406387329102e+00 7.674472928047180176e-01 -6.006667017936706543e-01 1.200000000000000000e+01
3.586197137832642046e+00 9.181107282638549805e-01 -5.863163471221923828e-01 9.000000000000000000e+00
3.715347290039063211e+01 9.504837989807128906e+00 4.708787918090820312e+00 2.000000000000000000e+01
4.560009002685546875e+00 1.165722608566283958e+00 -5.779044032096862793e-01 1.000000000000000000e+01
5.851038455963134766e+00 1.494674086570739968e+00 -5.283381342887878418e-01 8.000000000000000000e+00
8.486243247985839844e+00 2.164693832397460938e+00 -4.589863419532775879e-01 1.000000000000000000e+00
1.488635253906250000e+01 3.791716814041138139e+00 -2.681387662887573242e-01 2.000000000000000000e+00
3.499849700927733664e+01 8.914500236511230469e+00 9.677244186401367188e+00 7.000000000000000000e+00
2.249063491821289062e+00 5.699359774589538574e-01 -6.216833591461181641e-01 1.500000000000000000e+01
2.561751127243041992e+00 6.482226848602294922e-01 -6.100672483444213867e-01 1.200000000000000000e+01
3.009199380874633789e+00 7.608856558799743652e-01 -6.033380627632141113e-01 1.300000000000000000e+01
3.600713729858397993e+00 9.091148376464843750e-01 -5.881935954093933105e-01 9.000000000000000000e+00
3.692301559448242188e+01 9.315536499023437500e+00 4.675639152526854581e+00 2.000000000000000000e+01
4.565774440765380859e+00 1.151080012321471946e+00 -5.781481862068176270e-01 8.000000000000000000e+00
3.881622314453125000e+01 9.778774261474609375e+00 6.339975833892822266e+00 1.400000000000000000e+01
5.865622997283936435e+00 1.477696776390075906e+00 -5.292096734046936035e-01 9.000000000000000000e+00
8.489501953125000000e+00 2.135565996170043945e+00 -4.587769806385039728e-01 1.000000000000000000e+00
1.489884376525879084e+01 3.742331027984619141e+00 -2.681387662887573242e-01 2.000000000000000000e+00
3.554499053955078125e+01 8.928284645080566406e+00 9.820112228393554688e+00 7.000000000000000000e+00
2.258536577224731001e+00 5.639538764953613281e-01 -6.237539052963256836e-01 1.400000000000000000e+01
5.931808471679688211e+01 1.480065631866455078e+01 1.067144870758057085e+00 6.000000000000000000e+01
2.577234268188477007e+00 6.425766944885253906e-01 -6.132165789604187012e-01 1.200000000000000000e+01
3.829520034790039062e+01 9.540966987609863281e+00 2.068316936492919922e+00 2.200000000000000000e+01
3.000406742095946822e+00 7.475292086601257324e-01 -6.010483503341674805e-01 1.200000000000000000e+01
3.607698917388916016e+00 8.974942564964294434e-01 -5.888193249702453613e-01 9.000000000000000000e+00
3.702466201782227273e+01 9.203834533691406250e+00 4.684413909912109375e+00 2.000000000000000000e+01
4.562058448791503906e+00 1.133221149444580078e+00 -5.771732330322265625e-01 8.000000000000000000e+00
5.876546382904052734e+00 1.458652853965759055e+00 -5.297325849533081055e-01 9.000000000000000000e+00
3.570937347412108664e+01 8.857021331787109375e+00 7.151521205902099609e+00 6.100000000000000000e+01
8.496904373168945312e+00 2.105919122695922852e+00 -4.587769806385039728e-01 1.000000000000000000e+00
3.421323394775391336e+01 8.473256111145019531e+00 8.137379646301269531e+00 1.000000000000000000e+01
1.493511009216308949e+01 3.696066141128540039e+00 -2.685576379299163818e-01 2.000000000000000000e+00
3.555122375488281250e+01 8.791453361511230469e+00 9.812865257263183594e+00 7.000000000000000000e+00
2.256739377975463867e+00 5.551437139511108398e-01 -6.227186322212219238e-01 1.500000000000000000e+01
5.936938476562500000e+01 1.459350776672362926e+01 1.067144870758057085e+00 6.000000000000000000e+01
2.583246469497681108e+00 6.345062255859375000e-01 -6.141163706779479980e-01 1.200000000000000000e+01
2.999184608459473100e+00 7.361153960227966309e-01 -6.002851128578186035e-01 1.200000000000000000e+01
3.610809803009033203e+00 8.848955631256103516e-01 -5.888193249702453613e-01 9.000000000000000000e+00
3.753859329223632812e+01 9.192579269409179688e+00 4.745348453521729404e+00 2.000000000000000000e+01
4.581411838531494141e+00 1.121064305305480957e+00 -5.791231393814086914e-01 9.000000000000000000e+00
5.868054866790770596e+00 1.434818387031554954e+00 -5.285124182701110840e-01 9.000000000000000000e+00
8.492562294006347656e+00 2.073404312133789062e+00 -4.581489562988281250e-01 1.000000000000000000e+00
3.414794158935546875e+01 8.330684661865234375e+00 8.114884376525878906e+00 1.000000000000000000e+01
1.495957756042479936e+01 3.646751880645751953e+00 -2.687670588493347168e-01 2.000000000000000000e+00
3.650736236572266336e+01 8.899536132812500000e+00 1.006857872009276988e+01 1.600000000000000000e+01
2.245520830154418945e+00 5.440784692764282227e-01 -6.190951466560363770e-01 1.500000000000000000e+01
2.581657409667969194e+00 6.245687007904052734e-01 -6.132165789604187012e-01 1.300000000000000000e+01
3.001735687255858931e+00 7.256417870521545410e-01 -6.002851128578186035e-01 1.100000000000000000e+01
3.606195688247681108e+00 8.704321384429931641e-01 -5.875678658485412598e-01 1.000000000000000000e+01
3.762834548950195312e+01 9.075452804565429688e+00 4.752660751342773438e+00 2.000000000000000000e+01
4.583367347717285156e+00 1.104600310325623003e+00 -5.788793563842773438e-01 1.000000000000000000e+01
5.874964714050292969e+00 1.414792776107788086e+00 -5.286867618560791016e-01 9.000000000000000000e+00
3.596121215820313211e+01 8.653440475463867188e+00 7.189682960510253906e+00 6.100000000000000000e+01
8.546353340148925781e+00 2.054953336715697798e+00 -4.606610834598541260e-01 1.000000000000000000e+00
3.415028381347656250e+01 8.205061912536621094e+00 8.108585357666015625e+00 1.000000000000000000e+01
1.502666091918944957e+01 3.607582092285155806e+00 -2.697443962097167969e-01 2.000000000000000000e+00
3.651002883911132812e+01 8.765282630920410156e+00 1.006081390380859020e+01 1.600000000000000000e+01
2.247312784194945845e+00 5.366290211677551270e-01 -6.190951466560363770e-01 1.500000000000000000e+01
2.583714485168457031e+00 6.160041689872741699e-01 -6.132165789604187012e-01 1.200000000000000000e+01
3.011764764785767046e+00 7.175036072731018066e-01 -6.018115878105163574e-01 1.200000000000000000e+01
3.605218887329102007e+00 8.575544953346252441e-01 -5.869421362876892090e-01 9.000000000000000000e+00
3.769686126708983664e+01 8.959802627563476562e+00 4.757535457611083984e+00 2.000000000000000000e+01
4.608250141143798828e+00 1.094440937042236106e+00 -5.815604925155639648e-01 9.000000000000000000e+00
5.895132064819335938e+00 1.398983240127563032e+00 -5.300812125205993652e-01 9.000000000000000000e+00
8.545347213745117188e+00 2.024759531021118164e+00 -4.602423906326293945e-01 1.000000000000000000e+00
3.429866790771483664e+01 8.120504379272460938e+00 8.137379646301269531e+00 1.000000000000000000e+01
1.508913612365723012e+01 3.569701671600341797e+00 -2.706519067287445068e-01 2.000000000000000000e+00
3.656333541870117188e+01 8.649944305419921875e+00 1.006754302978515980e+01 8.000000000000000000e+00
2.254813909530640093e+00 5.301075577735900879e-01 -6.206480860710144043e-01 1.500000000000000000e+01
2.580157518386840820e+00 6.056455969810485840e-01 -6.118668913841247559e-01 1.300000000000000000e+01
3.014250993728638139e+00 7.069861888885498047e-01 -6.018115878105163574e-01 1.100000000000000000e+01
3.608190298080443892e+00 8.449647426605224609e-01 -5.869421362876892090e-01 9.000000000000000000e+00
3.769697952270507812e+01 8.820925712585449219e+00 4.753635406494140625e+00 2.000000000000000000e+01
4.608176708221436435e+00 1.077444553375243919e+00 -5.810730457305908203e-01 1.100000000000000000e+01
3.590166091918945312e+01 8.387611389160156250e+00 5.839385509490966797e+00 1.300000000000000000e+01
5.898039340972900391e+00 1.377943634986876997e+00 -5.299069285392761230e-01 9.000000000000000000e+00
8.490121841430664062e+00 1.980399966239928977e+00 -4.568929076194763184e-01 1.000000000000000000e+00
3.359422683715820312e+01 7.829984188079833984e+00 7.963717460632324219e+00 1.000000000000000000e+01
1.513266658782958984e+01 3.524266004562377930e+00 -2.712104022502899170e-01 2.000000000000000000e+00
3.671897506713867188e+01 8.544773101806640625e+00 1.010170745849609020e+01 8.000000000000000000e+00
2.271890878677368164e+00 5.249249935150146484e-01 -6.247891783714294434e-01 1.500000000000000000e+01
2.588160514831542969e+00 5.970481634140014648e-01 -6.132165789604187012e-01 1.300000000000000000e+01
3.016943454742432085e+00 6.954071521759033203e-01 -6.018115878105163574e-01 1.100000000000000000e+01
3.619108438491820845e+00 8.328761458396911621e-01 -5.881935954093933105e-01 9.000000000000000000e+00
3.787373352050781250e+01 8.709033966064453125e+00 4.771672248840332031e+00 2.000000000000000000e+01
4.616148948669433594e+00 1.060631513595581055e+00 -5.815604925155639648e-01 9.000000000000000000e+00
3.583733749389647727e+01 8.227596282958984375e+00 5.823742389678955078e+00 1.300000000000000000e+01
5.914937973022460938e+00 1.357961535453795943e+00 -5.309528112411499023e-01 9.000000000000000000e+00
8.513236999511718750e+00 1.951355457305907981e+00 -4.577302634716033936e-01 4.000000000000000000e+00
3.365443801879882812e+01 7.707895278930664062e+00 7.970915794372558594e+00 1.000000000000000000e+01
1.518507289886474965e+01 3.475056886672974077e+00 -2.719084918498992920e-01 2.000000000000000000e+00
3.298747634887695312e+01 7.549081325531005859e+00 9.067466735839843750e+00 6.000000000000000000e+00
2.264290571212768999e+00 5.148497819900512695e-01 -6.222009658813476562e-01 1.600000000000000000e+01
2.595930099487305132e+00 5.893043875694274902e-01 -6.145662665367126465e-01 1.400000000000000000e+01
3.009779453277587891e+00 6.827003359794616699e-01 -5.999034643173217773e-01 1.200000000000000000e+01
3.623920202255249023e+00 8.206743597984313965e-01 -5.885064601898193359e-01 8.000000000000000000e+00
3.783032989501953125e+01 8.560129165649414062e+00 4.762410163879395419e+00 2.000000000000000000e+01
4.606269836425781250e+00 1.041447281837462935e+00 -5.798543095588684082e-01 1.100000000000000000e+01
3.586583709716796875e+01 8.102451324462890625e+00 5.823742389678955078e+00 1.300000000000000000e+01
5.911868572235107422e+00 1.335550189018249956e+00 -5.302555561065673828e-01 9.000000000000000000e+00
8.551170349121093750e+00 1.928657770156859907e+00 -4.594050347805023193e-01 4.000000000000000000e+00
1.518150424957275035e+01 3.418515682220458984e+00 -2.716292440891265869e-01 2.000000000000000000e+00
3.301362609863281250e+01 7.433887481689453125e+00 9.067466735839843750e+00 6.000000000000000000e+00
2.256471395492554155e+00 5.056217312812805176e-01 -6.196128129959106445e-01 1.500000000000000000e+01
2.607277154922484907e+00 5.832732915878295898e-01 -6.168158054351806641e-01 1.500000000000000000e+01
3.015741348266602007e+00 6.740980148315429688e-01 -6.006667017936706543e-01 1.200000000000000000e+01
3.626480579376221147e+00 8.092854022979736328e-01 -5.885064601898193359e-01 9.000000000000000000e+00
4.617269039154052734e+00 1.028697967529297097e+00 -5.808292627334594727e-01 1.100000000000000000e+01
3.608253097534179688e+01 8.038956642150878906e+00 5.855029106140136719e+00 1.300000000000000000e+01
5.916035175323486328e+00 1.316970944404602051e+00 -5.302555561065673828e-01 9.000000000000000000e+00
8.559136390686035156e+00 1.902217268943787065e+00 -4.595097005367279053e-01 6.000000000000000000e+00
3.309985351562500000e+01 7.350183963775634766e+00 7.827847003936767578e+00 9.000000000000000000e+00
1.519607353210449041e+01 3.371670961380004883e+00 -2.716990709304810125e-01 2.000000000000000000e+00
3.308713531494141336e+01 7.335240840911865234e+00 9.080924987792968750e+00 6.000000000000000000e+00
2.261995553970336914e+00 4.985737800598145086e-01 -6.206480860710144043e-01 1.500000000000000000e+01
2.599781274795531782e+00 5.720747113227844238e-01 -6.145662665367126465e-01 1.400000000000000000e+01
3.842277526855468750e+01 8.454825401306152344e+00 2.061827421188354048e+00 2.200000000000000000e+01
3.027663230895996094e+00 6.656749248504638672e-01 -6.025748252868652344e-01 1.200000000000000000e+01
3.629283428192139116e+00 7.966216802597045898e-01 -5.885064601898193359e-01 8.000000000000000000e+00
3.610238265991210938e+01 7.917808532714843750e+00 4.538170814514160156e+00 1.900000000000000000e+01
4.632466316223145419e+00 1.015123844146728960e+00 -5.822917222976684570e-01 1.100000000000000000e+01
3.623910903930664062e+01 7.934538364410400391e+00 5.875678539276123047e+00 1.300000000000000000e+01
5.942005157470703125e+00 1.300999641418457031e+00 -5.321729779243469238e-01 9.000000000000000000e+00
3.555780029296875000e+01 7.778862476348876953e+00 7.075197696685791016e+00 6.100000000000000000e+01
8.604748725891113281e+00 1.880858659744262917e+00 -4.616031348705291748e-01 4.000000000000000000e+00
1.527808380126952947e+01 3.333954334259033203e+00 -2.729556262493134100e-01 2.000000000000000000e+00
3.288226318359375000e+01 7.169492244720458984e+00 9.017773628234863281e+00 6.000000000000000000e+00
2.267498254776000977e+00 4.914933741092681885e-01 -6.216833591461181641e-01 1.500000000000000000e+01
2.599857807159423828e+00 5.625841021537780762e-01 -6.141163706779479980e-01 1.200000000000000000e+01
3.857308197021483664e+01 8.346842765808105469e+00 2.068316936492919922e+00 2.200000000000000000e+01
3.033806324005126953e+00 6.559321284294128418e-01 -6.033380627632141113e-01 1.300000000000000000e+01
3.626249313354492188e+00 7.826979756355285645e-01 -5.875678658485412598e-01 9.000000000000000000e+00
3.612979888916016336e+01 7.791739463806152344e+00 4.538170814514160156e+00 1.900000000000000000e+01
4.634040832519531250e+00 9.985292553901672363e-01 -5.820479989051818848e-01 9.000000000000000000e+00
3.630384445190429688e+01 7.822643280029296875e+00 5.881936073303222656e+00 1.300000000000000000e+01
5.936771869659423828e+00 1.278153538703918013e+00 -5.313013792037963867e-01 9.000000000000000000e+00
3.558473968505858664e+01 7.654695510864257812e+00 7.075197696685791016e+00 6.100000000000000000e+01
8.636646270751953125e+00 1.856266975402832031e+00 -4.629638791084290106e-01 3.000000000000000000e+00
1.532482147216797053e+01 3.288154840469359907e+00 -2.735839188098906916e-01 2.000000000000000000e+00
2.276757717132567915e+00 4.851858913898468018e-01 -6.237539052963256836e-01 1.400000000000000000e+01
2.603711843490601030e+00 5.539109706878662109e-01 -6.145662665367126465e-01 1.200000000000000000e+01
3.030316352844237837e+00 6.441136002540588379e-01 -6.021931767463684082e-01 1.200000000000000000e+01
3.648282766342163086e+00 7.741355299949645996e-01 -5.906965136528015137e-01 9.000000000000000000e+00
4.635556221008300781e+00 9.819359779357910156e-01 -5.818042159080505371e-01 1.100000000000000000e+01
5.966536998748779297e+00 1.262785553932189941e+00 -5.335674285888671875e-01 9.000000000000000000e+00
3.561124038696289062e+01 7.530435085296630859e+00 7.075197696685791016e+00 6.100000000000000000e+01
8.650889396667480469e+00 1.827759623527527078e+00 -4.633825421333312988e-01 1.000000000000000000e+00
1.534794616699218928e+01 3.237117290496826172e+00 -2.737933397293090820e-01 2.000000000000000000e+00
3.362715530395507812e+01 7.086352825164794922e+00 9.208264350891113281e+00 6.000000000000000000e+00
2.274655818939208984e+00 4.764434695243834894e-01 -6.227186322212219238e-01 1.600000000000000000e+01
5.945279693603516336e+01 1.244199657440186080e+01 1.060233712196350098e+00 6.100000000000000000e+01
2.613259315490723100e+00 5.464143753051757812e-01 -6.163659095764160156e-01 1.300000000000000000e+01
3.857567596435546875e+01 8.065904617309570312e+00 2.065386295318603960e+00 2.200000000000000000e+01
3.028702735900878906e+00 6.327289342880249023e-01 -6.014299392700195312e-01 1.200000000000000000e+01
3.645161628723144975e+00 7.601860761642456055e-01 -5.897579193115234375e-01 9.000000000000000000e+00
4.650616168975830078e+00 9.681763648986816406e-01 -5.832666754722595215e-01 1.100000000000000000e+01
5.947500705718994141e+00 1.237082004547118919e+00 -5.314757227897644043e-01 9.000000000000000000e+00
8.684594154357910156e+00 1.803235769271851030e+00 -4.648479521274567206e-01 3.000000000000000000e+00
3.396631622314453125e+01 7.046451568603515625e+00 8.008707046508789062e+00 1.000000000000000000e+01
1.541006278991699041e+01 3.194075584411621094e+00 -2.747008800506591797e-01 2.000000000000000000e+00
3.313594055175781250e+01 6.868155479431152344e+00 9.067466735839843750e+00 6.000000000000000000e+00
2.270628452301024947e+00 4.673322141170502264e-01 -6.211656928062438965e-01 1.600000000000000000e+01
2.626604080200194868e+00 5.396421551704406738e-01 -6.190652847290039062e-01 1.400000000000000000e+01
3.807145690917968750e+01 7.821872234344482422e+00 2.036915302276610884e+00 2.200000000000000000e+01
3.040508747100830078e+00 6.241267919540405273e-01 -6.033380627632141113e-01 1.300000000000000000e+01
3.647792816162108931e+00 7.474574446678161621e-01 -5.897579193115234375e-01 1.100000000000000000e+01
4.648132801055908203e+00 9.507433772087097168e-01 -5.825354456901550293e-01 9.000000000000000000e+00
5.965446949005126953e+00 1.219106197357177956e+00 -5.326958894729614258e-01 9.000000000000000000e+00
8.694749832153320312e+00 1.773708343505858931e+00 -4.650573134422302246e-01 3.000000000000000000e+00
3.419692993164063211e+01 6.969875812530517578e+00 8.057296752929687500e+00 1.000000000000000000e+01
1.542111778259276988e+01 3.140264987945557085e+00 -2.747008800506591797e-01 2.000000000000000000e+00
3.309652709960938211e+01 6.733564853668212891e+00 9.049866676330566406e+00 6.000000000000000000e+00
2.276032924652100053e+00 4.601690769195557196e-01 -6.222009658813476562e-01 1.600000000000000000e+01
2.620830774307250977e+00 5.289282202720642090e-01 -6.172657012939453125e-01 1.400000000000000000e+01
3.038819789886475053e+00 6.127335429191589355e-01 -6.025748252868652344e-01 1.200000000000000000e+01
3.636823892593383789e+00 7.319913506507873535e-01 -5.875678658485412598e-01 1.100000000000000000e+01
3.740274810791016336e+01 7.521338939666748047e+00 4.684413909912109375e+00 2.000000000000000000e+01
4.659208297729492188e+00 9.360766410827636719e-01 -5.835103988647460938e-01 9.000000000000000000e+00
3.633980560302733664e+01 7.300992488861083984e+00 5.870672702789306641e+00 1.300000000000000000e+01
5.965759277343750000e+00 1.197491288185120073e+00 -5.323472619056701660e-01 9.000000000000000000e+00
8.696971893310546875e+00 1.742562413215636985e+00 -4.648479521274567206e-01 3.000000000000000000e+00
3.417901229858397727e+01 6.842048168182373047e+00 8.047398567199707031e+00 1.000000000000000000e+01
1.548296833038330078e+01 3.096612453460692915e+00 -2.756083905696868896e-01 2.000000000000000000e+00
3.518350219726563211e+01 7.036743640899658203e+00 9.614091873168945312e+00 7.000000000000000000e+00
2.277625560760498047e+00 4.522214233875275213e-01 -6.222009658813476562e-01 1.600000000000000000e+01
2.613103389739989790e+00 5.178823471069335938e-01 -6.150161623954772949e-01 1.200000000000000000e+01
3.800106048583983664e+01 7.524412631988525391e+00 2.030216455459595171e+00 2.200000000000000000e+01
3.052495241165161133e+00 6.044103503227233887e-01 -6.048645377159118652e-01 1.300000000000000000e+01
3.654860019683837891e+00 7.223560810089111328e-01 -5.900707840919494629e-01 1.200000000000000000e+01
4.670237541198729581e+00 9.213441014289855957e-01 -5.844853520393371582e-01 9.000000000000000000e+00
3.656013107299804688e+01 7.205950736999511719e+00 5.901959419250488281e+00 1.300000000000000000e+01
5.977722167968750000e+00 1.178200721740723100e+00 -5.330445170402526855e-01 9.000000000000000000e+00
8.738275527954101562e+00 1.719133496284485085e+00 -4.667320549488068182e-01 3.000000000000000000e+00
3.305539321899414062e+01 6.497193813323974609e+00 7.777457714080811435e+00 9.000000000000000000e+00
1.554077625274658025e+01 3.051795959472655806e+00 -2.764461040496826172e-01 2.000000000000000000e+00
3.329059600830078125e+01 6.531355381011962891e+00 9.090242385864257812e+00 6.000000000000000000e+00
2.288748741149901900e+00 4.457168579101563055e-01 -6.247891783714294434e-01 1.400000000000000000e+01
2.597767591476439986e+00 5.049548745155334473e-01 -6.109670400619506836e-01 8.000000000000000000e+00
3.048908233642578125e+00 5.920954942703247070e-01 -6.037196516990661621e-01 1.200000000000000000e+01
3.669118881225585938e+00 7.112109065055847168e-01 -5.919480323791503906e-01 1.200000000000000000e+01
4.654093265533447266e+00 9.004499316215515137e-01 -5.820479989051818848e-01 9.000000000000000000e+00
5.995693683624267578e+00 1.158930182456969993e+00 -5.342646837234497070e-01 9.000000000000000000e+00
8.732751846313476562e+00 1.684824466705322044e+00 -4.661040306091309149e-01 1.000000000000000000e+00
3.317466354370117188e+01 6.394437789916992188e+00 7.799952983856201172e+00 9.000000000000000000e+00
1.555185699462890980e+01 2.994815587997436968e+00 -2.764461040496826172e-01 2.000000000000000000e+00
3.335871887207031250e+01 6.423876762390136719e+00 9.102665901184082031e+00 6.000000000000000000e+00
2.284598112106322798e+00 4.366369545459746759e-01 -6.232362389564514160e-01 1.600000000000000000e+01
2.599514245986938032e+00 4.958838820457457941e-01 -6.109670400619506836e-01 8.000000000000000000e+00
3.798330307006835938e+01 7.238831996917724609e+00 2.026448249816894975e+00 2.200000000000000000e+01
3.045170783996582031e+00 5.803465843200683594e-01 -6.025748252868652344e-01 1.200000000000000000e+01
3.669638395309447798e+00 6.980298161506652832e-01 -5.916351675987243652e-01 1.100000000000000000e+01
3.703215789794921875e+01 7.037471771240234375e+00 4.628354072570800781e+00 1.900000000000000000e+01
4.666959762573242188e+00 8.860499262809753418e-01 -5.832666754722595215e-01 1.100000000000000000e+01
6.001659870147705078e+00 1.138365507125854048e+00 -5.344390273094177246e-01 9.000000000000000000e+00
8.762127876281738281e+00 1.658789277076720969e+00 -4.673600792884827215e-01 1.000000000000000000e+00
3.324273681640625000e+01 6.287289142608642578e+00 7.810750484466552734e+00 9.000000000000000000e+00
1.556221580505370916e+01 2.940511226654053178e+00 -2.764461040496826172e-01 2.000000000000000000e+00
3.427045440673828125e+01 6.469275474548339844e+00 9.344920158386230469e+00 7.000000000000000000e+00
2.269019603729248047e+00 4.254553020000457764e-01 -6.185775399208068848e-01 1.500000000000000000e+01
2.605060338973999023e+00 4.875237941741942804e-01 -6.118668913841247559e-01 8.000000000000000000e+00
3.771385192871093750e+01 7.051143169403076172e+00 2.010747432708739790e+00 2.100000000000000000e+01
3.052967548370360884e+00 5.707958340644836426e-01 -6.037196516990661621e-01 1.200000000000000000e+01
3.675936460494995117e+00 6.859408617019653320e-01 -5.922608971595764160e-01 1.000000000000000000e+01
3.684964370727539062e+01 6.869599819183349609e+00 4.602517604827880859e+00 1.900000000000000000e+01
4.679781913757324219e+00 8.715711236000061035e-01 -5.844853520393371582e-01 9.000000000000000000e+00
3.741037750244141336e+01 6.967377662658691406e+00 6.027107238769531250e+00 1.300000000000000000e+01
6.001679420471191406e+00 1.116680026054382102e+00 -5.340903997421264648e-01 9.000000000000000000e+00
8.814993858337402344e+00 1.636945486068726030e+00 -4.698722064495087225e-01 1.000000000000000000e+00
3.431064224243164062e+01 6.365295410156250000e+00 8.056397438049316406e+00 1.000000000000000000e+01
1.560777759552001953e+01 2.892730474472045898e+00 -2.770743966102600098e-01 2.000000000000000000e+00
3.410936737060546875e+01 6.321797847747802734e+00 9.295227050781250000e+00 6.000000000000000000e+00
2.285690784454346147e+00 4.203275442123413086e-01 -6.227186322212219238e-01 1.500000000000000000e+01
2.610579729080200195e+00 4.791310429573059082e-01 -6.127666831016540527e-01 8.000000000000000000e+00
3.068458795547484907e+00 5.626140236854553223e-01 -6.063910126686096191e-01 1.200000000000000000e+01
3.670535802841186968e+00 6.716829538345336914e-01 -5.910094380378723145e-01 1.000000000000000000e+01
3.674842453002929688e+01 6.718081951141357422e+00 4.586918354034423828e+00 1.900000000000000000e+01
4.686701297760009766e+00 8.559436202049255371e-01 -5.849728584289550781e-01 9.000000000000000000e+00
6.021221160888671875e+00 1.098584294319153054e+00 -5.354849100112915039e-01 9.000000000000000000e+00
8.797074317932128906e+00 1.601871728897094949e+00 -4.686161577701569159e-01 1.000000000000000000e+00
1.568073844909667969e+01 2.849673271179199219e+00 -2.781913578510283869e-01 2.000000000000000000e+00
3.354877090454102273e+01 6.090796470642089844e+00 9.136312484741210938e+00 1.300000000000000000e+01
2.296505451202393022e+00 4.148619174957274836e-01 -6.253067851066589355e-01 1.600000000000000000e+01
2.608236312866210938e+00 4.702357947826384943e-01 -6.118668913841247559e-01 8.000000000000000000e+00
3.056685924530028853e+00 5.505353808403015137e-01 -6.037196516990661621e-01 1.200000000000000000e+01
3.682348966598511186e+00 6.618956923484802246e-01 -5.925737619400024414e-01 1.200000000000000000e+01
3.667165374755858664e+01 6.585057735443115234e+00 4.574731349945068359e+00 1.900000000000000000e+01
4.675689697265625000e+00 8.387621641159057617e-01 -5.832666754722595215e-01 1.100000000000000000e+01
3.648359298706054688e+01 6.544715404510498047e+00 5.870672702789306641e+00 1.300000000000000000e+01
6.022681713104248047e+00 1.079311251640320046e+00 -5.353105664253234863e-01 9.000000000000000000e+00
8.802063941955566406e+00 1.574227094650268999e+00 -4.686161577701569159e-01 3.000000000000000000e+00
3.396842956542968750e+01 6.069050788879395419e+00 7.966416835784912109e+00 1.000000000000000000e+01
1.573292255401610973e+01 2.808126926422119141e+00 -2.789592742919921875e-01 2.000000000000000000e+00
3.366558837890625000e+01 6.008879661560058594e+00 9.163229942321777344e+00 1.300000000000000000e+01
2.303646326065063032e+00 4.078534543514252264e-01 -6.268597245216369629e-01 1.500000000000000000e+01
2.602185964584351030e+00 4.597722291946411133e-01 -6.100672483444213867e-01 8.000000000000000000e+00
3.788164138793945312e+01 6.686372756958007812e+00 2.015980958938599077e+00 2.200000000000000000e+01
3.056655645370482954e+00 5.395209789276123047e-01 -6.033380627632141113e-01 1.200000000000000000e+01
3.680746316909790039e+00 6.483525037765502930e-01 -5.919480323791503906e-01 1.100000000000000000e+01
3.786745071411132812e+01 6.663424968719482422e+00 4.720974445343017578e+00 2.000000000000000000e+01
4.686409473419188565e+00 8.238105773925781250e-01 -5.842416286468505859e-01 1.100000000000000000e+01
6.044073581695556641e+00 1.061383008956908958e+00 -5.368793606758117676e-01 8.000000000000000000e+00
8.823243141174316406e+00 1.546250700950623003e+00 -4.694535136222838800e-01 1.000000000000000000e+00
1.573868942260742010e+01 2.752502679824829102e+00 -2.788894474506378174e-01 2.000000000000000000e+00
3.371593093872070312e+01 5.890435695648193359e+00 9.170993804931640625e+00 6.000000000000000000e+00
2.293635368347167969e+00 3.978288471698760986e-01 -6.237539052963256836e-01 1.500000000000000000e+01
2.611455678939818892e+00 4.520155489444733221e-01 -6.118668913841247559e-01 8.000000000000000000e+00
3.790475082397460938e+01 6.554100036621093750e+00 2.015980958938599077e+00 2.200000000000000000e+01
3.066258668899536133e+00 5.301859974861145020e-01 -6.048645377159118652e-01 1.100000000000000000e+01
3.692719936370850053e+00 6.371797919273376465e-01 -5.935123562812805176e-01 1.000000000000000000e+01
3.779266738891602273e+01 6.514342308044433594e+00 4.708787918090820312e+00 2.000000000000000000e+01
4.691212654113770419e+00 8.077837824821472168e-01 -5.844853520393371582e-01 9.000000000000000000e+00
6.043814659118652344e+00 1.039603352546691895e+00 -5.365307331085205078e-01 6.000000000000000000e+00
8.836461067199707031e+00 1.516793966293334961e+00 -4.698722064495087225e-01 1.000000000000000000e+00
3.401765441894531250e+01 5.833077907562255859e+00 7.968216419219970703e+00 1.000000000000000000e+01
1.576791191101074041e+01 2.700923681259154829e+00 -2.792384922504425049e-01 2.000000000000000000e+00
2.295010089874268022e+00 3.898201584815979004e-01 -6.237539052963256836e-01 1.500000000000000000e+01
5.949052047729492188e+01 1.009411144256591975e+01 1.053252696990967019e+00 6.200000000000000000e+01
2.632230997085570845e+00 4.461537003517150879e-01 -6.163659095764160156e-01 8.000000000000000000e+00
3.805342864990233664e+01 6.443087100982666016e+00 2.022680044174193892e+00 2.200000000000000000e+01
3.073897600173950195e+00 5.204627513885498047e-01 -6.060093641281127930e-01 1.200000000000000000e+01
3.691026210784912109e+00 6.236277222633361816e-01 -5.928866267204284668e-01 1.100000000000000000e+01
4.701833724975585938e+00 7.927235960960388184e-01 -5.854603052139282227e-01 9.000000000000000000e+00
6.055265426635742188e+00 1.019823670387268066e+00 -5.372279882431030273e-01 9.000000000000000000e+00
3.468232727050781250e+01 5.834949493408203125e+00 6.836304664611816406e+00 5.900000000000000000e+01
8.857459068298339844e+00 1.488587856292725053e+00 -4.707095921039580744e-01 3.000000000000000000e+00
3.394171524047852273e+01 5.698166370391845703e+00 7.945721149444580078e+00 9.000000000000000000e+00
1.584035205841063920e+01 2.656450510025023970e+00 -2.803554534912108820e-01 2.000000000000000000e+00
3.385050582885742188e+01 5.676779747009277344e+00 9.196875572204589844e+00 6.000000000000000000e+00
2.296356916427611861e+00 3.818067014217377264e-01 -6.237539052963256836e-01 1.400000000000000000e+01
2.612625122070312944e+00 4.334543347358704168e-01 -6.114169359207153320e-01 8.000000000000000000e+00
3.804809951782227273e+01 6.305644989013671875e+00 2.021214723587036133e+00 2.200000000000000000e+01
3.081506252288817915e+00 5.106926560401916504e-01 -6.071542501449584961e-01 1.100000000000000000e+01
3.687333822250366211e+00 6.097729802131652832e-01 -5.919480323791503906e-01 1.100000000000000000e+01
3.685794830322266336e+01 6.088576316833496094e+00 4.586918354034423828e+00 1.900000000000000000e+01
4.700654983520507812e+00 7.756599187850952148e-01 -5.849728584289550781e-01 9.000000000000000000e+00
6.050925254821777344e+00 9.973845481872558594e-01 -5.365307331085205078e-01 9.000000000000000000e+00
8.878367424011230469e+00 1.460253596305846946e+00 -4.715469777584075928e-01 1.000000000000000000e+00
3.354988479614257812e+01 5.512043952941895419e+00 7.849442005157470703e+00 9.000000000000000000e+00
1.582190227508544922e+01 2.596607208251953125e+00 -2.798667848110198975e-01 2.000000000000000000e+00
3.367948150634766336e+01 5.527298927307128906e+00 9.145112037658691406e+00 6.000000000000000000e+00
2.309116363525391069e+00 3.756497800350189209e-01 -6.268597245216369629e-01 1.400000000000000000e+01
2.594886779785155806e+00 4.212095439434052069e-01 -6.069179177284240723e-01 7.000000000000000000e+00
3.797130203247070312e+01 6.156810283660888672e+00 2.015980958938599077e+00 2.200000000000000000e+01
3.081332206726074219e+00 4.996188282966613770e-01 -6.067726016044616699e-01 1.000000000000000000e+01
3.718552780151367188e+01 6.022741317749023438e+00 3.295707225799560991e+00 4.800000000000000000e+01
3.699189901351929155e+00 5.984754562377929688e-01 -5.935123562812805176e-01 1.100000000000000000e+01
3.663206100463867188e+01 5.919977188110351562e+00 4.556207180023193359e+00 1.900000000000000000e+01
4.719011783599854404e+00 7.617776393890380859e-01 -5.869227647781372070e-01 9.000000000000000000e+00
6.066171646118164062e+00 9.781598448753356934e-01 -5.375766158103942871e-01 9.000000000000000000e+00
3.458266448974608664e+01 5.570202827453613281e+00 6.808828353881835938e+00 5.900000000000000000e+01
8.883410453796386719e+00 1.429253458976746050e+00 -4.715469777584075928e-01 3.000000000000000000e+00
3.326107406616210938e+01 5.345424652099609375e+00 7.777457714080811435e+00 9.000000000000000000e+00
1.592959117889403942e+01 2.557210445404053178e+00 -2.816120386123657227e-01 2.000000000000000000e+00
3.722454452514647727e+01 5.969069480895996094e+00 1.010170745849609020e+01 8.000000000000000000e+00
2.312321424484252930e+00 3.678907155990601141e-01 -6.273773908615112305e-01 1.700000000000000000e+01
5.939546966552733664e+01 9.439200401306152344e+00 1.049762248992919922e+00 6.300000000000000000e+01
2.580944061279296875e+00 4.097049534320830744e-01 -6.033187508583068848e-01 7.000000000000000000e+00
3.799256515502929688e+01 6.024228572845458984e+00 2.015980958938599077e+00 2.200000000000000000e+01
3.069484233856201172e+00 4.867077171802520752e-01 -6.041013002395629883e-01 1.100000000000000000e+01
3.730471801757813211e+01 5.908486843109130859e+00 3.304422855377196822e+00 4.800000000000000000e+01
3.703207492828369141e+00 5.858679413795471191e-01 -5.938252210617065430e-01 1.100000000000000000e+01
3.944854736328125000e+01 6.233921051025390625e+00 4.903778553009033203e+00 2.100000000000000000e+01
4.713798999786376953e+00 7.440625429153442383e-01 -5.859478116035461426e-01 9.000000000000000000e+00
6.085293769836425781e+00 9.594613909721374512e-01 -5.389711260795593262e-01 9.000000000000000000e+00
8.919913291931152344e+00 1.403201818466186968e+00 -4.732217192649840753e-01 1.000000000000000000e+00
3.347204208374022727e+01 5.259539127349854404e+00 7.822447776794433594e+00 9.000000000000000000e+00
1.597002792358398082e+01 2.506551265716553178e+00 -2.821705043315886896e-01 2.000000000000000000e+00
3.498448181152343750e+01 5.490935802459716797e+00 9.488823890686035156e+00 7.000000000000000000e+00
2.305955886840819868e+00 3.586294353008270264e-01 -6.253067851066589355e-01 1.800000000000000000e+01
2.482222318649291992e+00 3.851555883884429932e-01 -5.799238085746765137e-01 7.000000000000000000e+00
3.075044631958007812e+00 4.765916168689727783e-01 -6.048645377159118652e-01 1.100000000000000000e+01
3.722666931152343750e+01 5.762992858886718750e+00 3.295707225799560991e+00 4.800000000000000000e+01
3.720847368240356001e+00 5.753526687622070312e-01 -5.963281989097595215e-01 1.100000000000000000e+01
3.868533325195313211e+01 5.974979400634765625e+00 4.806282997131347656e+00 2.000000000000000000e+01
4.712443828582763672e+00 7.269984483718872070e-01 -5.854603052139282227e-01 9.000000000000000000e+00
3.682882308959960938e+01 5.675078392028808594e+00 5.901959419250488281e+00 1.300000000000000000e+01
6.084667682647705078e+00 9.376070499420166016e-01 -5.386224985122680664e-01 9.000000000000000000e+00
8.924757003784179688e+00 1.372056961059570090e+00 -4.732217192649840753e-01 1.000000000000000000e+00
3.356724548339843750e+01 5.154499053955078125e+00 7.840444087982177734e+00 9.000000000000000000e+00
1.599844646453857067e+01 2.453821897506713867e+00 -2.825195491313933771e-01 2.000000000000000000e+00
3.491559982299804688e+01 5.355311393737792969e+00 9.465012550354003906e+00 7.000000000000000000e+00
2.299553871154785156e+00 3.494171202182769775e-01 -6.232362389564514160e-01 1.800000000000000000e+01
4.010060119628906250e+01 6.086124420166015625e+00 7.079743146896362305e-01 3.600000000000000000e+01
2.456577539443970171e+00 3.723995685577393133e-01 -5.736252069473266602e-01 1.000000000000000000e+01
3.803268814086914062e+01 5.765483856201171875e+00 2.015980958938599077e+00 2.200000000000000000e+01
3.078630685806273970e+00 4.661487340927124023e-01 -6.052461266517639160e-01 1.000000000000000000e+01
3.713067054748535156e+00 5.608857274055480957e-01 -5.947638154029846191e-01 1.000000000000000000e+01
4.730656147003173828e+00 7.129110693931579590e-01 -5.874102115631103516e-01 9.000000000000000000e+00
6.107605457305908203e+00 9.193274974822998047e-01 -5.403655767440795898e-01 9.000000000000000000e+00
8.972944259643554688e+00 1.347420454025268999e+00 -4.755244851112365723e-01 1.000000000000000000e+00
3.343663787841796875e+01 5.015038967132568359e+00 7.805801391601563388e+00 9.000000000000000000e+00
1.605437660217285156e+01 2.405072212219237837e+00 -2.833572626113892157e-01 2.000000000000000000e+00
2.302670478820800781e+00 3.416715860366820734e-01 -6.237539052963256836e-01 1.600000000000000000e+01
5.949105834960938211e+01 8.816706657409667969e+00 1.049762248992919922e+00 6.300000000000000000e+01
2.450151443481444868e+00 3.626808524131774902e-01 -5.718255639076232910e-01 9.000000000000000000e+00
3.832226943969727273e+01 5.665775299072265625e+00 2.030216455459595171e+00 2.200000000000000000e+01
3.089949846267700195e+00 4.568351507186890204e-01 -6.071542501449584961e-01 1.100000000000000000e+01
3.711093902587891069e+00 5.473448634147644043e-01 -5.941380858421325684e-01 1.100000000000000000e+01
3.656581497192382812e+01 5.386528491973876953e+00 4.538170814514160156e+00 1.900000000000000000e+01
4.744899272918701172e+00 6.981273889541625977e-01 -5.888726711273193359e-01 9.000000000000000000e+00
6.095007419586181641e+00 8.956848978996276855e-01 -5.389711260795593262e-01 9.000000000000000000e+00
8.969688415527343750e+00 1.314931988716125044e+00 -4.751058220863341730e-01 1.000000000000000000e+00
1.611412048339844105e+01 2.356540679931641069e+00 -2.842648029327393133e-01 2.000000000000000000e+00
3.449807357788085938e+01 5.038874149322509766e+00 9.341814994812011719e+00 7.000000000000000000e+00
2.319085836410522017e+00 3.362514376640319824e-01 -6.278949975967407227e-01 1.900000000000000000e+01
2.439768552780150923e+00 3.528801202774047852e-01 -5.691261887550354004e-01 9.000000000000000000e+00
3.089504480361938032e+00 4.463053047657012939e-01 -6.067726016044616699e-01 1.100000000000000000e+01
3.708684158325195312e+01 5.350903034210205078e+00 3.278276205062866211e+00 4.700000000000000000e+01
3.712888479232788086e+00 5.350354313850402832e-01 -5.941380858421325684e-01 1.100000000000000000e+01
3.720436859130858664e+01 5.354603290557861328e+00 4.615191936492919922e+00 1.900000000000000000e+01
4.727539539337158203e+00 6.795644164085388184e-01 -5.864352583885192871e-01 9.000000000000000000e+00
3.610317993164063211e+01 5.183252811431884766e+00 5.776812076568604404e+00 1.300000000000000000e+01
6.125554561614990234e+00 8.794322013854980469e-01 -5.414114594459533691e-01 9.000000000000000000e+00
8.970045089721679688e+00 1.284613966941833052e+00 -4.748964607715607245e-01 1.000000000000000000e+00
3.400629043579102273e+01 4.864036083221436435e+00 7.930874347686767578e+00 9.000000000000000000e+00
1.616935539245605113e+01 2.309878587722777876e+00 -2.851025164127349854e-01 2.000000000000000000e+00
3.493064498901367188e+01 4.990028381347656250e+00 9.454659461975097656e+00 7.000000000000000000e+00
2.314507007598876953e+00 3.273426592350006104e-01 -6.263421177864074707e-01 1.800000000000000000e+01
2.437126398086547852e+00 3.438171446323394775e-01 -5.682263374328613281e-01 9.000000000000000000e+00
3.100764036178588867e+00 4.368877410888671875e-01 -6.086806654930114746e-01 1.100000000000000000e+01
3.726470470428466797e+00 5.237212777137756348e-01 -5.960153341293334961e-01 1.000000000000000000e+01
3.692403030395507812e+01 5.182762145996093750e+00 4.578143596649169922e+00 1.900000000000000000e+01
4.729882717132568359e+00 6.630581021308898926e-01 -5.864352583885192871e-01 9.000000000000000000e+00
6.132533073425292969e+00 8.585971593856811523e-01 -5.417600870132446289e-01 9.000000000000000000e+00
3.507975387573242188e+01 4.905166149139404297e+00 6.885151863098145419e+00 6.000000000000000000e+01
8.994256019592285156e+00 1.256057143211364968e+00 -4.759431779384613037e-01 1.000000000000000000e+00
3.384549713134766336e+01 4.720536708831787109e+00 7.889483451843261719e+00 9.000000000000000000e+00
1.617732048034667969e+01 2.253422975540161133e+00 -2.851025164127349854e-01 2.000000000000000000e+00
3.549507522583007812e+01 4.944293022155761719e+00 9.602704048156738281e+00 7.000000000000000000e+00
2.323290586471558061e+00 3.203169405460358221e-01 -6.284126639366149902e-01 1.700000000000000000e+01
2.446033954620360884e+00 3.363698422908782959e-01 -5.700259804725646973e-01 1.000000000000000000e+01
3.096435070037841797e+00 4.252600371837615967e-01 -6.075358390808105469e-01 1.100000000000000000e+01
3.736104249954224077e+00 5.117826461791992188e-01 -5.972667932510375977e-01 1.000000000000000000e+01
3.720937728881835938e+01 5.090434551239013672e+00 4.611292362213134766e+00 1.900000000000000000e+01
4.730201721191406250e+00 6.462749838829040527e-01 -5.861915349960327148e-01 8.000000000000000000e+00
3.685004043579102273e+01 5.034724235534667969e+00 5.890696048736572266e+00 1.300000000000000000e+01
6.127596378326416016e+00 8.361079096794128418e-01 -5.410628318786621094e-01 9.000000000000000000e+00
9.010458946228027344e+00 1.226269721984863059e+00 -4.765712320804595947e-01 1.000000000000000000e+00
1.622471809387207031e+01 2.202319145202637163e+00 -2.858006060123444159e-01 2.000000000000000000e+00
3.546318817138671875e+01 4.807416915893554688e+00 9.589245796203613281e+00 7.000000000000000000e+00
2.301418542861938032e+00 3.091191649436951239e-01 -6.222009658813476562e-01 1.600000000000000000e+01
5.940877151489257812e+01 7.969039916992188388e+00 1.046271800994873047e+00 6.300000000000000000e+01
2.456850528717041016e+00 3.291232585906981867e-01 -5.722754597663879395e-01 1.000000000000000000e+01
3.092062950134276900e+00 4.136678874492645264e-01 -6.063910126686096191e-01 1.100000000000000000e+01
3.731993913650513139e+00 4.979543089866638184e-01 -5.963281989097595215e-01 9.000000000000000000e+00
3.722691726684570312e+01 4.960518836975097656e+00 4.611292362213134766e+00 1.900000000000000000e+01
4.750138282775878906e+00 6.321162581443786621e-01 -5.883851647377014160e-01 9.000000000000000000e+00
3.701706695556641336e+01 4.919405460357666016e+00 5.914474487304688388e+00 1.300000000000000000e+01
6.124552726745604581e+00 8.139261007308959961e-01 -5.405399203300476074e-01 8.000000000000000000e+00
9.042404174804687500e+00 1.198483824729918990e+00 -4.780366122722625732e-01 1.000000000000000000e+00
1.623230743408203125e+01 2.145670890808105025e+00 -2.858006060123444159e-01 2.000000000000000000e+00
3.570574951171875000e+01 4.713431358337402344e+00 9.650326728820800781e+00 7.000000000000000000e+00
2.312061309814453125e+00 3.023362457752227783e-01 -6.247891783714294434e-01 1.600000000000000000e+01
5.943622589111328125e+01 7.761616230010986328e+00 1.046271800994873047e+00 6.300000000000000000e+01
2.436728239059447798e+00 3.177732229232788086e-01 -5.673265457153320312e-01 1.000000000000000000e+01
3.101275205612183061e+00 4.038861989974976141e-01 -6.079174876213073730e-01 1.200000000000000000e+01
3.727832555770874023e+00 4.841609001159667969e-01 -5.953895449638366699e-01 1.000000000000000000e+01
3.714557647705078125e+01 4.817775726318359375e+00 4.599105358123779297e+00 1.900000000000000000e+01
4.772002696990966797e+00 6.180811524391174316e-01 -5.908225774765014648e-01 9.000000000000000000e+00
3.695481872558593750e+01 4.786476135253906250e+00 5.901959419250488281e+00 1.300000000000000000e+01
6.123404502868652344e+00 7.920313477516174316e-01 -5.401912927627563477e-01 9.000000000000000000e+00
9.034647941589355469e+00 1.165379524230957031e+00 -4.774085879325867254e-01 3.000000000000000000e+00
3.423324203491210938e+01 4.409673213958740234e+00 7.968666076660156250e+00 1.000000000000000000e+01
1.626746559143066051e+01 2.092568397521973100e+00 -2.862892746925354004e-01 2.000000000000000000e+00
3.570282363891602273e+01 4.586305141448974609e+00 9.645150184631347656e+00 7.000000000000000000e+00
2.315018892288208008e+00 2.945075929164885919e-01 -6.253067851066589355e-01 1.700000000000000000e+01
5.946295928955078125e+01 7.554097652435302734e+00 1.046271800994873047e+00 6.300000000000000000e+01
2.113037347793579102e+00 2.680628299713134766e-01 -4.917429983615875244e-01 1.600000000000000000e+01
3.114352226257324219e+00 3.945387005805969238e-01 -6.102071404457092285e-01 1.100000000000000000e+01
3.721660614013671875e+00 4.701550900936127264e-01 -5.941380858421325684e-01 1.000000000000000000e+01
3.706369400024414062e+01 4.675661563873291016e+00 4.586918354034423828e+00 1.900000000000000000e+01
4.770192146301270419e+00 6.009237766265869141e-01 -5.903350710868835449e-01 9.000000000000000000e+00
3.697129821777343750e+01 4.657450675964354581e+00 5.901959419250488281e+00 1.300000000000000000e+01
6.159737586975097656e+00 7.748793363571166992e-01 -5.431545972824096680e-01 8.000000000000000000e+00
9.034696578979492188e+00 1.133338451385498047e+00 -4.771992564201354980e-01 3.000000000000000000e+00
1.630641746520996094e+01 2.039742708206177202e+00 -2.868477404117584229e-01 2.000000000000000000e+00
3.668476104736328125e+01 4.582333087921142578e+00 9.906040191650390625e+00 7.000000000000000000e+00
2.314115524291992188e+00 2.861877679824829102e-01 -6.247891783714294434e-01 1.600000000000000000e+01
5.948896408081054688e+01 7.346487522125244141e+00 1.046271800994873047e+00 6.300000000000000000e+01
2.083014726638793945e+00 2.568692266941071112e-01 -4.845445752143859863e-01 5.200000000000000000e+01
3.907003021240233664e+01 4.817963123321533203e+00 2.063083410263061968e+00 2.200000000000000000e+01
3.111813545227050781e+00 3.831852972507476807e-01 -6.094439029693603516e-01 1.100000000000000000e+01
3.729161024093627930e+00 4.578834176063538153e-01 -5.950766801834106445e-01 1.000000000000000000e+01
3.722559356689453125e+01 4.564133167266845703e+00 4.604955196380615234e+00 1.900000000000000000e+01
4.774230957031250000e+00 5.845102667808532715e-01 -5.905788540840148926e-01 8.000000000000000000e+00
6.150538921356201172e+00 7.519224882125854492e-01 -5.421087145805358887e-01 8.000000000000000000e+00
9.102040290832519531e+00 1.109528183937072976e+00 -4.805487394332885742e-01 1.000000000000000000e+00
3.601968383789063211e+01 4.384377956390380859e+00 8.377177238464355469e+00 1.000000000000000000e+01
1.636108016967773082e+01 1.988600969314574973e+00 -2.876854538917542059e-01 5.000000000000000000e+00
3.681098175048828125e+01 4.474175930023193359e+00 9.936062812805175781e+00 8.000000000000000000e+00
2.107949733734130859e+00 2.532236874103546143e-01 -5.688842535018920898e-01 2.700000000000000000e+01
5.951424789428710938e+01 7.138787269592285156e+00 1.046271800994873047e+00 6.300000000000000000e+01
2.112922430038452148e+00 2.530728578567504883e-01 -4.912931025028228760e-01 2.800000000000000000e+01
3.938407516479492188e+01 4.717182636260986328e+00 2.078784227371215820e+00 2.200000000000000000e+01
3.097537279129027876e+00 3.704556226730347235e-01 -6.063910126686096191e-01 1.000000000000000000e+01
3.746428489685059038e+00 4.467345476150513250e-01 -5.975796580314636230e-01 9.000000000000000000e+00
4.770328521728515625e+00 5.671384930610656738e-01 -5.898476243019104004e-01 9.000000000000000000e+00
6.166975975036621094e+00 7.320926189422607422e-01 -5.433288812637329102e-01 9.000000000000000000e+00
9.137593269348144531e+00 1.081505417823791948e+00 -4.822235107421875000e-01 1.000000000000000000e+00
3.601928710937500000e+01 4.256789207458496094e+00 8.373578071594238281e+00 1.000000000000000000e+01
1.645927429199219105e+01 1.942257881164551003e+00 -2.892910838127136230e-01 2.000000000000000000e+00
3.680411148071289062e+01 4.336514472961425781e+00 9.929851531982421875e+00 8.000000000000000000e+00
2.039742231369018999e+00 2.378102391958236972e-01 -5.502492785453796387e-01 5.200000000000000000e+01
5.953880310058593750e+01 6.931000232696533203e+00 1.046271800994873047e+00 6.300000000000000000e+01
2.111857175827025923e+00 2.454708516597748080e-01 -4.908432066440582275e-01 8.600000000000000000e+01
3.940110015869141336e+01 4.572801113128662109e+00 2.078784227371215820e+00 2.200000000000000000e+01
3.118313074111938032e+00 3.619042336940764826e-01 -6.102071404457092285e-01 1.200000000000000000e+01
3.744040489196776900e+00 4.332002699375153143e-01 -5.969539284706115723e-01 1.000000000000000000e+01
4.788055419921875000e+00 5.523032546043395996e-01 -5.917975306510925293e-01 9.000000000000000000e+00
