5.413824319839477539e-01 -1.368073582649230957e+00 3.396760821342468262e-01 8.000000000000000000e+01
5.482909679412841797e-01 -1.386946082115172896e+00 3.996165990829467773e-01 8.400000000000000000e+01
9.869882464408874512e-01 -2.505615711212158203e+00 -7.215874791145324707e-01 1.200000000000000000e+01
1.152436017990112083e+00 -2.928626775741577148e+00 -7.265918850898742676e-01 9.000000000000000000e+00
1.378233790397644043e+00 -3.504229784011840820e+00 -7.319433093070983887e-01 1.000000000000000000e+01
1.722139120101928933e+00 -4.383118152618408203e+00 -7.458795309066772461e-01 1.100000000000000000e+01
2.097514867782593218e+00 -5.343988418579101562e+00 -7.048922777175903320e-01 1.100000000000000000e+01
5.384120345115661621e-01 -1.371750950813293013e+00 2.334002256393432895e-01 1.000000000000000000e+01
2.913406848907471147e+00 -7.426506519317626953e+00 -6.979432106018066406e-01 0.000000000000000000e+00
5.324820876121520996e-01 -1.358036279678344949e+00 2.835421562194824219e-01 7.500000000000000000e+01
9.860763549804687500e+00 -2.516170120239258168e+01 -1.416315674781799094e+00 1.200000000000000000e+01
5.351822376251220703e-01 -1.366325974464416948e+00 3.387762904167174738e-01 7.400000000000000000e+01
5.450971722602844238e-01 -1.392354488372802956e+00 4.006518721580504816e-01 8.000000000000000000e+01
9.740254878997802734e-01 -2.498246192932128906e+00 -7.184816598892211914e-01 1.100000000000000000e+01
1.139377236366271973e+00 -2.925368309020996094e+00 -7.247923016548156738e-01 9.000000000000000000e+00
1.361720085144042969e+00 -3.498042345046997070e+00 -7.296535968780517578e-01 1.000000000000000000e+01
1.708976626396178977e+00 -4.394626140594482422e+00 -7.468181252479553223e-01 1.200000000000000000e+01
2.086755037307738814e+00 -5.371632099151611328e+00 -7.075734138488769531e-01 1.300000000000000000e+01
5.364817380905151367e-01 -1.380987286567687988e+00 2.346516996622086126e-01 1.000000000000000000e+00
5.298692584037780762e-01 -1.365377545356750044e+00 2.846870124340056818e-01 6.400000000000000000e+01
9.800317764282226562e+00 -2.526672935485839844e+01 -1.420293211936950906e+00 1.300000000000000000e+01
5.297051668167114258e-01 -1.366368770599365012e+00 3.383263945579528809e-01 7.100000000000000000e+01
5.360457897186279297e-01 -1.383440613746643066e+00 3.975460529327393133e-01 8.200000000000000000e+01
9.652990698814392090e-01 -2.501631021499633789e+00 -7.184816598892211914e-01 1.100000000000000000e+01
1.135467052459717019e+00 -2.945692539215087891e+00 -7.288414239883422852e-01 1.000000000000000000e+01
1.354442000389098899e+00 -3.515598297119141069e+00 -7.323248982429504395e-01 1.000000000000000000e+01
1.693626046180725098e+00 -4.400564670562744141e+00 -7.468181252479553223e-01 1.100000000000000000e+01
2.080814361572266069e+00 -5.412234783172607422e+00 -7.119607329368591309e-01 1.500000000000000000e+01
2.847196340560913086e+00 -7.409468650817871094e+00 -6.944569349288940430e-01 0.000000000000000000e+00
5.370660424232482910e-01 -1.398375272750854048e+00 2.911745309829711914e-01 6.700000000000000000e+01
9.684862136840820312e+00 -2.522992897033691051e+01 -1.416315674781799094e+00 1.200000000000000000e+01
5.270265936851501465e-01 -1.373667716979980025e+00 3.396760821342468262e-01 6.800000000000000000e+01
5.360552072525024414e-01 -1.397929787635803001e+00 4.011695086956024170e-01 7.300000000000000000e+01
9.565608501434326172e-01 -2.504985332489014116e+00 -7.184816598892211914e-01 1.300000000000000000e+01
1.123788595199584961e+00 -2.945996761322021040e+00 -7.279416322708129883e-01 1.000000000000000000e+01
1.340763211250304954e+00 -3.516635894775391069e+00 -7.315616607666015625e-01 1.000000000000000000e+01
1.675442576408386008e+00 -4.399065494537354404e+00 -7.455666661262512207e-01 1.100000000000000000e+01
2.083086252212523970e+00 -5.475125789642333984e+00 -7.192728519439697266e-01 1.600000000000000000e+01
3.103163480758666992e+00 -8.160552978515625000e+00 -7.638329267501831055e-01 1.000000000000000000e+00
5.293915867805480957e-01 -1.392900824546813965e+00 2.896480560302733820e-01 6.400000000000000000e+01
9.588223457336425781e+00 -2.524117660522460938e+01 -1.415059566497802956e+00 1.200000000000000000e+01
5.277619361877441406e-01 -1.390073895454406960e+00 3.432753086090087891e-01 6.200000000000000000e+01
5.281876325607299805e-01 -1.392660021781920943e+00 3.990989625453948975e-01 6.500000000000000000e+01
9.498596191406250000e-01 -2.513730525970458984e+00 -7.200345993041992188e-01 1.400000000000000000e+01
1.109369158744812012e+00 -2.938962459564208984e+00 -7.252421975135803223e-01 1.000000000000000000e+01
1.333330750465393066e+00 -3.534152746200561968e+00 -7.342330217361450195e-01 1.100000000000000000e+01
1.658683538436890093e+00 -4.401190280914306641e+00 -7.449409365653991699e-01 1.100000000000000000e+01
2.084944248199462891e+00 -5.538097858428955078e+00 -7.265850305557250977e-01 1.500000000000000000e+01
2.795399665832519975e+00 -7.429165363311767578e+00 -6.944569349288940430e-01 0.000000000000000000e+00
5.217618942260742188e-01 -1.387389779090880904e+00 2.881215810775756836e-01 5.300000000000000000e+01
9.481786727905273438e+00 -2.522588348388671875e+01 -1.412338137626647949e+00 1.200000000000000000e+01
5.208504796028137207e-01 -1.386434912681580034e+00 3.419255912303925116e-01 6.300000000000000000e+01
5.276409387588500977e-01 -1.405255198478698953e+00 4.022047817707061768e-01 6.000000000000000000e+01
9.431089162826538086e-01 -2.522459268569945845e+00 -7.215874791145324707e-01 1.400000000000000000e+01
1.097739815711975098e+00 -2.939165830612183061e+00 -7.243424057960510254e-01 1.100000000000000000e+01
1.316866636276244895e+00 -3.527749538421630859e+00 -7.319433093070983887e-01 1.100000000000000000e+01
1.645380854606627974e+00 -4.412506103515625000e+00 -7.458795309066772461e-01 9.000000000000000000e+00
2.079458236694335938e+00 -5.582546234130859375e+00 -7.314597964286804199e-01 1.500000000000000000e+01
3.034994602203369141e+00 -8.152143478393554688e+00 -7.610439658164978027e-01 1.000000000000000000e+00
9.376965522766113281e+00 -2.521389961242676137e+01 -1.409826040267943892e+00 1.200000000000000000e+01
5.166866779327392578e-01 -1.390071153640747070e+00 3.423755168914794922e-01 5.700000000000000000e+01
5.227324962615966797e-01 -1.407088518142699973e+00 4.022047817707061768e-01 5.900000000000000000e+01
9.336279034614562988e-01 -2.523924112319945845e+00 -7.210698723793029785e-01 1.300000000000000000e+01
1.094228029251099077e+00 -2.961259126663208008e+00 -7.288414239883422852e-01 1.000000000000000000e+01
1.305224657058716042e+00 -3.534166574478148970e+00 -7.323248982429504395e-01 1.000000000000000000e+01
1.632703185081481934e+00 -4.425635814666748047e+00 -7.471309900283813477e-01 9.000000000000000000e+00
2.082610845565795898e+00 -5.651237964630126953e+00 -7.395032048225402832e-01 1.500000000000000000e+01
2.817837715148925781e+00 -7.650416851043701172e+00 -7.132825851440429688e-01 0.000000000000000000e+00
9.254412651062011719e+00 -2.515275764465332031e+01 -1.404592394828795943e+00 1.200000000000000000e+01
5.138490200042724609e-01 -1.397353291511536089e+00 3.437252044677733820e-01 5.100000000000000000e+01
5.204833745956420898e-01 -1.416157603263854980e+00 4.042753577232360840e-01 5.400000000000000000e+01
9.214925765991210938e-01 -2.518096923828125000e+00 -7.184816598892211914e-01 1.400000000000000000e+01
1.082546472549438032e+00 -2.961400032043457031e+00 -7.279416322708129883e-01 1.100000000000000000e+01
1.293553829193115012e+00 -3.540544986724853960e+00 -7.327065467834472656e-01 1.100000000000000000e+01
1.615890383720397949e+00 -4.427596569061279297e+00 -7.465052604675292969e-01 9.000000000000000000e+00
2.085988998413085938e+00 -5.721883773803710938e+00 -7.477902770042419434e-01 1.500000000000000000e+01
9.121472358703613281e+00 -2.506103897094726918e+01 -1.397684097290039062e+00 1.200000000000000000e+01
5.136315226554870605e-01 -1.411957740783690962e+00 3.468745350837708075e-01 4.400000000000000000e+01
5.133100748062133789e-01 -1.412608742713928001e+00 4.027224481105803888e-01 4.400000000000000000e+01
9.135771989822387695e-01 -2.520979404449462891e+00 -7.184816598892211914e-01 1.300000000000000000e+01
1.074564337730407937e+00 -2.968451023101807085e+00 -7.288414239883422852e-01 1.000000000000000000e+01
1.284428358078002930e+00 -3.550129890441894975e+00 -7.338513731956481934e-01 1.000000000000000000e+01
1.603315591812134011e+00 -4.436367034912109375e+00 -7.471309900283813477e-01 9.000000000000000000e+00
2.089572668075561968e+00 -5.788157939910888672e+00 -7.555899024009704590e-01 1.500000000000000000e+01
2.841419219970703125e+00 -7.875091075897216797e+00 -7.324568629264831543e-01 1.000000000000000000e+00
9.053530693054199219e+00 -2.511963462829589844e+01 -1.399358749389647993e+00 1.200000000000000000e+01
5.138162374496459961e-01 -1.426398277282715066e+00 3.500238358974456787e-01 1.800000000000000000e+01
5.143516659736633301e-01 -1.428666710853577104e+00 4.068635404109954834e-01 3.100000000000000000e+01
9.086828827857971191e-01 -2.535064220428466797e+00 -7.215874791145324707e-01 1.200000000000000000e+01
1.062882065773010032e+00 -2.968514442443848100e+00 -7.279416322708129883e-01 1.100000000000000000e+01
1.273351192474365012e+00 -3.558288574218750000e+00 -7.346146106719970703e-01 1.000000000000000000e+01
1.585825324058532937e+00 -4.436356067657470703e+00 -7.461923956871032715e-01 9.000000000000000000e+00
2.088046312332152876e+00 -5.847762107849121094e+00 -7.624146342277526855e-01 1.600000000000000000e+01
2.800519466400146040e+00 -7.847432136535645419e+00 -7.289706468582153320e-01 1.000000000000000000e+00
8.940307617187500000e+00 -2.507959365844726918e+01 -1.395381212234497070e+00 1.200000000000000000e+01
5.126017332077026367e-01 -1.439552903175354004e+00 4.094517230987548828e-01 8.000000000000000000e+00
9.049923419952392578e-01 -2.552787303924560991e+00 -7.257286310195922852e-01 1.300000000000000000e+01
1.055115580558777078e+00 -2.979554414749145952e+00 -7.297412157058715820e-01 1.000000000000000000e+01
1.259612679481505904e+00 -3.559010267257689986e+00 -7.338513731956481934e-01 1.000000000000000000e+01
1.574280381202697976e+00 -4.453039169311523438e+00 -7.480695843696594238e-01 9.000000000000000000e+00
2.087451219558715820e+00 -5.911169528961181641e+00 -7.697267532348632812e-01 1.600000000000000000e+01
2.826158285140991211e+00 -8.007464408874511719e+00 -7.429155707359313965e-01 1.000000000000000000e+00
8.858021736145019531e+00 -2.512571907043457031e+01 -1.396218657493591087e+00 1.200000000000000000e+01
5.342595577239990234e-01 -1.517957806587219016e+00 4.311925172805786133e-01 1.000000000000000000e+00
8.909627795219421387e-01 -2.541346311569213867e+00 -7.215874791145324707e-01 1.100000000000000000e+01
1.043420433998107910e+00 -2.979540824890137163e+00 -7.288414239883422852e-01 1.000000000000000000e+01
1.245236039161681907e+00 -3.557826280593872070e+00 -7.327065467834472656e-01 1.000000000000000000e+01
1.563290119171143022e+00 -4.471560001373291016e+00 -7.502596974372863770e-01 9.000000000000000000e+00
2.090365648269652876e+00 -5.985887527465820312e+00 -7.785013914108276367e-01 1.500000000000000000e+01
2.854652643203734907e+00 -8.179056167602539062e+00 -7.579063177108764648e-01 2.000000000000000000e+00
8.734758377075195312e+00 -2.505464553833008168e+01 -1.390566349029541016e+00 1.200000000000000000e+01
8.808208703994750977e-01 -2.540790319442749023e+00 -7.205522060394287109e-01 1.100000000000000000e+01
1.034926533699036089e+00 -2.988689422607421875e+00 -7.301911115646362305e-01 9.000000000000000000e+00
1.233451366424560991e+00 -3.564006567001343218e+00 -7.330881357192993164e-01 1.000000000000000000e+01
1.548962712287903054e+00 -4.480723857879638672e+00 -7.508854269981384277e-01 9.000000000000000000e+00
2.087599992752075195e+00 -6.045686721801757812e+00 -7.853260636329650879e-01 1.400000000000000000e+01
2.828684806823730025e+00 -8.196503639221191406e+00 -7.586035728454589844e-01 3.000000000000000000e+00
8.642040252685546875e+00 -2.506987571716308949e+01 -1.389729022979736106e+00 1.200000000000000000e+01
8.757048845291137695e-01 -2.554814338684082031e+00 -7.236580252647399902e-01 1.300000000000000000e+01
1.024487733840941939e+00 -2.992283821105957031e+00 -7.301911115646362305e-01 9.000000000000000000e+00
1.222909927368164062e+00 -3.573863029479980025e+00 -7.342330217361450195e-01 1.000000000000000000e+01
1.530757188796997070e+00 -4.478626728057861328e+00 -7.496339678764343262e-01 9.000000000000000000e+00
1.380734443664550959e+01 -4.042001342773438211e+01 5.244525432586669922e+00 3.000000000000000000e+01
2.097269535064696822e+00 -6.143110752105712891e+00 -7.970255017280578613e-01 1.000000000000000000e+01
2.792335748672484907e+00 -8.183700561523437500e+00 -7.565118670463562012e-01 6.000000000000000000e+00
8.541591644287109375e+00 -2.506208038330078125e+01 -1.387635588645935059e+00 1.200000000000000000e+01
1.386820316314697088e+01 -4.073757934570313211e+01 -7.511515617370605469e-01 1.000000000000000000e+01
8.650957345962524414e-01 -2.554347276687622070e+00 -7.226227521896362305e-01 1.400000000000000000e+01
1.009766697883605957e+00 -2.984942674636840820e+00 -7.274917364120483398e-01 9.000000000000000000e+00
1.212946891784667969e+00 -3.587620496749877930e+00 -7.361410856246948242e-01 9.000000000000000000e+00
1.517492055892943892e+00 -4.493564605712890625e+00 -7.511982917785644531e-01 8.000000000000000000e+00
2.093774080276488814e+00 -6.207185268402099609e+00 -8.043376803398132324e-01 7.000000000000000000e+00
2.763595104217528853e+00 -8.197655677795410156e+00 -7.568604946136474609e-01 3.000000000000000000e+00
8.425457000732421875e+00 -2.502129173278808949e+01 -1.383658051490783913e+00 1.200000000000000000e+01
8.574007749557495117e-01 -2.561015129089355025e+00 -7.236580252647399902e-01 1.300000000000000000e+01
1.003049373626708984e+00 -2.999538183212279829e+00 -7.301911115646362305e-01 9.000000000000000000e+00
8.971605300903320312e+00 -2.682886314392089844e+01 1.482572913169861062e+00 1.400000000000000000e+01
1.199171781539916992e+00 -3.588108539581298828e+00 -7.353778481483459473e-01 1.000000000000000000e+01
1.505550265312195046e+00 -4.510076522827148438e+00 -7.530755400657653809e-01 9.000000000000000000e+00
2.073349952697753906e+00 -6.218222618103027344e+00 -8.048251271247863770e-01 5.000000000000000000e+00
2.758269071578979048e+00 -8.277190208435058594e+00 -7.633100152015686035e-01 3.000000000000000000e+00
8.330495834350585938e+00 -2.502780914306640980e+01 -1.382401943206787109e+00 1.200000000000000000e+01
8.505659699440002441e-01 -2.567363739013671875e+00 -7.246932983398437500e-01 1.400000000000000000e+01
9.948455095291137695e-01 -3.006374597549438032e+00 -7.310909032821655273e-01 9.000000000000000000e+00
1.188509941101073997e+00 -3.593722105026245117e+00 -7.357594966888427734e-01 1.000000000000000000e+01
1.493852376937865989e+00 -4.522286891937255859e+00 -7.543269991874694824e-01 9.000000000000000000e+00
2.078062295913695845e+00 -6.298225879669188565e+00 -8.143309354782104492e-01 5.000000000000000000e+00
2.734123706817626953e+00 -8.291490554809570312e+00 -7.638329267501831055e-01 1.000000000000000000e+00
8.259325027465820312e+00 -2.507662010192871094e+01 -1.383658051490783913e+00 1.200000000000000000e+01
8.373910188674926758e-01 -2.557465553283690962e+00 -7.210698723793029785e-01 1.300000000000000000e+01
9.861624836921691895e-01 -3.015385627746582031e+00 -7.324406504631042480e-01 1.100000000000000000e+01
1.175958275794982910e+00 -3.597848892211914062e+00 -7.357594966888427734e-01 1.000000000000000000e+01
1.476831436157227007e+00 -4.523718357086181641e+00 -7.537012696266174316e-01 9.000000000000000000e+00
2.068988084793090820e+00 -6.345074176788330078e+00 -8.194494843482971191e-01 7.000000000000000000e+00
2.679236173629761186e+00 -8.221422195434570312e+00 -7.565118670463562012e-01 1.000000000000000000e+00
8.153195381164550781e+00 -2.504832267761230113e+01 -1.380517840385437012e+00 1.200000000000000000e+01
7.534421443939208984e+00 -2.318856430053710938e+01 6.533110141754150391e+00 3.000000000000000000e+00
8.308376073837280273e-01 -2.567725181579589844e+00 -7.231404185295104980e-01 1.300000000000000000e+01
9.738329648971557617e-01 -3.013246774673461914e+00 -7.310909032821655273e-01 9.000000000000000000e+00
1.165202498435973899e+00 -3.607536315917969194e+00 -7.369043231010437012e-01 1.100000000000000000e+01
1.460425257682800071e+00 -4.526966094970703125e+00 -7.533884048461914062e-01 8.000000000000000000e+00
1.754877471923828125e+01 -5.442947387695313211e+01 7.021867752075195312e+00 6.100000000000000000e+01
2.056568145751953125e+00 -6.382488727569580078e+00 -8.233492970466613770e-01 7.000000000000000000e+00
2.870380640029906782e+00 -8.913456916809082031e+00 -8.192639946937561035e-01 4.000000000000000000e+00
8.099957466125488281e+00 -2.518310356140137074e+01 -1.386379480361938032e+00 1.200000000000000000e+01
7.457483768463134766e+00 -2.321342277526855113e+01 6.533110141754150391e+00 3.000000000000000000e+00
8.236344456672668457e-01 -2.576129913330078125e+00 -7.246932983398437500e-01 1.300000000000000000e+01
9.609376192092895508e-01 -3.009202003479003906e+00 -7.292913198471069336e-01 9.000000000000000000e+00
1.156184077262877974e+00 -3.622803688049315962e+00 -7.391940355300903320e-01 1.100000000000000000e+01
1.443414449691772017e+00 -4.528272151947020596e+00 -7.527626752853393555e-01 8.000000000000000000e+00
2.036083221435546875e+00 -6.395303249359130859e+00 -8.240805268287658691e-01 5.000000000000000000e+00
2.853747844696044922e+00 -8.968989372253417969e+00 -8.234474658966064453e-01 4.000000000000000000e+00
8.047087669372558594e+00 -2.532162475585937855e+01 -1.392450451850890891e+00 1.200000000000000000e+01
8.136053681373596191e-01 -2.577289342880249023e+00 -7.241756916046142578e-01 1.200000000000000000e+01
8.485110282897949219e+00 -2.689496231079101918e+01 4.922625720500946045e-01 1.800000000000000000e+01
9.499018788337707520e-01 -3.012703895568848100e+00 -7.292913198471069336e-01 9.000000000000000000e+00
1.141718029975890891e+00 -3.623271942138671875e+00 -7.384307980537414551e-01 1.100000000000000000e+01
1.429179906845092995e+00 -4.541069030761718750e+00 -7.540141344070434570e-01 8.000000000000000000e+00
2.017391681671143022e+00 -6.417872428894042969e+00 -8.260304331779479980e-01 5.000000000000000000e+00
2.798761606216431108e+00 -8.909058570861816406e+00 -8.169979453086853027e-01 9.000000000000000000e+00
7.919545173645020419e+00 -2.524042129516601918e+01 -1.386379480361938032e+00 1.200000000000000000e+01
7.291182518005371094e+00 -2.326619148254394887e+01 6.533110141754150391e+00 3.000000000000000000e+00
8.046039938926696777e-01 -2.580113649368286133e+00 -7.241756916046142578e-01 1.200000000000000000e+01
9.440158605575561523e-01 -3.030885934829711914e+00 -7.328905463218688965e-01 9.000000000000000000e+00
1.129647016525268999e+00 -3.629109859466553178e+00 -7.388124465942382812e-01 1.000000000000000000e+01
1.415665626525878906e+00 -4.553575515747070312e+00 -7.552655935287475586e-01 8.000000000000000000e+00
7.318241596221923828e+00 -2.355407142639160156e+01 3.028453111648560014e+00 1.000000000000000000e+01
2.002040863037108931e+00 -6.447625160217285156e+00 -8.289552927017211914e-01 4.000000000000000000e+00
7.300587177276611328e+00 -2.352622985839844105e+01 3.901475667953491211e+00 1.000000000000000000e+01
2.545029878616333008e+00 -8.201390266418457031e+00 -7.512825131416320801e-01 2.000000000000000000e+00
7.276857852935791016e+00 -2.350773048400878906e+01 -4.295386373996735174e-01 3.000000000000000000e+00
7.938867807388305664e-01 -2.577367782592772993e+00 -7.226227521896362305e-01 1.100000000000000000e+01
7.238158226013183594e+00 -2.351339721679687855e+01 4.294339120388031006e-01 1.500000000000000000e+01
9.334303140640258789e-01 -3.034162759780883789e+00 -7.328905463218688965e-01 9.000000000000000000e+00
1.115241289138793945e+00 -3.627401113510131836e+00 -7.376675605773925781e-01 1.100000000000000000e+01
1.399762153625488059e+00 -4.558489322662354404e+00 -7.552655935287475586e-01 8.000000000000000000e+00
1.973119735717772993e+00 -6.433698177337645596e+00 -8.262741565704345703e-01 3.000000000000000000e+00
2.596957206726074219e+00 -8.473103523254394531e+00 -7.753375172615051270e-01 2.000000000000000000e+00
7.213487148284912109e+00 -2.356482887268066051e+01 -1.291546702384948953e+00 1.100000000000000000e+01
7.191248416900634766e+00 -2.352151489257812855e+01 -4.293291866779326837e-01 3.000000000000000000e+00
7.848852276802062988e-01 -2.580123186111450195e+00 -7.226227521896362305e-01 1.100000000000000000e+01
9.222669601440429688e-01 -3.035537958145142046e+00 -7.324406504631042480e-01 1.000000000000000000e+01
1.104283690452575906e+00 -3.636907815933227983e+00 -7.388124465942382812e-01 1.100000000000000000e+01
8.337144851684570312e+00 -2.747525405883789062e+01 2.512002706527709961e+00 2.600000000000000000e+01
1.383841514587401900e+00 -4.563347339630126953e+00 -7.552655935287475586e-01 8.000000000000000000e+00
1.962158203125000000e+00 -6.478543758392333984e+00 -8.311489224433898926e-01 3.000000000000000000e+00
2.612385988235474077e+00 -8.630859375000000000e+00 -7.889337539672851562e-01 1.000000000000000000e+00
7.801142334938049316e-01 -2.593676090240478960e+00 -7.257286310195922852e-01 1.100000000000000000e+01
9.110440611839294434e-01 -3.032821178436278853e+00 -7.310909032821655273e-01 9.000000000000000000e+00
1.096804022789001021e+00 -3.653521299362183061e+00 -7.414837479591369629e-01 1.100000000000000000e+01
1.369498491287231001e+00 -4.567672252655029297e+00 -7.552655935287475586e-01 8.000000000000000000e+00
1.938378930091857910e+00 -6.473266124725341797e+00 -8.296864628791809082e-01 3.000000000000000000e+00
2.803457498550415039e+00 -9.368167877197265625e+00 -8.555207848548889160e-01 1.000000000000000000e+00
7.560339927673339844e+00 -2.529613876342773082e+01 -1.383658051490783913e+00 1.200000000000000000e+01
7.721558213233947754e-01 -2.600087165832519975e+00 -7.267639040946960449e-01 1.100000000000000000e+01
8.044356346130371094e+00 -2.710516738891601918e+01 4.935191571712493896e-01 1.800000000000000000e+01
9.004519581794738770e-01 -3.035982847213745117e+00 -7.310909032821655273e-01 9.000000000000000000e+00
1.079580783843993919e+00 -3.642269134521483931e+00 -7.384307980537414551e-01 1.100000000000000000e+01
8.026854515075683594e+00 -2.709820556640625000e+01 2.472608327865601030e+00 2.500000000000000000e+01
1.356349587440490945e+00 -4.581895828247070312e+00 -7.568299174308776855e-01 9.000000000000000000e+00
1.923087596893310991e+00 -6.504739761352539062e+00 -8.328551054000854492e-01 1.000000000000000000e+00
2.628476619720458984e+00 -8.896390914916992188e+00 -8.115942478179931641e-01 1.000000000000000000e+00
7.443731307983398438e+00 -2.522659492492676137e+01 -1.378424406051635964e+00 1.200000000000000000e+01
1.664596748352051137e+01 -5.648534393310546875e+01 -1.027876973152161089e+00 1.500000000000000000e+01
7.615344524383544922e-01 -2.599192142486571822e+00 -7.257286310195922852e-01 1.100000000000000000e+01
8.926021456718444824e-01 -3.050484657287598100e+00 -7.337903380393981934e-01 9.000000000000000000e+00
7.963374137878417969e+00 -2.723261451721191051e+01 1.486969232559204102e+00 1.400000000000000000e+01
1.066774964332581010e+00 -3.648086071014403853e+00 -7.388124465942382812e-01 1.100000000000000000e+01
1.340100646018981934e+00 -4.588732242584229404e+00 -7.571427822113037109e-01 8.000000000000000000e+00
1.892007946968079057e+00 -6.486970901489257812e+00 -8.296864628791809082e-01 3.000000000000000000e+00
2.624843597412108931e+00 -9.005430221557617188e+00 -8.206584453582763672e-01 1.000000000000000000e+00
7.379132270812988281e+00 -2.534959030151366832e+01 -1.383658051490783913e+00 1.200000000000000000e+01
7.513835430145263672e-01 -2.598122835159302202e+00 -7.246932983398437500e-01 1.100000000000000000e+01
8.841114640235900879e-01 -3.061070680618286133e+00 -7.355899214744567871e-01 9.000000000000000000e+00
1.054578781127929910e+00 -3.653673648834228960e+00 -7.391940355300903320e-01 9.000000000000000000e+00
1.324074864387511985e+00 -4.593382358551025391e+00 -7.571427822113037109e-01 8.000000000000000000e+00
1.875393509864806907e+00 -6.514519214630126953e+00 -8.323675990104675293e-01 1.000000000000000000e+00
2.579070568084716797e+00 -8.964755058288574219e+00 -8.161263465881347656e-01 1.000000000000000000e+00
7.180295944213867188e+00 -2.499127388000487926e+01 -1.362723588943481001e+00 1.200000000000000000e+01
7.433702945709228516e-01 -2.604445219039916992e+00 -7.257286310195922852e-01 1.100000000000000000e+01
8.702157735824584961e-01 -3.052893638610839844e+00 -7.328905463218688965e-01 9.000000000000000000e+00
7.791665554046630859e+00 -2.735285568237305043e+01 1.490527987480164018e+00 1.400000000000000000e+01
1.043969988822937012e+00 -3.664885282516479048e+00 -7.407205104827880859e-01 9.000000000000000000e+00
1.301546812057494895e+00 -4.575176239013671875e+00 -7.533884048461914062e-01 8.000000000000000000e+00
1.853727221488953081e+00 -6.524845123291015625e+00 -8.328551054000854492e-01 1.000000000000000000e+00
2.601089954376221147e+00 -9.161533355712890625e+00 -8.332089185714721680e-01 3.000000000000000000e+00
7.138781070709229404e+00 -2.517759323120116832e+01 -1.371516108512877974e+00 1.200000000000000000e+01
7.951006412506104404e+00 -2.807955360412598012e+01 -5.094008445739746094e-01 4.000000000000000000e+00
7.358457446098327637e-01 -2.612602710723876953e+00 -7.272815108299255371e-01 1.200000000000000000e+01
8.574432134628295898e-01 -3.048408985137939009e+00 -7.310909032821655273e-01 1.000000000000000000e+01
7.689653396606445312e+00 -2.735681343078612926e+01 1.489271998405456987e+00 1.400000000000000000e+01
1.030639529228210005e+00 -3.666616916656494141e+00 -7.403389215469360352e-01 9.000000000000000000e+00
1.288771748542786089e+00 -4.591102600097656250e+00 -7.552655935287475586e-01 8.000000000000000000e+00
1.835226535797118919e+00 -6.546567440032958984e+00 -8.348050117492675781e-01 1.000000000000000000e+00
7.070223331451416016e+00 -2.527160072326660156e+01 -1.375284314155579057e+00 1.200000000000000000e+01
7.277560234069824219e-01 -2.618877887725830078e+00 -7.283167839050292969e-01 1.200000000000000000e+01
8.499237298965454102e-01 -3.062649965286254883e+00 -7.337903380393981934e-01 9.000000000000000000e+00
1.014161825180053933e+00 -3.656949281692504883e+00 -7.376675605773925781e-01 9.000000000000000000e+00
1.278010249137877974e+00 -4.614610671997070312e+00 -7.583943009376525879e-01 8.000000000000000000e+00
1.806013703346251997e+00 -6.529974460601806641e+00 -8.318801522254943848e-01 3.000000000000000000e+00
2.641097784042357954e+00 -9.555865287780761719e+00 -8.673739433288574219e-01 3.000000000000000000e+00
6.971338272094726562e+00 -2.525762176513671875e+01 -1.373190760612488015e+00 1.200000000000000000e+01
7.175885438919067383e-01 -2.617676019668579102e+00 -7.272815108299255371e-01 1.300000000000000000e+01
8.392278552055358887e-01 -3.065598249435424805e+00 -7.337903380393981934e-01 9.000000000000000000e+00
1.002426624298095925e+00 -3.664254426956177202e+00 -7.384307980537414551e-01 9.000000000000000000e+00
1.262415051460265891e+00 -4.620949268341063565e+00 -7.587071657180786133e-01 8.000000000000000000e+00
1.785298824310302956e+00 -6.543899059295654297e+00 -8.328551054000854492e-01 1.000000000000000000e+00
7.642066955566406250e+00 -2.803077697753905895e+01 4.601675987243652344e+00 1.200000000000000000e+01
2.597244262695312944e+00 -9.526581764221191406e+00 -8.638877272605895996e-01 3.000000000000000000e+00
6.883130073547363281e+00 -2.528180122375487926e+01 -1.373190760612488015e+00 1.200000000000000000e+01
7.099595069885253906e-01 -2.625759601593018022e+00 -7.288344502449035645e-01 1.300000000000000000e+01
8.305537700653076172e-01 -3.076034545898437944e+00 -7.355899214744567871e-01 9.000000000000000000e+00
9.926984906196594238e-01 -3.679104089736938032e+00 -7.407205104827880859e-01 9.000000000000000000e+00
1.247305154800415039e+00 -4.629142284393311435e+00 -7.593328952789306641e-01 8.000000000000000000e+00
7.598863124847412109e+00 -2.822138214111328125e+01 3.588564634323120117e+00 1.400000000000000000e+01
1.767087459564208984e+00 -6.567343235015869141e+00 -8.350487351417541504e-01 3.000000000000000000e+00
7.538019657135009766e+00 -2.803438949584960938e+01 4.597921848297119141e+00 1.200000000000000000e+01
6.794838428497313565e+00 -2.530567359924316051e+01 -1.373190760612488015e+00 1.200000000000000000e+01
6.978031992912292480e-01 -2.617022037506103960e+00 -7.257286310195922852e-01 1.200000000000000000e+01
8.203127384185791016e-01 -3.080797910690308061e+00 -7.360398769378662109e-01 1.000000000000000000e+01
9.778307080268859863e-01 -3.674957752227783203e+00 -7.391940355300903320e-01 9.000000000000000000e+00
1.227080702781677024e+00 -4.618195056915283203e+00 -7.568299174308776855e-01 8.000000000000000000e+00
7.529852390289306641e+00 -2.835901451110839844e+01 3.602701425552368164e+00 1.400000000000000000e+01
1.749243378639220969e+00 -6.592658519744873047e+00 -8.374861478805541992e-01 3.000000000000000000e+00
2.375442504882812944e+00 -8.959025382995605469e+00 -8.108970522880554199e-01 1.000000000000000000e+00
6.706463813781738281e+00 -2.532923889160155895e+01 -1.373190760612488015e+00 1.200000000000000000e+01
6.920701861381530762e-01 -2.630531311035155806e+00 -7.288344502449035645e-01 1.200000000000000000e+01
8.066257834434509277e-01 -3.070307731628417969e+00 -7.328905463218688965e-01 9.000000000000000000e+00
9.691283702850341797e-01 -3.691472530364989790e+00 -7.418653964996337891e-01 9.000000000000000000e+00
7.437655448913574219e+00 -2.835065650939941051e+01 2.564296245574951172e+00 2.600000000000000000e+01
1.214765071868896040e+00 -4.633703708648681641e+00 -7.587071657180786133e-01 8.000000000000000000e+00
7.410615921020507812e+00 -2.828781318664551137e+01 3.590514659881591797e+00 1.400000000000000000e+01
1.730388045310973899e+00 -6.609945297241210938e+00 -8.389485478401184082e-01 3.000000000000000000e+00
7.375936985015869141e+00 -2.817549514770508168e+01 4.612939357757568359e+00 1.200000000000000000e+01
2.335635423660277876e+00 -8.928302764892578125e+00 -8.074107766151428223e-01 3.000000000000000000e+00
6.607287883758544922e+00 -2.529336738586426137e+01 -1.370050668716431108e+00 1.200000000000000000e+01
6.809437274932861328e-01 -2.625451087951660156e+00 -7.267639040946960449e-01 1.200000000000000000e+01
7.968806624412536621e-01 -3.076877832412720171e+00 -7.337903380393981934e-01 9.000000000000000000e+00
7.292903423309326172e+00 -2.815901374816894887e+01 1.524441719055176003e+00 1.400000000000000000e+01
9.547611474990844727e-01 -3.689131021499633789e+00 -7.407205104827880859e-01 9.000000000000000000e+00
1.204514145851135032e+00 -4.660866260528563565e+00 -7.624616026878356934e-01 8.000000000000000000e+00
7.327711582183837891e+00 -2.837501525878905895e+01 3.598314285278319868e+00 1.400000000000000000e+01
1.704328417778014915e+00 -6.604412555694580078e+00 -8.374861478805541992e-01 3.000000000000000000e+00
7.244996547698974609e+00 -2.809522247314453125e+01 4.595418930053710938e+00 1.200000000000000000e+01
2.292515516281127930e+00 -8.890098571777343750e+00 -8.032273054122924805e-01 4.000000000000000000e+00
6.533898830413818359e+00 -2.537430191040039062e+01 -1.373190760612488015e+00 1.200000000000000000e+01
6.736888885498046875e-01 -2.635298728942871094e+00 -7.288344502449035645e-01 1.200000000000000000e+01
7.890275120735168457e-01 -3.090969800949097124e+00 -7.364897727966308594e-01 9.000000000000000000e+00
9.404221177101135254e-01 -3.686734437942504883e+00 -7.395756840705871582e-01 9.000000000000000000e+00
1.187262177467345969e+00 -4.661213874816895419e+00 -7.618358731269836426e-01 8.000000000000000000e+00
7.193365097045898438e+00 -2.826190948486328125e+01 3.580765008926392046e+00 1.400000000000000000e+01
1.684689402580261008e+00 -6.623788356781005859e+00 -8.391922712326049805e-01 3.000000000000000000e+00
7.203402042388916016e+00 -2.832202339172362926e+01 4.628582954406738281e+00 1.200000000000000000e+01
2.276683092117310014e+00 -8.957907676696777344e+00 -8.086310029029846191e-01 6.000000000000000000e+00
6.445286273956298828e+00 -2.539695358276366832e+01 -1.373190760612488015e+00 1.200000000000000000e+01
6.616542935371398926e-01 -2.626394510269165039e+00 -7.257286310195922852e-01 1.200000000000000000e+01
7.782331705093383789e-01 -3.093705177307128906e+00 -7.364897727966308594e-01 9.000000000000000000e+00
9.285044670104980469e-01 -3.693802595138549805e+00 -7.403389215469360352e-01 1.000000000000000000e+01
1.171946048736572044e+00 -4.669161796569824219e+00 -7.624616026878356934e-01 8.000000000000000000e+00
7.119781017303466797e+00 -2.838697052001953125e+01 3.593439340591431108e+00 1.400000000000000000e+01
1.668314099311829057e+00 -6.656586170196533203e+00 -8.426046371459960938e-01 1.000000000000000000e+00
7.072801113128662109e+00 -2.822053146362305043e+01 4.607933521270751953e+00 1.200000000000000000e+01
2.257016897201538086e+00 -9.012185096740722656e+00 -8.128144741058349609e-01 6.000000000000000000e+00
6.369193077087402344e+00 -2.546967506408691051e+01 -1.375912308692931907e+00 1.200000000000000000e+01
6.520169973373413086e-01 -2.626813173294066939e+00 -7.252109646797180176e-01 1.100000000000000000e+01
7.674294114112854004e-01 -3.096402883529663086e+00 -7.364897727966308594e-01 9.000000000000000000e+00
9.174928665161132812e-01 -3.704643964767456055e+00 -7.418653964996337891e-01 1.000000000000000000e+01
7.028649330139160156e+00 -2.840145492553710938e+01 2.559764146804810014e+00 2.600000000000000000e+01
1.155640482902527078e+00 -4.673223972320556641e+00 -7.624616026878356934e-01 8.000000000000000000e+00
1.644116401672363059e+00 -6.658514976501464844e+00 -8.421171903610229492e-01 1.000000000000000000e+00
7.040544986724854404e+00 -2.851353645324707031e+01 4.651735305786132812e+00 1.200000000000000000e+01
2.244158744812012163e+00 -9.095449447631835938e+00 -8.196126222610473633e-01 3.000000000000000000e+00
6.277381896972656250e+00 -2.548011589050292969e+01 -1.375284314155579057e+00 1.200000000000000000e+01
6.460556983947753906e-01 -2.642209053039550781e+00 -7.288344502449035645e-01 1.100000000000000000e+01
7.552296519279479980e-01 -3.093383550643920898e+00 -7.351400256156921387e-01 1.000000000000000000e+01
9.078128337860107422e-01 -3.721175193786621094e+00 -7.445366978645324707e-01 9.000000000000000000e+00
1.142125964164734109e+00 -4.688745021820068359e+00 -7.643387913703918457e-01 8.000000000000000000e+00
1.621802091598510964e+00 -6.668071269989013672e+00 -8.426046371459960938e-01 1.000000000000000000e+00
2.244391441345214844e+00 -9.234877586364746094e+00 -8.314657807350158691e-01 3.000000000000000000e+00
6.178981304168701172e+00 -2.546305465698241832e+01 -1.373190760612488015e+00 1.200000000000000000e+01
6.372902393341064453e-01 -2.644336938858031782e+00 -7.288344502449035645e-01 1.100000000000000000e+01
7.445115447044372559e-01 -3.093976259231566939e+00 -7.346901297569274902e-01 1.000000000000000000e+01
8.922551274299621582e-01 -3.710803270339965820e+00 -7.418653964996337891e-01 9.000000000000000000e+00
1.128415822982788086e+00 -4.700190067291259766e+00 -7.655902504920959473e-01 9.000000000000000000e+00
1.597830176353455034e+00 -6.665690898895263672e+00 -8.416296839714050293e-01 1.000000000000000000e+00
2.285226583480834961e+00 -9.540657997131347656e+00 -8.583097457885742188e-01 3.000000000000000000e+00
6.108445644378662109e+00 -2.554167938232421875e+01 -1.376330971717834029e+00 1.200000000000000000e+01
6.276098489761352539e-01 -2.644665718078612837e+00 -7.283167839050292969e-01 1.200000000000000000e+01
7.350549101829528809e-01 -3.102244853973389116e+00 -7.360398769378662109e-01 1.000000000000000000e+01
8.783919215202331543e-01 -3.710074186325072798e+00 -7.411021590232849121e-01 9.000000000000000000e+00
1.112002134323119895e+00 -4.704100131988525391e+00 -7.655902504920959473e-01 9.000000000000000000e+00
1.577288746833801047e+00 -6.682819843292236328e+00 -8.430921435356140137e-01 1.000000000000000000e+00
2.267916202545166016e+00 -9.616448402404785156e+00 -8.644106388092041016e-01 7.000000000000000000e+00
6.005518436431884766e+00 -2.550452423095703125e+01 -1.373190760612488015e+00 1.200000000000000000e+01
6.165949106216430664e-01 -2.641304492950439009e+00 -7.267639040946960449e-01 1.100000000000000000e+01
7.267761230468750000e-01 -3.118203401565552202e+00 -7.391891479492187500e-01 9.000000000000000000e+00
8.665691614151000977e-01 -3.720917224884033203e+00 -7.426286339759826660e-01 9.000000000000000000e+00
1.094753265380858931e+00 -4.708144187927246094e+00 -7.655902504920959473e-01 9.000000000000000000e+00
1.551886558532715066e+00 -6.684688568115234375e+00 -8.426046371459960938e-01 1.000000000000000000e+00
2.261919260025023970e+00 -9.750851631164550781e+00 -8.757408857345581055e-01 7.000000000000000000e+00
5.902986049652099609e+00 -2.548744964599609020e+01 -1.371097326278686968e+00 1.200000000000000000e+01
6.069387197494506836e-01 -2.641557931900023970e+00 -7.262462377548217773e-01 1.300000000000000000e+01
7.141442894935607910e-01 -3.113123655319213867e+00 -7.373895645141601562e-01 9.000000000000000000e+00
8.557686209678649902e-01 -3.733487606048583984e+00 -7.445366978645324707e-01 1.000000000000000000e+01
1.076549530029297097e+00 -4.704234600067138672e+00 -7.643387913703918457e-01 8.000000000000000000e+00
1.535617709159851074e+00 -6.721028327941895419e+00 -8.465044498443603516e-01 1.000000000000000000e+00
2.243389368057250977e+00 -9.826671600341796875e+00 -8.818417787551879883e-01 9.000000000000000000e+00
5.809544086456298828e+00 -2.548842620849609020e+01 -1.370050668716431108e+00 1.200000000000000000e+01
6.011224389076232910e-01 -2.658734798431396040e+00 -7.303873300552368164e-01 1.200000000000000000e+01
7.002694606781005859e-01 -3.102291107177733931e+00 -7.342402338981628418e-01 1.000000000000000000e+01
8.431630730628967285e-01 -3.738367080688477007e+00 -7.449183464050292969e-01 9.000000000000000000e+00
1.060122132301331010e+00 -4.707963943481445312e+00 -7.643387913703918457e-01 8.000000000000000000e+00
1.509535193443297896e+00 -6.714727401733398438e+00 -8.450420498847961426e-01 1.000000000000000000e+00
2.226104021072388139e+00 -9.910257339477539062e+00 -8.886399269104003906e-01 5.000000000000000000e+00
5.711796283721923828e+00 -2.546957206726073863e+01 -1.367957234382628950e+00 1.200000000000000000e+01
5.914186239242553711e-01 -2.658931016921997070e+00 -7.298697233200073242e-01 1.400000000000000000e+01
6.902810931205749512e-01 -3.108521461486815962e+00 -7.351400256156921387e-01 1.100000000000000000e+01
8.309590816497802734e-01 -3.745120763778686968e+00 -7.456815242767333984e-01 1.000000000000000000e+01
1.047099471092223899e+00 -4.727064609527587891e+00 -7.668417692184448242e-01 9.000000000000000000e+00
1.492945432662964089e+00 -6.750967979431152344e+00 -8.489418625831604004e-01 1.000000000000000000e+00
2.241362571716309038e+00 -1.014364051818848012e+01 -9.088600873947143555e-01 2.000000000000000000e+00
5.622856140136718750e+00 -2.548935508728026988e+01 -1.367957234382628950e+00 1.200000000000000000e+01
5.813078880310058594e-01 -2.657204866409302202e+00 -7.288344502449035645e-01 1.300000000000000000e+01
6.848316192626953125e-01 -3.135662078857421875e+00 -7.409887909889221191e-01 1.200000000000000000e+01
8.149511218070983887e-01 -3.734571695327758789e+00 -7.430102229118347168e-01 1.000000000000000000e+01
1.030592560768126997e+00 -4.730690956115722656e+00 -7.668417692184448242e-01 9.000000000000000000e+00
1.471902251243591087e+00 -6.767776489257813388e+00 -8.504042625427246094e-01 1.000000000000000000e+00
2.234710454940795898e+00 -1.028379535675049006e+01 -9.207132458686828613e-01 2.000000000000000000e+00
5.475413799285888672e+00 -2.523947143554687855e+01 -1.353512525558471902e+00 1.200000000000000000e+01
9.813033103942871094e+00 -4.531049346923828125e+01 -8.092331886291503906e-01 1.200000000000000000e+01
5.712164640426635742e-01 -2.655440568923950195e+00 -7.277991771697998047e-01 1.300000000000000000e+01
6.734727621078491211e-01 -3.136128187179564986e+00 -7.405388951301574707e-01 1.100000000000000000e+01
8.047931790351867676e-01 -3.750830650329589844e+00 -7.456815242767333984e-01 9.000000000000000000e+00
1.015727996826172097e+00 -4.741985797882080078e+00 -7.680932283401489258e-01 9.000000000000000000e+00
1.448269367218018022e+00 -6.772873401641845703e+00 -8.504042625427246094e-01 1.000000000000000000e+00
2.183813571929932085e+00 -1.022139072418213068e+01 -9.144380688667297363e-01 2.000000000000000000e+00
5.398943424224854404e+00 -2.531312370300292969e+01 -1.356443285942078081e+00 1.200000000000000000e+01
9.675631523132324219e+00 -4.544226455688477273e+01 -8.109784126281738281e-01 1.200000000000000000e+01
5.636075735092163086e-01 -2.662990093231201172e+00 -7.293520569801330566e-01 1.300000000000000000e+01
6.630693078041076660e-01 -3.138344287872314009e+00 -7.405388951301574707e-01 1.100000000000000000e+01
7.943780422210693359e-01 -3.763083457946776900e+00 -7.475896477699279785e-01 1.000000000000000000e+01
9.975534677505493164e-01 -4.733730316162109375e+00 -7.662159800529479980e-01 9.000000000000000000e+00
1.422532558441162109e+00 -6.762098312377929688e+00 -8.484543561935424805e-01 1.000000000000000000e+00
2.152365207672119141e+00 -1.024027442932129084e+01 -9.154839515686035156e-01 2.000000000000000000e+00
5.319073677062988281e+00 -2.535043334960937855e+01 -1.357490062713623047e+00 1.200000000000000000e+01
5.543085932731628418e-01 -2.664941310882567915e+00 -7.293520569801330566e-01 1.100000000000000000e+01
6.489409208297729492e-01 -3.125375509262084961e+00 -7.369396686553955078e-01 1.000000000000000000e+01
7.824339866638183594e-01 -3.771600484848022017e+00 -7.487344741821289062e-01 1.000000000000000000e+01
9.818247556686401367e-01 -4.741052627563476562e+00 -7.668417692184448242e-01 9.000000000000000000e+00
1.395704746246337891e+00 -6.751470565795898438e+00 -8.465044498443603516e-01 1.000000000000000000e+00
5.226518630981445312e+00 -2.534928512573241832e+01 -1.356443285942078081e+00 1.200000000000000000e+01
5.465500354766845703e-01 -2.674430847167969194e+00 -7.314226031303405762e-01 1.000000000000000000e+01
6.388064026832580566e-01 -3.131440401077270952e+00 -7.378394603729248047e-01 1.100000000000000000e+01
7.661272287368774414e-01 -3.758919000625609907e+00 -7.456815242767333984e-01 1.000000000000000000e+01
9.668447375297546387e-01 -4.752193450927734375e+00 -7.680932283401489258e-01 9.000000000000000000e+00
1.372129201889038086e+00 -6.756301403045654297e+00 -8.465044498443603516e-01 3.000000000000000000e+00
5.149895668029785156e+00 -2.542609977722167969e+01 -1.359583497047424094e+00 1.200000000000000000e+01
5.364508032798767090e-01 -2.672534227371215820e+00 -7.303873300552368164e-01 1.200000000000000000e+01
6.297860145568847656e-01 -3.143204927444458008e+00 -7.400889396667480469e-01 1.200000000000000000e+01
7.533868551254272461e-01 -3.763495445251464844e+00 -7.460631728172302246e-01 1.000000000000000000e+01
9.545083045959472656e-01 -4.776847362518311435e+00 -7.715348005294799805e-01 9.000000000000000000e+00
1.351643323898314986e+00 -6.776623725891113281e+00 -8.484543561935424805e-01 1.000000000000000000e+00
5.096179008483886719e+00 -2.562022209167480113e+01 -1.369003891944885032e+00 1.200000000000000000e+01
9.006889343261718750e+00 -4.536344146728516336e+01 -8.072785139083862305e-01 1.200000000000000000e+01
5.267450809478759766e-01 -2.672495126724243164e+00 -7.298697233200073242e-01 1.300000000000000000e+01
6.191865205764770508e-01 -3.147296428680419922e+00 -7.405388951301574707e-01 1.100000000000000000e+01
7.413811683654785156e-01 -3.771881580352783203e+00 -7.472079992294311523e-01 1.000000000000000000e+01
9.332645535469055176e-01 -4.756889343261718750e+00 -7.677803635597229004e-01 7.000000000000000000e+00
1.333321094512939009e+00 -6.808573722839354581e+00 -8.518667221069335938e-01 1.000000000000000000e+00
5.022028923034667969e+00 -2.571626281738280895e+01 -1.373190760612488015e+00 1.200000000000000000e+01
5.159452557563781738e-01 -2.666730642318726030e+00 -7.277991771697998047e-01 1.100000000000000000e+01
6.074576377868652344e-01 -3.145611763000487837e+00 -7.396390438079833984e-01 1.100000000000000000e+01
7.293260693550109863e-01 -3.780229568481444868e+00 -7.483528852462768555e-01 1.000000000000000000e+01
9.188954234123229980e-01 -4.771756172180175781e+00 -7.696575522422790527e-01 9.000000000000000000e+00
1.304301023483275923e+00 -6.785894870758056641e+00 -8.484543561935424805e-01 1.000000000000000000e+00
8.737318038940429688e+00 -4.567268753051757812e+01 -8.116765022277832031e-01 1.200000000000000000e+01
5.077145099639892578e-01 -2.674209356307982954e+00 -7.293520569801330566e-01 1.300000000000000000e+01
5.964736938476562500e-01 -3.147712945938109907e+00 -7.396390438079833984e-01 1.200000000000000000e+01
7.205083370208740234e-01 -3.805900335311890093e+00 -7.529323101043701172e-01 1.000000000000000000e+01
9.003995060920715332e-01 -4.765229701995849609e+00 -7.680932283401489258e-01 9.000000000000000000e+00
1.281341552734375000e+00 -6.794307708740234375e+00 -8.489418625831604004e-01 1.000000000000000000e+00
4.761169910430908203e+00 -2.531886863708496094e+01 -1.350162982940674050e+00 1.200000000000000000e+01
5.012063384056091309e-01 -2.691158771514893022e+00 -7.334931492805480957e-01 1.300000000000000000e+01
5.854824781417846680e-01 -3.149775981903076172e+00 -7.396390438079833984e-01 1.100000000000000000e+01
7.032759785652160645e-01 -3.787159204483031782e+00 -7.487344741821289062e-01 1.000000000000000000e+01
8.891599774360656738e-01 -4.797478199005126953e+00 -7.727862596511840820e-01 7.000000000000000000e+00
1.261950135231018066e+00 -6.822162628173828125e+00 -8.518667221069335938e-01 1.000000000000000000e+00
4.674210548400878906e+00 -2.534319114685058949e+01 -1.350581645965575950e+00 1.200000000000000000e+01
4.897269308567047119e-01 -2.681489467620850053e+00 -7.303873300552368164e-01 1.400000000000000000e+01
5.765808224678039551e-01 -3.163303375244141069e+00 -7.423384785652160645e-01 1.000000000000000000e+01
6.886451840400695801e-01 -3.781865119934082031e+00 -7.472079992294311523e-01 9.000000000000000000e+00
8.709954619407653809e-01 -4.792778491973876953e+00 -7.715348005294799805e-01 7.000000000000000000e+00
1.233169078826904075e+00 -6.799180984497070312e+00 -8.484543561935424805e-01 1.000000000000000000e+00
4.591404438018798828e+00 -2.539079856872558949e+01 -1.352256417274475098e+00 1.200000000000000000e+01
4.800233542919158936e-01 -2.681281089782714844e+00 -7.298697233200073242e-01 1.100000000000000000e+01
5.658780336380004883e-01 -3.167215108871459961e+00 -7.427883744239807129e-01 9.000000000000000000e+00
6.764746904373168945e-01 -3.790044069290161133e+00 -7.483528852462768555e-01 1.000000000000000000e+01
8.539138436317443848e-01 -4.793844699859619141e+00 -7.712219357490539551e-01 9.000000000000000000e+00
1.212207436561584029e+00 -6.819079875946044922e+00 -8.504042625427246094e-01 1.000000000000000000e+00
4.495775222778320312e+00 -2.536733818054198863e+01 -1.350162982940674050e+00 1.200000000000000000e+01
4.719962179660797119e-01 -2.690551519393920898e+00 -7.319402694702148438e-01 9.000000000000000000e+00
5.534747838973999023e-01 -3.161492824554442915e+00 -7.409887909889221191e-01 9.000000000000000000e+00
6.656083464622497559e-01 -3.805919647216796875e+00 -7.510241866111755371e-01 9.000000000000000000e+00
8.378542065620422363e-01 -4.800688266754150391e+00 -7.718476653099060059e-01 9.000000000000000000e+00
1.193165540695189986e+00 -6.850648880004882812e+00 -8.538166284561157227e-01 1.000000000000000000e+00
4.410615921020507812e+00 -2.540255546569823863e+01 -1.351209759712219016e+00 1.200000000000000000e+01
4.645645320415496826e-01 -2.703606367111206055e+00 -7.350460886955261230e-01 1.000000000000000000e+00
5.414476990699768066e-01 -3.157643556594849077e+00 -7.396390438079833984e-01 1.000000000000000000e+01
6.513248085975646973e-01 -3.802414655685424805e+00 -7.498793601989746094e-01 1.000000000000000000e+01
8.234214186668395996e-01 -4.817213535308837891e+00 -7.740377187728881836e-01 7.000000000000000000e+00
1.169245123863219993e+00 -6.854772090911865234e+00 -8.538166284561157227e-01 1.000000000000000000e+00
