1.524465656280517933e+01 3.318298578262329102e+00 -2.723273634910582941e-01 2.000000000000000000e+00
3.284134674072266336e+01 7.148563385009765625e+00 9.005867958068847656e+00 1.200000000000000000e+01
2.267755270004272017e+00 4.903060495853424072e-01 -6.216833591461181641e-01 1.600000000000000000e+01
2.600152015686035156e+00 5.612227916717529297e-01 -6.141163706779479980e-01 1.300000000000000000e+01
3.036068439483643022e+00 6.547574400901794434e-01 -6.037196516990661621e-01 1.300000000000000000e+01
3.638245344161986861e+00 7.832937240600585938e-01 -5.894450545310974121e-01 9.000000000000000000e+00
3.606012725830078125e+01 7.756957530975341797e+00 4.528908729553222656e+00 1.900000000000000000e+01
4.622918605804443359e+00 9.935999512672424316e-01 -5.805855393409729004e-01 9.000000000000000000e+00
5.937439918518066406e+00 1.275044798851012962e+00 -5.313013792037963867e-01 9.000000000000000000e+00
3.558874130249022727e+01 7.636062145233154297e+00 7.075197696685791016e+00 6.100000000000000000e+01
8.637617111206054688e+00 1.851744532585144043e+00 -4.629638791084290106e-01 3.000000000000000000e+00
3.341514205932617188e+01 7.157485485076904297e+00 7.889483451843261719e+00 9.000000000000000000e+00
1.531089782714843928e+01 3.276782512664794922e+00 -2.733046710491179865e-01 2.000000000000000000e+00
3.290322113037108664e+01 7.035821437835693359e+00 9.015702247619628906e+00 6.000000000000000000e+00
2.267563343048096147e+00 4.819854497909545898e-01 -6.211656928062438965e-01 1.600000000000000000e+01
2.605907678604125977e+00 5.529521107673645020e-01 -6.150161623954772949e-01 1.200000000000000000e+01
3.028732538223267046e+00 6.421197056770324707e-01 -6.018115878105163574e-01 1.200000000000000000e+01
3.648687601089477983e+00 7.722252011299133301e-01 -5.906965136528015137e-01 9.000000000000000000e+00
3.609086990356445312e+01 7.631857872009277344e+00 4.529396057128906250e+00 1.900000000000000000e+01
4.630243301391601562e+00 9.782775640487670898e-01 -5.810730457305908203e-01 9.000000000000000000e+00
5.945753574371337891e+00 1.255134582519531028e+00 -5.316500067710876465e-01 9.000000000000000000e+00
3.561518096923828125e+01 7.511787891387938565e+00 7.075197696685791016e+00 6.100000000000000000e+01
8.671388626098632812e+00 1.827348232269287109e+00 -4.644292891025543213e-01 3.000000000000000000e+00
3.543838500976563211e+01 7.461579322814941406e+00 8.360980987548828125e+00 1.000000000000000000e+01
1.528701972961425959e+01 3.215907573699951172e+00 -2.726764082908629816e-01 2.000000000000000000e+00
3.359872055053710938e+01 7.061989784240722656e+00 9.199463844299316406e+00 1.300000000000000000e+01
2.257885694503784180e+00 4.716969132423400879e-01 -6.180598735809326172e-01 1.600000000000000000e+01
2.613545179367064986e+00 5.450459718704223633e-01 -6.163659095764160156e-01 1.300000000000000000e+01
3.042487382888793945e+00 6.339463591575622559e-01 -6.041013002395629883e-01 1.200000000000000000e+01
3.647493124008179155e+00 7.586796283721923828e-01 -5.900707840919494629e-01 9.000000000000000000e+00
3.618725967407227273e+01 7.520371437072753906e+00 4.538170814514160156e+00 1.900000000000000000e+01
4.647235393524169922e+00 9.649340510368347168e-01 -5.827792286872863770e-01 1.100000000000000000e+01
5.946197032928466797e+00 1.233562946319580078e+00 -5.313013792037963867e-01 9.000000000000000000e+00
8.716829299926757812e+00 1.805168628692626953e+00 -4.665227234363555908e-01 3.000000000000000000e+00
3.399862289428710938e+01 7.034588336944580078e+00 8.015456199645996094e+00 1.000000000000000000e+01
1.534906768798827947e+01 3.173051834106444868e+00 -2.735839188098906916e-01 2.000000000000000000e+00
3.314072799682617188e+01 6.845020294189453125e+00 9.067466735839843750e+00 6.000000000000000000e+00
2.265195608139038086e+00 4.649778902530670166e-01 -6.196128129959106445e-01 1.600000000000000000e+01
5.940431594848632812e+01 1.218315029144286932e+01 1.058488488197327104e+00 6.100000000000000000e+01
2.615431785583496094e+00 5.359196662902832031e-01 -6.163659095764160156e-01 1.400000000000000000e+01
3.048528432846068892e+00 6.241097450256347656e-01 -6.048645377159118652e-01 1.200000000000000000e+01
3.646248340606689009e+00 7.451518774032592773e-01 -5.894450545310974121e-01 1.100000000000000000e+01
4.660300254821777344e+00 9.506902098655700684e-01 -5.839979052543640137e-01 9.000000000000000000e+00
5.973893642425537109e+00 1.217574119567871094e+00 -5.333931446075439453e-01 9.000000000000000000e+00
8.723077774047851562e+00 1.774730205535888894e+00 -4.665227234363555908e-01 3.000000000000000000e+00
3.424067687988281250e+01 6.960121154785156250e+00 8.066744804382324219e+00 1.000000000000000000e+01
1.542276000976563033e+01 3.132189989089965820e+00 -2.747008800506591797e-01 2.000000000000000000e+00
3.319471359252929688e+01 6.735442638397216797e+00 9.075748443603515625e+00 6.000000000000000000e+00
2.274219751358031782e+00 4.593893289566040039e-01 -6.216833591461181641e-01 1.600000000000000000e+01
2.605640649795531782e+00 5.253893136978149414e-01 -6.136664748191833496e-01 1.400000000000000000e+01
3.058172464370727983e+00 6.160802841186523438e-01 -6.063910126686096191e-01 1.200000000000000000e+01
3.644698143005371094e+00 7.329143285751342773e-01 -5.888193249702453613e-01 1.100000000000000000e+01
4.655478954315186435e+00 9.344820976257324219e-01 -5.830229520797729492e-01 9.000000000000000000e+00
3.634107971191406250e+01 7.294650077819824219e+00 5.870672702789306641e+00 1.300000000000000000e+01
5.973782062530517578e+00 1.198017120361327903e+00 -5.330445170402526855e-01 9.000000000000000000e+00
8.689441680908203125e+00 1.739476323127747026e+00 -4.644292891025543213e-01 3.000000000000000000e+00
3.422988891601563211e+01 6.846019744873046875e+00 8.059096336364746094e+00 1.000000000000000000e+01
1.543252372741699041e+01 3.083722591400146040e+00 -2.747008800506591797e-01 2.000000000000000000e+00
3.521883010864257812e+01 7.037416458129882812e+00 9.623409271240234375e+00 7.000000000000000000e+00
2.283389091491699219e+00 4.529515802860260010e-01 -6.237539052963256836e-01 1.500000000000000000e+01
5.938573455810546875e+01 1.176946353912354049e+01 1.056743264198303001e+00 6.200000000000000000e+01
2.603635549545288086e+00 5.155337452888488770e-01 -6.127666831016540527e-01 1.100000000000000000e+01
3.800106048583983664e+01 7.524412631988525391e+00 2.030216455459595171e+00 2.200000000000000000e+01
3.044896841049193892e+00 6.023535728454589844e-01 -6.033380627632141113e-01 1.300000000000000000e+01
3.654986143112183061e+00 7.217181921005249023e-01 -5.900707840919494629e-01 1.100000000000000000e+01
4.645079135894775391e+00 9.155386090278625488e-01 -5.813167691230773926e-01 1.100000000000000000e+01
6.001385688781738281e+00 1.181776762008666992e+00 -5.351362824440002441e-01 9.000000000000000000e+00
8.722897529602050781e+00 1.714526772499084029e+00 -4.658946692943572998e-01 1.000000000000000000e+00
3.528988265991210938e+01 6.917203903198242188e+00 9.635832786560058594e+00 7.000000000000000000e+00
2.285033941268920898e+00 4.445795118808745783e-01 -6.237539052963256836e-01 1.500000000000000000e+01
2.607420682907104048e+00 5.063589811325073242e-01 -6.132165789604187012e-01 8.000000000000000000e+00
3.049011468887329102e+00 5.915633440017700195e-01 -6.037196516990661621e-01 1.300000000000000000e+01
3.667303562164307085e+00 7.101949453353881836e-01 -5.916351675987243652e-01 1.300000000000000000e+01
4.671791553497313565e+00 9.030281901359558105e-01 -5.842416286468505859e-01 1.100000000000000000e+01
6.009589672088623047e+00 1.160528182983397993e+00 -5.354849100112915039e-01 9.000000000000000000e+00
8.744812011718750000e+00 1.685568332672118919e+00 -4.667320549488068182e-01 3.000000000000000000e+00
3.352022171020507812e+01 6.454977512359619141e+00 7.880935192108154297e+00 9.000000000000000000e+00
1.551310539245604936e+01 2.984545469284058061e+00 -2.757480144500731867e-01 2.000000000000000000e+00
3.323843002319335938e+01 6.394696235656738281e+00 9.069537162780761719e+00 6.000000000000000000e+00
2.277084112167357954e+00 4.347889125347136896e-01 -6.211656928062438965e-01 1.600000000000000000e+01
2.607257843017578125e+00 4.968894422054290771e-01 -6.127666831016540527e-01 8.000000000000000000e+00
3.058772325515747070e+00 5.823855400085449219e-01 -6.052461266517639160e-01 1.200000000000000000e+01
3.669760227203369141e+00 6.973893642425537109e-01 -5.916351675987243652e-01 1.100000000000000000e+01
3.704118728637695312e+01 7.032489299774169922e+00 4.629328727722167969e+00 1.900000000000000000e+01
4.669064521789550781e+00 8.856053352355957031e-01 -5.835103988647460938e-01 1.100000000000000000e+01
5.986197948455811435e+00 1.134350538253783958e+00 -5.330445170402526855e-01 9.000000000000000000e+00
8.766342163085937500e+00 1.658002376556396040e+00 -4.675694406032562256e-01 1.000000000000000000e+00
1.556272888183593928e+01 2.937795162200928178e+00 -2.764461040496826172e-01 2.000000000000000000e+00
3.425639724731445312e+01 6.460429668426513672e+00 9.340779304504394531e+00 7.000000000000000000e+00
2.280486583709716797e+00 4.271934628486632746e-01 -6.216833591461181641e-01 1.400000000000000000e+01
2.610892057418822798e+00 4.881435334682465155e-01 -6.132165789604187012e-01 8.000000000000000000e+00
3.064646244049071822e+00 5.724258422851562500e-01 -6.060093641281127930e-01 1.200000000000000000e+01
3.664404392242432085e+00 6.831271648406982422e-01 -5.903836488723754883e-01 1.000000000000000000e+01
3.688206481933593750e+01 6.868983745574951172e+00 4.606417655944824219e+00 1.900000000000000000e+01
4.679933547973632812e+00 8.707543015480041504e-01 -5.844853520393371582e-01 9.000000000000000000e+00
3.741159439086914062e+01 6.960847854614257812e+00 6.027107238769531250e+00 1.300000000000000000e+01
6.005792140960693359e+00 1.116360664367676003e+00 -5.344390273094177246e-01 9.000000000000000000e+00
8.768149375915527344e+00 1.626663327217102051e+00 -4.673600792884827215e-01 1.000000000000000000e+00
1.563974285125732067e+01 2.895831584930419922e+00 -2.776328921318054199e-01 2.000000000000000000e+00
3.351020812988281250e+01 6.204700946807861328e+00 9.131653785705566406e+00 6.000000000000000000e+00
2.289564132690430132e+00 4.206267297267913818e-01 -6.237539052963256836e-01 1.600000000000000000e+01
2.587661743164062944e+00 4.744579792022705078e-01 -6.073678731918334961e-01 8.000000000000000000e+00
3.881995773315429688e+01 7.110789299011229581e+00 2.068316936492919922e+00 2.200000000000000000e+01
3.070487976074219194e+00 5.624321699142456055e-01 -6.067726016044616699e-01 1.200000000000000000e+01
3.672596216201781782e+00 6.713975667953491211e-01 -5.913223028182983398e-01 1.100000000000000000e+01
3.670272827148438211e+01 6.703108310699462891e+00 4.581068515777587891e+00 1.900000000000000000e+01
4.679039001464843750e+00 8.537003993988037109e-01 -5.839979052543640137e-01 1.100000000000000000e+01
6.021412849426270419e+00 1.097533464431762917e+00 -5.354849100112915039e-01 9.000000000000000000e+00
8.797353744506835938e+00 1.600336432456969993e+00 -4.686161577701569159e-01 1.000000000000000000e+00
1.568123626708984020e+01 2.846936464309691939e+00 -2.781913578510283869e-01 2.000000000000000000e+00
3.351561737060546875e+01 6.078735351562500000e+00 9.126995086669921875e+00 1.300000000000000000e+01
2.287143945693970171e+00 4.123464226722716730e-01 -6.227186322212219238e-01 1.500000000000000000e+01
2.598810672760010210e+00 4.675998389720916748e-01 -6.096173524856567383e-01 7.000000000000000000e+00
3.064607143402100053e+00 5.508576631546020508e-01 -6.052461266517639160e-01 1.200000000000000000e+01
3.672858238220214844e+00 6.588662862777709961e-01 -5.910094380378723145e-01 1.100000000000000000e+01
3.662705612182617188e+01 6.563852787017822266e+00 4.568881511688232422e+00 1.900000000000000000e+01
4.679890155792236328e+00 8.378296494483947754e-01 -5.837541818618774414e-01 1.100000000000000000e+01
3.648587799072266336e+01 6.531980037689208984e+00 5.870672702789306641e+00 1.300000000000000000e+01
6.030902862548828125e+00 1.078611969947814941e+00 -5.360078215599060059e-01 9.000000000000000000e+00
8.802612304687500000e+00 1.571154475212096946e+00 -4.686161577701569159e-01 1.000000000000000000e+00
3.397822189331054688e+01 6.058561325073242188e+00 7.968216419219970703e+00 1.000000000000000000e+01
1.569059085845947088e+01 2.794919967651367188e+00 -2.781913578510283869e-01 2.000000000000000000e+00
3.358970642089843750e+01 5.983237743377686435e+00 9.142005920410156250e+00 6.000000000000000000e+00
2.290471792221068892e+00 4.046964347362517755e-01 -6.232362389564514160e-01 1.500000000000000000e+01
2.608103752136230025e+00 4.598790407180786133e-01 -6.114169359207153320e-01 8.000000000000000000e+00
3.791544342041016336e+01 6.678692817687988281e+00 2.017655849456787109e+00 2.200000000000000000e+01
3.062644243240356001e+00 5.394756793975830078e-01 -6.044828891754150391e-01 1.200000000000000000e+01
3.684863328933715820e+00 6.477516293525695801e-01 -5.925737619400024414e-01 1.100000000000000000e+01
3.786977386474608664e+01 6.650206089019775391e+00 4.720974445343017578e+00 2.000000000000000000e+01
4.682786464691162109e+00 8.214886784553527832e-01 -5.837541818618774414e-01 1.100000000000000000e+01
3.660685729980468750e+01 6.415257930755615234e+00 5.886315822601318359e+00 1.300000000000000000e+01
6.032669067382813388e+00 1.057209730148314986e+00 -5.358334779739379883e-01 9.000000000000000000e+00
8.851325988769531250e+00 1.547987699508666992e+00 -4.709189236164093018e-01 1.000000000000000000e+00
1.572389030456542969e+01 2.744258165359497070e+00 -2.786102294921875000e-01 2.000000000000000000e+00
3.533185195922852273e+01 6.160040855407714844e+00 9.609951019287109375e+00 7.000000000000000000e+00
2.282352924346923828e+00 3.950513005256652832e-01 -6.206480860710144043e-01 1.600000000000000000e+01
2.623135089874268022e+00 4.530941247940062921e-01 -6.145662665367126465e-01 8.000000000000000000e+00
3.790703582763671875e+01 6.540868759155273438e+00 2.015980958938599077e+00 2.200000000000000000e+01
3.064508914947510210e+00 5.287817716598510742e-01 -6.044828891754150391e-01 1.200000000000000000e+01
3.681261777877808061e+00 6.338794827461242676e-01 -5.916351675987243652e-01 1.000000000000000000e+01
3.781450271606445312e+01 6.504514694213867188e+00 4.711225032806395596e+00 2.000000000000000000e+01
4.699320316314697266e+00 8.074908852577209473e-01 -5.854603052139282227e-01 9.000000000000000000e+00
6.022576808929443359e+00 1.033785820007323997e+00 -5.346133112907409668e-01 9.000000000000000000e+00
8.836989402770996094e+00 1.513709306716918945e+00 -4.698722064495087225e-01 1.000000000000000000e+00
3.399471664428710938e+01 5.816930294036865234e+00 7.962367534637451172e+00 2.000000000000000000e+01
1.574914264678955078e+01 2.692050218582152876e+00 -2.788894474506378174e-01 2.000000000000000000e+00
3.449898529052733664e+01 5.897019863128662109e+00 9.378048896789550781e+00 7.000000000000000000e+00
2.293241262435913086e+00 3.886961936950684149e-01 -6.232362389564514160e-01 1.500000000000000000e+01
2.624700784683227983e+00 4.439349174499512274e-01 -6.145662665367126465e-01 8.000000000000000000e+00
3.805567550659179688e+01 6.429803848266601562e+00 2.022680044174193892e+00 2.200000000000000000e+01
3.074079275131226030e+00 5.193896889686584473e-01 -6.060093641281127930e-01 1.100000000000000000e+01
3.681504249572753906e+00 6.206972002983093262e-01 -5.913223028182983398e-01 1.100000000000000000e+01
4.694280147552490234e+00 7.897649407386779785e-01 -5.844853520393371582e-01 9.000000000000000000e+00
3.694296264648438211e+01 6.208648204803466797e+00 5.933246612548828125e+00 1.300000000000000000e+01
6.053656578063964844e+00 1.017379760742187944e+00 -5.370537042617797852e-01 8.000000000000000000e+00
8.846158981323242188e+00 1.483513951301574929e+00 -4.700815677642822266e-01 3.000000000000000000e+00
3.351318359375000000e+01 5.614196777343750000e+00 7.844943046569824219e+00 9.000000000000000000e+00
1.585311222076416016e+01 2.652901172637939009e+00 -2.805648744106292725e-01 2.000000000000000000e+00
3.377344512939453125e+01 5.645677089691162109e+00 9.175135612487792969e+00 6.000000000000000000e+00
2.302140712738037109e+00 3.823554515838623047e-01 -6.253067851066589355e-01 1.400000000000000000e+01
2.599243164062500000e+00 4.307680130004882812e-01 -6.082676649093627930e-01 8.000000000000000000e+00
3.795067977905272727e+01 6.282693862915039062e+00 2.015980958938599077e+00 2.200000000000000000e+01
3.079658508300780806e+00 5.098341703414916992e-01 -6.067726016044616699e-01 1.100000000000000000e+01
3.691338062286376953e+00 6.097732782363891602e-01 -5.925737619400024414e-01 1.100000000000000000e+01
3.671407318115233664e+01 6.058227062225341797e+00 4.568881511688232422e+00 1.900000000000000000e+01
4.708624839782714844e+00 7.761308550834655762e-01 -5.859478116035461426e-01 9.000000000000000000e+00
6.074690341949462891e+00 1.000212788581847922e+00 -5.386224985122680664e-01 9.000000000000000000e+00
8.862854957580566406e+00 1.456113576889038086e+00 -4.707095921039580744e-01 3.000000000000000000e+00
1.586182308197020951e+01 2.600315809249877930e+00 -2.805648744106292725e-01 2.000000000000000000e+00
3.377576446533203125e+01 5.537046909332275391e+00 9.170993804931640625e+00 6.000000000000000000e+00
2.312995433807373047e+00 3.758664727210999090e-01 -6.278949975967407227e-01 1.600000000000000000e+01
5.936384201049804688e+01 9.636111259460449219e+00 1.049762248992919922e+00 6.300000000000000000e+01
2.598807334899901900e+00 4.213804602622985840e-01 -6.078177690505981445e-01 8.000000000000000000e+00
3.797237777709960938e+01 6.150183200836181641e+00 2.015980958938599077e+00 2.200000000000000000e+01
3.077543258666992188e+00 4.984532594680786133e-01 -6.060093641281127930e-01 1.100000000000000000e+01
3.697344303131103960e+00 5.975146889686584473e-01 -5.931994915008544922e-01 1.200000000000000000e+01
3.668404388427733664e+01 5.921809196472167969e+00 4.562544345855712891e+00 1.900000000000000000e+01
4.705426216125488281e+00 7.587419748306274414e-01 -5.852165818214416504e-01 9.000000000000000000e+00
3.834845733642578125e+01 6.183623313903808594e+00 6.152254581451416016e+00 1.400000000000000000e+01
6.086012840270996094e+00 9.802693724632263184e-01 -5.393197536468505859e-01 9.000000000000000000e+00
8.895491600036621094e+00 1.429604411125183105e+00 -4.721750020980834961e-01 1.000000000000000000e+00
3.310807800292968750e+01 5.314908981323242188e+00 7.741465568542479581e+00 9.000000000000000000e+00
1.591424083709716975e+01 2.551897287368773970e+00 -2.813327908515930176e-01 2.000000000000000000e+00
3.718639373779296875e+01 5.962952136993408203e+00 1.009135437011718928e+01 8.000000000000000000e+00
2.302845954895019975e+00 3.659710884094237726e-01 -6.247891783714294434e-01 1.700000000000000000e+01
2.590639114379882812e+00 4.107804298400878906e-01 -6.055682301521301270e-01 8.000000000000000000e+00
3.079264402389525923e+00 4.877075850963593084e-01 -6.060093641281127930e-01 1.100000000000000000e+01
3.720735168457031250e+01 5.886409282684326172e+00 3.295707225799560991e+00 4.800000000000000000e+01
3.711114406585692915e+00 5.864549279212951660e-01 -5.950766801834106445e-01 1.100000000000000000e+01
3.948884963989257812e+01 6.233226299285888672e+00 4.908653259277343750e+00 2.200000000000000000e+01
4.717850208282470703e+00 7.438581585884094238e-01 -5.864352583885192871e-01 1.100000000000000000e+01
6.093333721160888672e+00 9.596391320228576660e-01 -5.396683812141418457e-01 9.000000000000000000e+00
8.959618568420410156e+00 1.407845497131348100e+00 -4.753151535987854004e-01 1.000000000000000000e+00
3.329199218750000000e+01 5.225293636322020596e+00 7.780157089233398438e+00 9.000000000000000000e+00
1.600207519531250000e+01 2.508719444274901900e+00 -2.827289700508118231e-01 2.000000000000000000e+00
3.490909957885742188e+01 5.472861289978027344e+00 9.468118667602539062e+00 7.000000000000000000e+00
2.294564723968505859e+00 3.564476966857910156e-01 -6.222009658813476562e-01 1.900000000000000000e+01
2.459180593490601030e+00 3.811407685279846191e-01 -5.745249986648559570e-01 7.000000000000000000e+00
3.073187589645386186e+00 4.757545888423920233e-01 -6.044828891754150391e-01 1.100000000000000000e+01
3.722767257690429688e+01 5.756495475769042969e+00 3.295707225799560991e+00 4.800000000000000000e+01
3.711186647415161133e+00 5.731956362724304199e-01 -5.947638154029846191e-01 1.000000000000000000e+01
3.868637847900391336e+01 5.968227863311767578e+00 4.806282997131347656e+00 2.000000000000000000e+01
4.728265762329101562e+00 7.285945415496826172e-01 -5.874102115631103516e-01 1.100000000000000000e+01
3.682981491088867188e+01 5.668650627136229581e+00 5.901959419250488281e+00 1.300000000000000000e+01
6.094676971435546875e+00 9.380605220794677734e-01 -5.394940376281738281e-01 8.000000000000000000e+00
8.956582069396972656e+00 1.375349521636962891e+00 -4.748964607715607245e-01 1.000000000000000000e+00
3.349109649658203125e+01 5.136822700500488281e+00 7.822447776794433594e+00 9.000000000000000000e+00
1.601073455810546875e+01 2.452846527099608931e+00 -2.827289700508118231e-01 2.000000000000000000e+00
3.481052780151367188e+01 5.326759338378906250e+00 9.436024665832519531e+00 7.000000000000000000e+00
2.301524877548218218e+00 3.493056297302246094e-01 -6.237539052963256836e-01 1.800000000000000000e+01
4.010166168212891336e+01 6.079125404357910156e+00 7.079743146896362305e-01 3.600000000000000000e+01
2.431594371795653853e+00 3.681781589984893799e-01 -5.677764415740966797e-01 1.000000000000000000e+01
3.808604431152343750e+01 5.759972572326660156e+00 2.018702507019042969e+00 2.200000000000000000e+01
3.088417768478393999e+00 4.670792818069458008e-01 -6.071542501449584961e-01 1.100000000000000000e+01
3.689725637435913086e+00 5.567011833190917969e-01 -5.910094380378723145e-01 1.100000000000000000e+01
4.736669540405273438e+00 7.129718065261840820e-01 -5.881414413452148438e-01 9.000000000000000000e+00
6.105795383453369141e+00 9.179652929306030273e-01 -5.401912927627563477e-01 9.000000000000000000e+00
3.483415222167968750e+01 5.230863571166992188e+00 6.846990108489990234e+00 5.900000000000000000e+01
8.941576957702636719e+00 1.341114401817321999e+00 -4.738497436046599787e-01 1.000000000000000000e+00
3.343944168090820312e+01 5.009491920471191406e+00 7.806251525878906250e+00 9.000000000000000000e+00
1.602315330505371094e+01 2.397535562515258789e+00 -2.827987968921660822e-01 2.000000000000000000e+00
2.306552171707152876e+00 3.418361246585845947e-01 -6.247891783714294434e-01 1.700000000000000000e+01
5.949259948730468750e+01 8.806323051452636719e+00 1.049762248992919922e+00 6.300000000000000000e+01
2.427081346511840820e+00 3.588330447673798163e-01 -5.664267539978027344e-01 1.000000000000000000e+01
3.844971466064453125e+01 5.677759647369384766e+00 2.036915302276610884e+00 2.200000000000000000e+01
3.107509136199951172e+00 4.588770270347595215e-01 -6.105887889862060547e-01 1.100000000000000000e+01
3.711189270019530806e+00 5.466971397399902344e-01 -5.941380858421325684e-01 1.100000000000000000e+01
4.743057250976563388e+00 6.970106363296508789e-01 -5.886289477348327637e-01 9.000000000000000000e+00
6.106991291046142578e+00 8.963571190834045410e-01 -5.400170087814331055e-01 9.000000000000000000e+00
8.958061218261718750e+00 1.311630368232727051e+00 -4.744777679443358820e-01 1.000000000000000000e+00
1.616201972961426137e+01 2.360664606094359907e+00 -2.851025164127349854e-01 2.000000000000000000e+00
3.480392456054688211e+01 5.083547592163085938e+00 9.424636840820312500e+00 7.000000000000000000e+00
2.319202899932860884e+00 3.354418873786926270e-01 -6.278949975967407227e-01 1.800000000000000000e+01
2.447606801986693892e+00 3.531415760517119806e-01 -5.709257721900939941e-01 9.000000000000000000e+00
3.099376201629639116e+00 4.466269314289093018e-01 -6.086806654930114746e-01 1.100000000000000000e+01
3.718940973281859907e+00 5.345824956893920898e-01 -5.950766801834106445e-01 1.100000000000000000e+01
3.720623779296875000e+01 5.341616630554199219e+00 4.615191936492919922e+00 1.900000000000000000e+01
4.733671188354492188e+00 6.787594556808471680e-01 -5.871664881706237793e-01 9.000000000000000000e+00
3.610408401489257812e+01 5.176951408386229581e+00 5.776812076568604404e+00 1.300000000000000000e+01
6.129805564880371094e+00 8.778588175773620605e-01 -5.417600870132446289e-01 9.000000000000000000e+00
8.970493316650390625e+00 1.281482696533202903e+00 -4.748964607715607245e-01 3.000000000000000000e+00
3.400220108032227273e+01 4.851339817047119141e+00 7.929524898529052734e+00 9.000000000000000000e+00
1.614244651794433949e+01 2.300284862518310991e+00 -2.846138477325438898e-01 2.000000000000000000e+00
3.498976135253906250e+01 4.986011028289794922e+00 9.470189094543457031e+00 7.000000000000000000e+00
2.310795307159423828e+00 3.259949982166289728e-01 -6.253067851066589355e-01 1.900000000000000000e+01
2.437246084213256836e+00 3.429664075374603271e-01 -5.682263374328613281e-01 9.000000000000000000e+00
3.089251279830933061e+00 4.341659545898438055e-01 -6.063910126686096191e-01 1.100000000000000000e+01
3.722740411758422852e+00 5.218719840049743652e-01 -5.953895449638366699e-01 1.000000000000000000e+01
3.692583465576171875e+01 5.169873237609863281e+00 4.578143596649169922e+00 1.900000000000000000e+01
4.739943981170654297e+00 6.627815365791320801e-01 -5.876539945602416992e-01 1.100000000000000000e+01
6.120993137359619141e+00 8.548030853271484375e-01 -5.407142043113708496e-01 9.000000000000000000e+00
8.994693756103515625e+00 1.252917528152466042e+00 -4.759431779384613037e-01 3.000000000000000000e+00
3.379888916015625000e+01 4.702009201049804688e+00 7.878235816955566406e+00 9.000000000000000000e+00
1.617810630798339844e+01 2.247775793075561968e+00 -2.851025164127349854e-01 2.000000000000000000e+00
2.306232929229735884e+00 3.167347908020020086e-01 -6.237539052963256836e-01 1.700000000000000000e+01
2.446209669113159180e+00 3.350890278816223145e-01 -5.700259804725646973e-01 1.000000000000000000e+01
3.092767000198363814e+00 4.231064915657042902e-01 -6.067726016044616699e-01 1.100000000000000000e+01
3.734414577484130859e+00 5.095592737197875977e-01 -5.969539284706115723e-01 1.100000000000000000e+01
4.746274948120117188e+00 6.459397077560424805e-01 -5.881414413452148438e-01 9.000000000000000000e+00
3.692401504516602273e+01 5.018574237823486328e+00 5.901959419250488281e+00 1.300000000000000000e+01
6.130007743835449219e+00 8.331677317619323730e-01 -5.412371754646301270e-01 8.000000000000000000e+00
9.026933670043945312e+00 1.223698019981384055e+00 -4.774085879325867254e-01 1.000000000000000000e+00
1.623775863647460938e+01 2.195431232452393022e+00 -2.860100269317626953e-01 2.000000000000000000e+00
3.538828659057617188e+01 4.784683704376220703e+00 9.568540573120117188e+00 7.000000000000000000e+00
2.307324409484862837e+00 3.086825907230377197e-01 -6.237539052963256836e-01 1.700000000000000000e+01
5.941293716430664062e+01 7.937932491302490234e+00 1.046271800994873047e+00 6.300000000000000000e+01
2.453159332275391069e+00 3.273213207721710205e-01 -5.713756680488586426e-01 1.000000000000000000e+01
3.109793424606322798e+00 4.143826365470886230e-01 -6.098255515098571777e-01 1.100000000000000000e+01
3.722463369369506836e+00 4.946990013122559149e-01 -5.947638154029846191e-01 1.000000000000000000e+01
4.764244079589843750e+00 6.314547657966613770e-01 -5.900913476943969727e-01 9.000000000000000000e+00
3.699222183227539062e+01 4.896393775939941406e+00 5.910094261169433594e+00 1.300000000000000000e+01
6.132878780364990234e+00 8.117649555206298828e-01 -5.412371754646301270e-01 9.000000000000000000e+00
8.983628273010253906e+00 1.185907483100890891e+00 -4.748964607715607245e-01 1.000000000000000000e+00
3.539661026000977273e+01 4.666337490081787109e+00 8.242656707763671875e+00 1.000000000000000000e+01
1.629290580749512074e+01 2.145001649856566939e+00 -2.868477404117584229e-01 2.000000000000000000e+00
3.546223068237304688e+01 4.668691158294677734e+00 9.584069252014160156e+00 7.000000000000000000e+00
2.310198307037353960e+00 3.016825616359711248e-01 -6.242715120315551758e-01 1.600000000000000000e+01
5.943758010864257812e+01 7.751242637634277344e+00 1.046271800994873047e+00 6.300000000000000000e+01
2.429054021835327148e+00 3.163412809371948242e-01 -5.655269622802734375e-01 1.000000000000000000e+01
3.105239391326903853e+00 4.038513004779816229e-01 -6.086806654930114746e-01 1.100000000000000000e+01
3.723999023437500000e+00 4.830021262168884277e-01 -5.947638154029846191e-01 1.000000000000000000e+01
3.710310745239257812e+01 4.805683135986328125e+00 4.593742847442626953e+00 1.900000000000000000e+01
4.754392147064208984e+00 6.149564981460571289e-01 -5.886289477348327637e-01 9.000000000000000000e+00
6.149230480194091797e+00 7.942805886268615723e-01 -5.424573421478271484e-01 9.000000000000000000e+00
9.022965431213378906e+00 1.162271738052367942e+00 -4.767805635929108221e-01 3.000000000000000000e+00
1.626386260986328125e+01 2.089219570159912109e+00 -2.862194776535034180e-01 2.000000000000000000e+00
3.631295776367188211e+01 4.658239364624023438e+00 9.809759140014648438e+00 7.000000000000000000e+00
2.332318305969237837e+00 2.962947189807891846e-01 -6.299655437469482422e-01 1.700000000000000000e+01
2.105350971221923828e+00 2.667143642902374268e-01 -4.899433851242064875e-01 2.100000000000000000e+01
3.875662612915039062e+01 4.909845352172851562e+00 2.047382593154906782e+00 2.200000000000000000e+01
3.106630325317382812e+00 3.930095434188842773e-01 -6.086806654930114746e-01 1.000000000000000000e+01
3.729582071304320845e+00 4.704944789409636896e-01 -5.953895449638366699e-01 1.000000000000000000e+01
3.709602355957031250e+01 4.673162460327148438e+00 4.590817928314208984e+00 1.900000000000000000e+01
4.768327236175537109e+00 5.998434424400329590e-01 -5.900913476943969727e-01 9.000000000000000000e+00
3.677692794799804688e+01 4.619923591613770419e+00 5.870672702789306641e+00 1.300000000000000000e+01
6.161849975585938388e+00 7.740526199340820312e-01 -5.433288812637329102e-01 9.000000000000000000e+00
9.050748825073242188e+00 1.133747577667236106e+00 -4.780366122722625732e-01 1.000000000000000000e+00
3.535717010498046875e+01 4.422769546508789062e+00 8.226460456848144531e+00 1.000000000000000000e+01
1.626708793640137074e+01 2.031939506530762163e+00 -2.861496508121489923e-01 2.000000000000000000e+00
3.672006607055664062e+01 4.580234527587890625e+00 9.915357589721679688e+00 7.000000000000000000e+00
2.306545972824097124e+00 2.844342291355133057e-01 -6.227186322212219238e-01 1.600000000000000000e+01
5.949152374267578125e+01 7.325721263885498047e+00 1.046271800994873047e+00 6.300000000000000000e+01
2.086972713470458984e+00 2.566177845001221258e-01 -4.854443669319152832e-01 5.200000000000000000e+01
3.917082595825195312e+01 4.816512584686279297e+00 2.068316936492919922e+00 2.200000000000000000e+01
3.109998464584351030e+00 3.818597793579102118e-01 -6.090623140335083008e-01 1.100000000000000000e+01
3.741085052490233931e+00 4.580219686031342108e-01 -5.969539284706115723e-01 9.000000000000000000e+00
3.727841567993164062e+01 4.557402133941650391e+00 4.611292362213134766e+00 1.900000000000000000e+01
4.772464275360107422e+00 5.826031565666198730e-01 -5.903350710868835449e-01 9.000000000000000000e+00
6.162667751312255859e+00 7.512220144271850586e-01 -5.431545972824096680e-01 9.000000000000000000e+00
9.054842948913574219e+00 1.100567340850830078e+00 -4.780366122722625732e-01 1.000000000000000000e+00
3.608892440795897727e+01 4.380022048950195312e+00 8.392924308776855469e+00 1.100000000000000000e+01
1.636574363708496094e+01 1.983370900154113992e+00 -2.877552807331085205e-01 5.000000000000000000e+00
3.689003372192382812e+01 4.464184761047363281e+00 9.956768989562988281e+00 8.000000000000000000e+00
2.077347755432128906e+00 2.488119602203368863e-01 -5.606020689010620117e-01 2.900000000000000000e+01
5.951673507690429688e+01 7.118012428283691406e+00 1.046271800994873047e+00 6.300000000000000000e+01
2.128490686416625977e+00 2.541839182376862127e-01 -4.948923289775847834e-01 2.800000000000000000e+01
3.938571929931641336e+01 4.703434467315673828e+00 2.078784227371215820e+00 2.200000000000000000e+01
3.119110107421875000e+00 3.719313740730286200e-01 -6.105887889862060547e-01 1.100000000000000000e+01
3.744622707366942915e+00 4.451935589313507080e-01 -5.972667932510375977e-01 1.000000000000000000e+01
3.758978652954102273e+01 4.462349891662597656e+00 4.647852897644042969e+00 1.900000000000000000e+01
4.792210578918457031e+00 5.680435895919799805e-01 -5.925287604331970215e-01 9.000000000000000000e+00
6.159316539764404297e+00 7.290031909942626953e-01 -5.426316261291503906e-01 9.000000000000000000e+00
9.134002685546875000e+00 1.077847599983215110e+00 -4.820141494274138849e-01 3.000000000000000000e+00
3.599948120117188211e+01 4.241707324981688565e+00 8.368629455566406250e+00 1.000000000000000000e+01
1.645995140075683949e+01 1.936512470245361106e+00 -2.892910838127136230e-01 2.000000000000000000e+00
3.681329727172852273e+01 4.324568748474121094e+00 9.931921958923339844e+00 8.000000000000000000e+00
2.041743993759154829e+00 2.373212724924088080e-01 -5.507669448852539062e-01 5.200000000000000000e+01
2.113878488540648970e+00 2.449579834938049039e-01 -4.912931025028228760e-01 1.000000000000000000e+02
3.114538669586182085e+00 3.603644371032714844e-01 -6.094439029693603516e-01 1.200000000000000000e+01
3.736341953277587891e+00 4.309878945350646973e-01 -5.957024693489074707e-01 9.000000000000000000e+00
4.065787506103516336e+01 4.682704448699951172e+00 5.025160312652587891e+00 2.500000000000000000e+01
4.798108100891113281e+00 5.517657995223999023e-01 -5.930162072181701660e-01 9.000000000000000000e+00
6.147968292236328125e+00 7.059077620506286621e-01 -5.414114594459533691e-01 9.000000000000000000e+00
9.117866516113281250e+00 1.043686032295227051e+00 -4.809674322605133057e-01 1.200000000000000000e+01
1.655005645751953125e+01 1.888566851615905984e+00 -2.907570898532866877e-01 2.000000000000000000e+00
3.611342239379882812e+01 4.120989322662354404e+00 9.739360809326171875e+00 7.000000000000000000e+00
2.040640115737915039e+00 2.299764603376389105e-01 -5.502492785453796387e-01 1.300000000000000000e+01
2.105037927627563032e+00 2.364898771047591886e-01 -4.890435934066771906e-01 1.000000000000000000e+02
3.941759490966796875e+01 4.428358078002929688e+00 2.078784227371215820e+00 2.200000000000000000e+01
3.125532865524291992e+00 3.505846858024597168e-01 -6.113520264625549316e-01 1.200000000000000000e+01
3.747639417648314986e+00 4.190405309200286865e-01 -5.972667932510375977e-01 1.000000000000000000e+01
4.805923461914063388e+00 5.356736183166503906e-01 -5.937474370002746582e-01 1.100000000000000000e+01
6.178117275238037109e+00 6.875281333923339844e-01 -5.438518524169921875e-01 9.000000000000000000e+00
9.129394531250000000e+00 1.012733221054076926e+00 -4.813861250877379816e-01 1.000000000000000000e+00
1.655257225036621094e+01 1.830345273017883079e+00 -2.906872928142548163e-01 2.000000000000000000e+00
3.623581314086914062e+01 4.000471115112304688e+00 9.768348693847656250e+00 7.000000000000000000e+00
2.133571147918701172e+00 2.332872003316878995e-01 -5.750958919525146484e-01 4.000000000000000000e+00
5.948748016357421875e+01 6.493925571441650391e+00 1.044526576995850053e+00 6.300000000000000000e+01
2.099998950958251953e+00 2.288745939731597900e-01 -4.876938760280609131e-01 1.000000000000000000e+02
3.124726533889770952e+00 3.400057256221771240e-01 -6.109703779220581055e-01 1.200000000000000000e+01
3.745080709457397017e+00 4.061846137046813965e-01 -5.966410636901855469e-01 1.100000000000000000e+01
3.891655349731445312e+01 4.213946342468261719e+00 4.806282997131347656e+00 2.000000000000000000e+01
4.801752567291259766e+00 5.190935730934143066e-01 -5.930162072181701660e-01 9.000000000000000000e+00
6.194229125976563388e+00 6.685335636138916016e-01 -5.450720191001892090e-01 9.000000000000000000e+00
9.172418594360351562e+00 9.867259263992309570e-01 -4.834795594215393066e-01 3.000000000000000000e+00
3.587849426269531250e+01 3.853306531906127930e+00 8.330837249755859375e+00 1.000000000000000000e+01
1.663808441162109020e+01 1.783972501754760964e+00 -2.920834720134735107e-01 2.000000000000000000e+00
3.603691101074218750e+01 3.863958120346068892e+00 9.711408615112304688e+00 1.500000000000000000e+01
2.168952703475952148e+00 2.294971793889999112e-01 -5.844134092330932617e-01 9.000000000000000000e+00
5.941035461425781250e+01 6.275732517242431641e+00 1.042781233787537065e+00 6.300000000000000000e+01
2.096909046173096147e+00 2.211340814828872958e-01 -4.867940843105316162e-01 1.000000000000000000e+02
3.114179372787476030e+00 3.278629779815673828e-01 -6.086806654930114746e-01 1.200000000000000000e+01
3.764157056808472124e+00 3.949646353721619207e-01 -5.994568467140197754e-01 1.100000000000000000e+01
3.893102645874022727e+01 4.078076362609863281e+00 4.806282997131347656e+00 2.000000000000000000e+01
4.817355632781982422e+00 5.037744045257568359e-01 -5.947223901748657227e-01 1.100000000000000000e+01
6.196525096893311435e+00 6.469075679779052734e-01 -5.450720191001892090e-01 9.000000000000000000e+00
9.163887977600097656e+00 9.534620642662048340e-01 -4.828515350818634033e-01 3.000000000000000000e+00
3.594987487792968750e+01 3.734083652496337891e+00 8.344334602355957031e+00 1.000000000000000000e+01
1.664420890808105113e+01 1.725883960723876953e+00 -2.920834720134735107e-01 2.000000000000000000e+00
3.614883041381835938e+01 3.741994857788085938e+00 9.737808227539062500e+00 1.500000000000000000e+01
2.148600578308105025e+00 2.197624742984772006e-01 -5.787193775177001953e-01 8.000000000000000000e+00
5.943190002441406250e+01 6.068313598632813388e+00 1.042781233787537065e+00 6.300000000000000000e+01
2.115116357803345171e+00 2.155916392803192139e-01 -4.908432066440582275e-01 1.000000000000000000e+02
3.946180343627929688e+01 4.015342712402343750e+00 2.078784227371215820e+00 2.200000000000000000e+01
3.117258071899414062e+00 3.171892166137694757e-01 -6.090623140335083008e-01 1.200000000000000000e+01
3.761582136154174805e+00 3.814243078231812079e-01 -5.988311171531677246e-01 1.200000000000000000e+01
4.821060180664063388e+00 4.871551990509033203e-01 -5.949661135673522949e-01 9.000000000000000000e+00
6.198745250701904297e+00 6.252737045288085938e-01 -5.450720191001892090e-01 8.000000000000000000e+00
9.294343948364257812e+00 9.342526197433471680e-01 -4.895505309104918878e-01 1.000000000000000000e+00
1.668196868896484020e+01 1.670963168144226074e+00 -2.926419377326964777e-01 2.000000000000000000e+00
3.650896453857421875e+01 3.656950473785399947e+00 9.831500053405761719e+00 7.000000000000000000e+00
2.118594646453856978e+00 2.092233896255492887e-01 -5.704371929168701172e-01 4.000000000000000000e+00
2.108098506927489790e+00 2.074438333511353094e-01 -4.890435934066771906e-01 1.000000000000000000e+02
3.947558212280272727e+01 3.877570629119873047e+00 2.078784227371215820e+00 2.200000000000000000e+01
3.135931015014647993e+00 3.080333173274993896e-01 -6.124968528747558594e-01 1.300000000000000000e+01
3.758958816528319868e+00 3.679067790508270264e-01 -5.982053875923156738e-01 1.100000000000000000e+01
4.448256301879882812e+01 4.345877647399902344e+00 5.487776756286621094e+00 3.700000000000000000e+01
4.838536739349365234e+00 4.718649983406066895e-01 -5.969160199165344238e-01 9.000000000000000000e+00
6.187009334564208984e+00 6.022809743881225586e-01 -5.438518524169921875e-01 9.000000000000000000e+00
9.277668952941894531e+00 8.998754620552062988e-01 -4.885038137435913086e-01 1.000000000000000000e+00
1.677527809143066051e+01 1.621185660362244096e+00 -2.941777706146240234e-01 2.000000000000000000e+00
3.651058578491210938e+01 3.522001028060913086e+00 9.828394889831542969e+00 7.000000000000000000e+00
2.136620283126831055e+00 2.034751623868941983e-01 -5.750958919525146484e-01 4.000000000000000000e+00
2.097169637680054155e+00 1.989795118570328036e-01 -4.863441884517670233e-01 8.000000000000000000e+01
3.131123542785644975e+00 2.965297102928162176e-01 -6.113520264625549316e-01 1.200000000000000000e+01
3.764153480529785156e+00 3.551544249057769775e-01 -5.988311171531677246e-01 1.200000000000000000e+01
4.840154647827148438e+00 4.549724757671356201e-01 -5.969160199165344238e-01 9.000000000000000000e+00
6.206926822662354404e+00 5.823556780815124512e-01 -5.454206466674804688e-01 9.000000000000000000e+00
9.300640106201171875e+00 8.693436384201049805e-01 -4.895505309104918878e-01 1.000000000000000000e+00
1.678481674194335938e+01 1.562990069389343040e+00 -2.942475676536560059e-01 2.000000000000000000e+00
3.713759231567382812e+01 3.458225965499877930e+00 9.994038581848144531e+00 8.000000000000000000e+00
2.145012617111206055e+00 1.967214494943619052e-01 -5.771664977073669434e-01 6.000000000000000000e+00
5.949218750000000000e+01 5.445622444152832031e+00 1.042781233787537065e+00 6.300000000000000000e+01
3.143870353698730025e+00 2.866678833961486816e-01 -6.136417388916015625e-01 1.200000000000000000e+01
3.761435508728026900e+00 3.416555225849152166e-01 -5.982053875923156738e-01 1.200000000000000000e+01
4.859506130218505859e+00 4.396843314170836847e-01 -5.991097092628479004e-01 1.100000000000000000e+01
6.232733726501464844e+00 5.628361701965332031e-01 -5.475123524665832520e-01 8.000000000000000000e+00
9.287703514099121094e+00 8.354415893554687500e-01 -4.887131452560424805e-01 1.000000000000000000e+00
1.681407165527344105e+01 1.506532073020935059e+00 -2.946664392948151190e-01 2.000000000000000000e+00
2.114863634109497070e+00 1.868864297866821012e-01 -5.688842535018920898e-01 7.000000000000000000e+00
5.950991821289063211e+01 5.248309612274169922e+00 1.042781233787537065e+00 6.300000000000000000e+01
2.110122919082642046e+00 1.857251971960068027e-01 -4.890435934066771906e-01 1.000000000000000000e+00
3.135025262832642046e+00 2.753818929195404053e-01 -6.117336153984069824e-01 1.300000000000000000e+01
3.780258655548096147e+00 3.307297825813292902e-01 -6.010212302207946777e-01 1.100000000000000000e+01
4.856982231140136719e+00 4.232225716114044189e-01 -5.986222028732299805e-01 1.100000000000000000e+01
6.240520477294921875e+00 5.426824092864990234e-01 -5.480353236198425293e-01 6.000000000000000000e+00
9.274504661560058594e+00 8.032591342926025391e-01 -4.878757894039154053e-01 1.000000000000000000e+00
3.913484191894531250e+01 3.382563352584838867e+00 9.068676948547363281e+00 1.200000000000000000e+01
1.687077522277832031e+01 1.455234408378601074e+00 -2.955739498138427734e-01 2.000000000000000000e+00
3.967393493652343750e+01 3.422183036804199219e+00 1.067007350921631037e+01 9.000000000000000000e+00
2.084704160690308061e+00 1.768897026777266901e-01 -5.606020689010620117e-01 1.100000000000000000e+01
5.952787399291992188e+01 5.040549278259277344e+00 1.042781233787537065e+00 6.300000000000000000e+01
2.137943744659423828e+00 1.806555241346358975e-01 -4.953422248363494873e-01 1.000000000000000000e+00
3.134011030197143999e+00 2.642719745635985773e-01 -6.113520264625549316e-01 1.300000000000000000e+01
3.771547794342041016e+00 3.167057335376740057e-01 -5.994568467140197754e-01 1.100000000000000000e+01
4.876234054565429688e+00 4.077547192573546808e-01 -6.008158922195434570e-01 1.100000000000000000e+01
3.870927429199218750e+01 3.230098247528076172e+00 6.152254581451416016e+00 1.400000000000000000e+01
6.244362354278563565e+00 5.210613012313842773e-01 -5.482096076011657715e-01 7.000000000000000000e+00
9.281232833862304688e+00 7.712109684944152832e-01 -4.880851209163665771e-01 1.000000000000000000e+00
3.888617324829102273e+01 3.224358320236206055e+00 9.008389472961425781e+00 1.200000000000000000e+01
1.692557334899901988e+01 1.400457978248595969e+00 -2.964465618133544922e-01 2.000000000000000000e+00
3.845016860961914062e+01 3.174692153930664062e+00 1.033775043487549006e+01 8.000000000000000000e+00
2.091085433959960938e+00 1.700814962387084961e-01 -5.621549487113952637e-01 1.900000000000000000e+01
5.954510879516602273e+01 4.832727432250976562e+00 1.042781233787537065e+00 6.300000000000000000e+01
2.138561487197875977e+00 1.731916069984436035e-01 -4.953422248363494873e-01 1.000000000000000000e+00
3.138828039169311968e+00 2.536469101905822754e-01 -6.121152639389038086e-01 1.300000000000000000e+01
3.760816335678101030e+00 3.025881052017211914e-01 -5.975796580314636230e-01 1.100000000000000000e+01
4.895436286926270419e+00 3.921576142311096191e-01 -6.030095219612121582e-01 1.100000000000000000e+01
3.871977233886718750e+01 3.101716041564940962e+00 6.152254581451416016e+00 1.400000000000000000e+01
6.238198757171630859e+00 4.986262619495391846e-01 -5.475123524665832520e-01 8.000000000000000000e+00
9.295814514160156250e+00 7.397593855857849121e-01 -4.887131452560424805e-01 1.000000000000000000e+00
3.921189880371093750e+01 3.113589525222777876e+00 9.081274032592773438e+00 1.200000000000000000e+01
1.700212287902832031e+01 1.347053885459899902e+00 -2.977031469345092773e-01 2.000000000000000000e+00
3.854522323608397727e+01 3.053882837295531782e+00 1.036052608489990057e+01 8.000000000000000000e+00
2.056997776031494141e+00 1.600831747055053988e-01 -5.528374910354614258e-01 1.400000000000000000e+01
5.956161499023438211e+01 4.624846935272216797e+00 1.042781233787537065e+00 6.300000000000000000e+01
2.127495288848876953e+00 1.648224443197250089e-01 -4.926428198814392090e-01 1.000000000000000000e+00
4.063883972167968750e+01 3.141258239746094194e+00 2.136144399642943892e+00 2.500000000000000000e+01
3.153396368026732954e+00 2.437479197978973111e-01 -6.147865653038024902e-01 1.800000000000000000e+01
3.773666858673096147e+00 2.903678417205811102e-01 -5.994568467140197754e-01 1.100000000000000000e+01
3.959130477905272727e+01 3.039433956146239790e+00 4.875504970550537109e+00 2.100000000000000000e+01
4.878961563110351562e+00 3.737025260925292969e-01 -6.008158922195434570e-01 9.000000000000000000e+00
3.873036193847656250e+01 2.966539859771728960e+00 6.152254581451416016e+00 1.400000000000000000e+01
6.245861053466796875e+00 4.773032665252686102e-01 -5.480353236198425293e-01 9.000000000000000000e+00
9.294356346130371094e+00 7.070034146308898926e-01 -4.885038137435913086e-01 1.000000000000000000e+00
3.883389663696289062e+01 2.947201251983643022e+00 8.991293907165527344e+00 1.200000000000000000e+01
1.703463745117187855e+01 1.289810895919800027e+00 -2.981918156147003174e-01 2.000000000000000000e+00
3.869434356689453125e+01 2.929817914962768999e+00 1.039779663085938033e+01 8.000000000000000000e+00
2.045984745025635210e+00 1.520429402589797974e-01 -5.497316718101501465e-01 2.200000000000000000e+01
2.112510204315185991e+00 1.562451720237731934e-01 -4.890435934066771906e-01 1.000000000000000000e+00
3.146396160125731978e+00 2.321611493825911920e-01 -6.132600903511047363e-01 1.800000000000000000e+01
3.786478042602539062e+00 2.780615687370299738e-01 -6.013340950012207031e-01 1.200000000000000000e+01
4.868357658386229581e+00 3.558013439178466797e-01 -5.993534326553344727e-01 1.100000000000000000e+01
3.874097442626953125e+01 2.824566125869750977e+00 6.152254581451416016e+00 1.400000000000000000e+01
6.245501995086669922e+00 4.553533792495728094e-01 -5.478609800338745117e-01 7.000000000000000000e+00
9.316688537597656250e+00 6.760011315345764160e-01 -4.895505309104918878e-01 1.000000000000000000e+00
4.388967514038085938e+01 3.176850795745850053e+00 1.015923976898193004e+01 1.300000000000000000e+01
1.708690452575683949e+01 1.233797430992126021e+00 -2.990295290946959894e-01 2.000000000000000000e+00
2.094678878784180132e+00 1.483112126588821134e-01 -5.626726150512695312e-01 1.100000000000000000e+01
5.959244918823242188e+01 4.208919048309326172e+00 1.042781233787537065e+00 6.300000000000000000e+01
2.128594160079956055e+00 1.499658226966857910e-01 -4.926428198814392090e-01 1.000000000000000000e+00
3.139353752136230025e+00 2.206262201070786078e-01 -6.117336153984069824e-01 1.700000000000000000e+01
3.791366577148437944e+00 2.651181817054749090e-01 -6.019598245620727539e-01 1.100000000000000000e+01
4.903234958648681641e+00 3.411477208137512207e-01 -6.034969687461853027e-01 1.100000000000000000e+01
6.260966777801513672e+00 4.345152974128723145e-01 -5.490812063217163086e-01 7.000000000000000000e+00
9.342901229858398438e+00 6.451267004013061523e-01 -4.908066093921660822e-01 1.000000000000000000e+00
