-2.784422636032104048e+00 7.518162727355957031e-01 -6.658551096916198730e-01 1.400000000000000000e+01
-3.282641887664794922e+00 8.869541287422180176e-01 -6.609623432159423828e-01 1.300000000000000000e+01
-4.032908439636229581e+00 1.091183185577393022e+00 -6.617177724838256836e-01 9.000000000000000000e+00
-5.217294216156005859e+00 1.413596987724303977e+00 -6.637004613876342773e-01 9.000000000000000000e+00
-7.414940834045410156e+00 2.010426521301269975e+00 -6.721450686454772949e-01 2.000000000000000000e+00
-1.286592483520507990e+01 3.493183135986328125e+00 -6.986849904060363770e-01 4.000000000000000000e+00
-3.374181747436522727e+01 9.173772811889648438e+00 -6.103455424308776855e-01 1.400000000000000000e+01
-2.390832901000977007e+00 6.536093950271606445e-01 -6.641296744346618652e-01 1.900000000000000000e+01
-2.768624305725098100e+00 7.579292654991149902e-01 -6.627057790756225586e-01 1.500000000000000000e+01
-3.287099599838256836e+00 9.004821181297302246e-01 -6.624888181686401367e-01 1.300000000000000000e+01
-4.015739917755126953e+00 1.101595997810363992e+00 -6.595277190208435059e-01 9.000000000000000000e+00
-5.221899032592773438e+00 1.434429287910460982e+00 -6.649191379547119141e-01 1.100000000000000000e+01
-7.396351337432861328e+00 2.033128738403319868e+00 -6.710992455482482910e-01 2.000000000000000000e+00
-1.275737094879150035e+01 3.511569976806641069e+00 -6.934514045715332031e-01 4.000000000000000000e+00
-3.371344375610352273e+01 9.292560577392578125e+00 -6.104153394699096680e-01 7.000000000000000000e+00
-2.392491579055786133e+00 6.621477603912353516e-01 -6.651649475097656250e-01 1.900000000000000000e+01
-2.766229391098022017e+00 7.666234374046325684e-01 -6.627057790756225586e-01 1.500000000000000000e+01
-3.278578996658325195e+00 9.092304110527038574e-01 -6.613439917564392090e-01 1.400000000000000000e+01
-4.012259006500244141e+00 1.114206314086914062e+00 -6.595277190208435059e-01 9.000000000000000000e+00
-5.202066898345947266e+00 1.446572661399841087e+00 -6.629692316055297852e-01 1.100000000000000000e+01
-7.401444435119628906e+00 2.059559583663939986e+00 -6.721450686454772949e-01 2.000000000000000000e+00
-1.274627590179443004e+01 3.551630973815917969e+00 -6.934514045715332031e-01 4.000000000000000000e+00
-3.368408584594727273e+01 9.398427963256835938e+00 -6.104153394699096680e-01 7.000000000000000000e+00
-2.395745754241942915e+00 6.720604300498962402e-01 -6.667178869247436523e-01 2.000000000000000000e+01
-2.754155874252318892e+00 7.736396789550781250e-01 -6.604562997817993164e-01 1.300000000000000000e+01
-3.279165267944335938e+00 9.217317700386047363e-01 -6.621072292327880859e-01 1.500000000000000000e+01
-4.012148380279541016e+00 1.129275321960448997e+00 -6.601534485816955566e-01 9.000000000000000000e+00
-5.189342975616455078e+00 1.462568402290344016e+00 -6.619942784309387207e-01 1.100000000000000000e+01
-7.386539936065673828e+00 2.083219766616820845e+00 -6.714478135108947754e-01 2.000000000000000000e+00
-1.261078739166259943e+01 3.561362504959106001e+00 -6.867524385452270508e-01 4.000000000000000000e+00
-3.352022552490233664e+01 9.478948593139648438e+00 -6.080418229103088379e-01 1.300000000000000000e+01
-2.385833978652954102e+00 6.787223815917968750e-01 -6.646472811698913574e-01 1.900000000000000000e+01
-2.762547016143798828e+00 7.869322299957275391e-01 -6.631557345390319824e-01 1.300000000000000000e+01
-3.256884336471558061e+00 9.283624887466430664e-01 -6.582910418510437012e-01 1.400000000000000000e+01
-4.000384330749511719e+00 1.141804337501526101e+00 -6.589019894599914551e-01 9.000000000000000000e+00
-5.187765121459960938e+00 1.482669472694396973e+00 -6.624817252159118652e-01 1.100000000000000000e+01
-7.332880496978759766e+00 2.097130537033081055e+00 -6.672643423080444336e-01 2.000000000000000000e+00
-1.256692790985107067e+01 3.598761796951293945e+00 -6.850776672363281250e-01 4.000000000000000000e+00
-3.360443496704102273e+01 9.635916709899902344e+00 -6.102059483528137207e-01 7.000000000000000000e+00
-2.372312545776367188e+00 6.838358640670776367e-01 -6.615414619445800781e-01 2.000000000000000000e+01
-2.767272472381591797e+00 7.987321615219116211e-01 -6.649553179740905762e-01 1.400000000000000000e+01
-3.257396221160889116e+00 9.408150315284729004e-01 -6.590542793273925781e-01 1.400000000000000000e+01
-4.000169754028320312e+00 1.156858921051024947e+00 -6.595277190208435059e-01 1.000000000000000000e+01
-5.174931049346923828e+00 1.498560428619384988e+00 -6.615067720413208008e-01 1.100000000000000000e+01
-7.329342842102050781e+00 2.123823404312133789e+00 -6.676129698753356934e-01 2.000000000000000000e+00
-1.258498001098632990e+01 3.651511430740356001e+00 -6.867524385452270508e-01 4.000000000000000000e+00
-3.338240432739257812e+01 9.698485374450683594e+00 -6.067852377891540527e-01 6.000000000000000000e+00
-2.377207517623900923e+00 6.946937441825866699e-01 -6.636120080947875977e-01 1.900000000000000000e+01
-2.756845235824584961e+00 8.066802620887756348e-01 -6.631557345390319824e-01 1.400000000000000000e+01
-3.263346910476685014e+00 9.555060863494873047e-01 -6.609623432159423828e-01 1.300000000000000000e+01
-3.984529018402100053e+00 1.168178081512450950e+00 -6.576504707336425781e-01 9.000000000000000000e+00
-5.167499065399169922e+00 1.516958355903625044e+00 -6.612630486488342285e-01 9.000000000000000000e+00
-7.294746875762938565e+00 2.142811059951781782e+00 -6.651726365089416504e-01 2.000000000000000000e+00
-1.257151222229004084e+01 3.697613000869750977e+00 -6.867524385452270508e-01 4.000000000000000000e+00
-3.352311325073242188e+01 9.872746467590332031e+00 -6.099964976310729980e-01 7.000000000000000000e+00
-2.374768018722534180e+00 7.029875516891479492e-01 -6.636120080947875977e-01 2.000000000000000000e+01
-2.739065408706665039e+00 8.118681907653808594e-01 -6.595565080642700195e-01 1.400000000000000000e+01
-3.254344940185546875e+00 9.652166962623596191e-01 -6.598175168037414551e-01 1.300000000000000000e+01
-3.976639747619628906e+00 1.180954813957213911e+00 -6.570247411727905273e-01 9.000000000000000000e+00
-5.156464099884033203e+00 1.533289670944214089e+00 -6.605318188667297363e-01 1.100000000000000000e+01
-7.321596145629882812e+00 2.178488969802856001e+00 -6.683102250099182129e-01 2.000000000000000000e+00
-1.248962020874023082e+01 3.720943927764893022e+00 -6.829842329025268555e-01 4.000000000000000000e+00
-3.343095779418945312e+01 9.972555160522460938e+00 -6.089493632316589355e-01 1.300000000000000000e+01
-2.376000642776488814e+00 7.123823761940002441e-01 -6.646472811698913574e-01 2.000000000000000000e+01
-2.739947557449340820e+00 8.225449919700622559e-01 -6.604562997817993164e-01 1.400000000000000000e+01
-3.243434906005858931e+00 9.743113517761230469e-01 -6.582910418510437012e-01 1.200000000000000000e+01
-3.987626552581787109e+00 1.199380397796631081e+00 -6.595277190208435059e-01 9.000000000000000000e+00
-5.135874271392822266e+00 1.546700358390808105e+00 -6.585819125175476074e-01 1.100000000000000000e+01
-7.302501201629638672e+00 2.200583696365356001e+00 -6.672643423080444336e-01 2.000000000000000000e+00
-1.247655582427979049e+01 3.764518260955810991e+00 -6.829842329025268555e-01 4.000000000000000000e+00
-3.343423080444335938e+01 1.010075664520264027e+01 -6.096474528312683105e-01 1.400000000000000000e+01
-2.367954015731811968e+00 7.189880013465881348e-01 -6.630944013595581055e-01 1.900000000000000000e+01
-2.742653131484984907e+00 8.338046669960021973e-01 -6.618059873580932617e-01 1.500000000000000000e+01
-3.228744506835937944e+00 9.821988344192504883e-01 -6.560013294219970703e-01 1.200000000000000000e+01
-3.981525897979735884e+00 1.212716937065124956e+00 -6.592148542404174805e-01 9.000000000000000000e+00
-5.138039112091063565e+00 1.566934704780579057e+00 -6.595568656921386719e-01 1.100000000000000000e+01
-7.268096446990966797e+00 2.217919588088988814e+00 -6.648240089416503906e-01 2.000000000000000000e+00
-1.239075565338134943e+01 3.785869359970093218e+00 -6.790066957473754883e-01 3.000000000000000000e+00
-3.344083404541016336e+01 1.023027229309082031e+01 -6.104153394699096680e-01 7.000000000000000000e+00
-2.358296632766724077e+00 7.241553068161010742e-01 -6.610238552093505859e-01 2.100000000000000000e+01
-2.741882801055908203e+00 8.429895043373107910e-01 -6.622558832168579102e-01 1.400000000000000000e+01
-3.227519512176514116e+00 9.929146170616149902e-01 -6.563829183578491211e-01 1.200000000000000000e+01
-3.968257188796997070e+00 1.222311735153198020e+00 -6.576504707336425781e-01 9.000000000000000000e+00
-5.133090972900390625e+00 1.583068490028380904e+00 -6.595568656921386719e-01 1.100000000000000000e+01
-7.230631828308104581e+00 2.231341838836669922e+00 -6.620350480079650879e-01 2.000000000000000000e+00
-1.238261699676514027e+01 3.825956583023070845e+00 -6.792160272598266602e-01 3.000000000000000000e+00
-3.363395690917968750e+01 1.040501594543457031e+01 -6.145341396331787109e-01 1.400000000000000000e+01
-2.366822957992554155e+00 7.358239889144897461e-01 -6.641296744346618652e-01 2.100000000000000000e+01
-2.738923549652100053e+00 8.525553345680236816e-01 -6.622558832168579102e-01 1.400000000000000000e+01
-3.224033832550048828e+00 1.004174709320067915e+00 -6.563829183578491211e-01 1.100000000000000000e+01
-3.950765848159790039e+00 1.232039570808411089e+00 -6.554604172706604004e-01 8.000000000000000000e+00
-5.127533912658691406e+00 1.600976705551147017e+00 -6.595568656921386719e-01 1.100000000000000000e+01
-7.222799301147460938e+00 2.256567955017089844e+00 -6.620350480079650879e-01 2.000000000000000000e+00
-1.238824844360351918e+01 3.875119447708129883e+00 -6.802627444267272949e-01 4.000000000000000000e+00
-3.364704513549804688e+01 1.053789615631104049e+01 -6.154416799545288086e-01 1.400000000000000000e+01
-2.367925405502318892e+00 7.452411651611328125e-01 -6.651649475097656250e-01 2.100000000000000000e+01
-2.722920417785644975e+00 8.580110669136047363e-01 -6.591066122055053711e-01 1.500000000000000000e+01
-3.227998495101929155e+00 1.017783999443053977e+00 -6.579093933105468750e-01 1.200000000000000000e+01
-3.938906192779541016e+00 1.243444085121155007e+00 -6.542089581489562988e-01 8.000000000000000000e+00
-5.114342689514160156e+00 1.616472363471985085e+00 -6.585819125175476074e-01 1.100000000000000000e+01
-7.241473197937011719e+00 2.290177345275878906e+00 -6.644753813743591309e-01 2.000000000000000000e+00
-1.232894802093506037e+01 3.903868913650513139e+00 -6.777506470680236816e-01 3.000000000000000000e+00
-3.362530517578125000e+01 1.066011619567870916e+01 -6.157209277153015137e-01 1.400000000000000000e+01
-2.361628293991088867e+00 7.523294687271118164e-01 -6.641296744346618652e-01 1.900000000000000000e+01
-2.721765279769897017e+00 8.681027293205261230e-01 -6.595565080642700195e-01 1.400000000000000000e+01
-3.215074539184569868e+00 1.026061177253722922e+00 -6.560013294219970703e-01 1.200000000000000000e+01
-3.957121610641479048e+00 1.264400720596313032e+00 -6.579633355140686035e-01 8.000000000000000000e+00
-5.097324848175048828e+00 1.630685806274414062e+00 -6.571195125579833984e-01 1.100000000000000000e+01
-7.199279308319091797e+00 2.304507493972777876e+00 -6.613377928733825684e-01 2.000000000000000000e+00
-1.228861808776854936e+01 3.938347339630126953e+00 -6.762852072715759277e-01 3.000000000000000000e+00
-3.359169769287108664e+01 1.077864742279052912e+01 -6.157907247543334961e-01 1.400000000000000000e+01
-2.349794626235961914e+00 7.576044797897338867e-01 -6.615414619445800781e-01 1.700000000000000000e+01
-6.084824371337891336e+01 1.962999343872069957e+01 1.116011619567871094e+00 5.100000000000000000e+01
-2.724282026290893999e+00 8.793941140174865723e-01 -6.609061956405639648e-01 1.500000000000000000e+01
-3.205868721008300781e+00 1.035467386245727983e+00 -6.548564434051513672e-01 1.200000000000000000e+01
-3.941406488418579102e+00 1.274559140205383079e+00 -6.560861468315124512e-01 8.000000000000000000e+00
-5.099155902862548828e+00 1.650914669036865012e+00 -6.580944657325744629e-01 1.100000000000000000e+01
-7.179818630218505859e+00 2.325939416885375977e+00 -6.602919101715087891e-01 2.000000000000000000e+00
-1.220640182495117010e+01 3.959035634994506836e+00 -6.725170612335205078e-01 3.000000000000000000e+00
-3.357669448852539062e+01 1.090324974060058949e+01 -6.162095665931701660e-01 1.400000000000000000e+01
-2.341625928878784180e+00 7.640045285224914551e-01 -6.599885821342468262e-01 2.100000000000000000e+01
-6.077935028076171875e+01 1.984227371215819957e+01 1.116011619567871094e+00 5.100000000000000000e+01
-2.724900722503662109e+00 8.901084661483764648e-01 -6.618059873580932617e-01 1.500000000000000000e+01
-3.196636438369750977e+00 1.044821858406066895e+00 -6.537116169929504395e-01 1.200000000000000000e+01
-3.940688371658325195e+00 1.289538145065308061e+00 -6.567118763923645020e-01 8.000000000000000000e+00
-5.085816383361816406e+00 1.666231870651244895e+00 -6.571195125579833984e-01 1.100000000000000000e+01
-7.164083003997802734e+00 2.348505020141602007e+00 -6.595946550369262695e-01 1.000000000000000000e+00
-1.219250869750976918e+01 4.001619815826416016e+00 -6.725170612335205078e-01 3.000000000000000000e+00
-3.358402252197266336e+01 1.103536987304688033e+01 -6.170473098754882812e-01 7.000000000000000000e+00
-2.342613697052001953e+00 7.733849287033081055e-01 -6.610238552093505859e-01 2.200000000000000000e+01
-2.714375972747803178e+00 8.971684575080871582e-01 -6.600064039230346680e-01 1.500000000000000000e+01
-3.198561668395996094e+00 1.057823181152343972e+00 -6.548564434051513672e-01 1.100000000000000000e+01
-3.930537223815917969e+00 1.301423192024230957e+00 -6.557732820510864258e-01 9.000000000000000000e+00
-5.085621833801270419e+00 1.685848355293273926e+00 -6.578507423400878906e-01 1.100000000000000000e+01
-7.136930465698242188e+00 2.367225408554077148e+00 -6.578515172004699707e-01 2.000000000000000000e+00
-1.217846584320068004e+01 4.044155120849609375e+00 -6.725170612335205078e-01 3.000000000000000000e+00
-3.345421600341796875e+01 1.112225151062012074e+01 -6.153718233108520508e-01 7.000000000000000000e+00
-2.349061489105225053e+00 7.846176028251647949e-01 -6.636120080947875977e-01 2.000000000000000000e+01
-6.082900619506835938e+01 2.032949256896973012e+01 1.119502067565917969e+00 5.000000000000000000e+01
-2.707531452178955078e+00 9.054018855094909668e-01 -6.591066122055053711e-01 1.600000000000000000e+01
-3.192987918853760210e+00 1.068358778953552024e+00 -6.544748544692993164e-01 1.200000000000000000e+01
-3.918478250503540039e+00 1.312625527381896973e+00 -6.545218229293823242e-01 9.000000000000000000e+00
-5.070295810699462891e+00 1.700434207916259988e+00 -6.566320061683654785e-01 1.100000000000000000e+01
-7.147512912750244141e+00 2.398462057113647017e+00 -6.595946550369262695e-01 2.000000000000000000e+00
-1.216427516937256037e+01 4.086641311645507812e+00 -6.725170612335205078e-01 3.000000000000000000e+00
-3.338865280151367188e+01 1.123003578186034979e+01 -6.148831844329833984e-01 7.000000000000000000e+00
-2.348000049591064009e+00 7.938407659530639648e-01 -6.641296744346618652e-01 1.900000000000000000e+01
-6.075408554077147727e+01 2.055230522155762074e+01 1.119502067565917969e+00 5.000000000000000000e+01
-2.704194784164429155e+00 9.153193831443786621e-01 -6.591066122055053711e-01 1.500000000000000000e+01
-3.187191247940063032e+00 1.079424738883971946e+00 -6.540932655334472656e-01 1.200000000000000000e+01
-3.919253110885620117e+00 1.328881621360779031e+00 -6.554604172706604004e-01 9.000000000000000000e+00
-5.056510448455811435e+00 1.716454029083251953e+00 -6.556570529937744141e-01 1.100000000000000000e+01
-7.146220207214354581e+00 2.427205801010131836e+00 -6.602919101715087891e-01 2.000000000000000000e+00
-1.214921474456786932e+01 4.131198406219482422e+00 -6.725170612335205078e-01 3.000000000000000000e+00
-3.334347915649414062e+01 1.135104656219482067e+01 -6.148133873939514160e-01 1.400000000000000000e+01
-2.328763484954833984e+00 7.964059114456176758e-01 -6.594709157943725586e-01 1.900000000000000000e+01
-6.075008392333983664e+01 2.078755760192871094e+01 1.120758652687072976e+00 5.000000000000000000e+01
-2.693608522415161133e+00 9.222282767295837402e-01 -6.573069691658020020e-01 1.500000000000000000e+01
-3.181546688079833984e+00 1.089907288551331010e+00 -6.537116169929504395e-01 1.300000000000000000e+01
-3.923933267593383789e+00 1.345758438110352007e+00 -6.570247411727905273e-01 9.000000000000000000e+00
-5.057998180389404297e+00 1.736672639846801980e+00 -6.566320061683654785e-01 1.100000000000000000e+01
-7.084943771362304688e+00 2.434010505676269975e+00 -6.554111838340759277e-01 1.000000000000000000e+00
-1.204028701782226918e+01 4.141102790832520419e+00 -6.672834157943725586e-01 3.000000000000000000e+00
-3.326205825805664062e+01 1.145304489135742010e+01 -6.140454411506652832e-01 7.000000000000000000e+00
-2.324283838272095171e+00 8.034927845001220703e-01 -6.589533090591430664e-01 2.000000000000000000e+01
-6.080176544189453125e+01 2.103073310852051137e+01 1.122992515563965066e+00 5.000000000000000000e+01
-2.696060180664062944e+00 9.330675601959228516e-01 -6.586567163467407227e-01 1.400000000000000000e+01
-3.170494318008422852e+00 1.097882032394408958e+00 -6.521851420402526855e-01 1.200000000000000000e+01
-3.908250570297241211e+00 1.354881167411803977e+00 -6.551475524902343750e-01 9.000000000000000000e+00
-6.096591949462891336e+01 2.114709854125976918e+01 7.923213481903076172e+00 6.300000000000000000e+01
-5.040959358215332031e+00 1.749530911445617898e+00 -6.551696062088012695e-01 1.100000000000000000e+01
-7.054247856140136719e+00 2.449648618698120117e+00 -6.533194184303283691e-01 2.000000000000000000e+00
-1.212081336975098012e+01 4.213798999786376953e+00 -6.725170612335205078e-01 3.000000000000000000e+00
-3.328433227539063211e+01 1.158431720733642933e+01 -6.151624321937561035e-01 1.400000000000000000e+01
-2.325112342834473100e+00 8.128762841224670410e-01 -6.599885821342468262e-01 1.900000000000000000e+01
-6.082236099243164062e+01 2.127585601806640980e+01 1.124737739562988059e+00 5.000000000000000000e+01
-2.689108133316040039e+00 9.411853551864624023e-01 -6.577568650245666504e-01 1.400000000000000000e+01
-6.088221359252929688e+01 2.132064819335937855e+01 3.380693435668944868e+00 4.900000000000000000e+01
-3.177760124206542969e+00 1.112835764884948953e+00 -6.544748544692993164e-01 1.300000000000000000e+01
-6.091244888305664062e+01 2.134317207336426137e+01 5.646820545196533203e+00 4.900000000000000000e+01
-3.888584375381470171e+00 1.363286852836609109e+00 -6.526445746421813965e-01 9.000000000000000000e+00
-6.089172744750977273e+01 2.135977935791015980e+01 7.923213481903076172e+00 6.300000000000000000e+01
-5.046060085296630859e+00 1.771060943603516069e+00 -6.566320061683654785e-01 1.100000000000000000e+01
-7.038134574890136719e+00 2.471616983413695845e+00 -6.526222229003906250e-01 1.000000000000000000e+00
-1.201182079315186080e+01 4.222961425781250000e+00 -6.672834157943725586e-01 3.000000000000000000e+00
-3.332668685913085938e+01 1.172964191436767933e+01 -6.166982054710388184e-01 1.400000000000000000e+01
-2.318760871887207031e+00 8.192949891090393066e-01 -6.589533090591430664e-01 1.800000000000000000e+01
-6.084574127197266336e+01 2.151075935363769887e+01 1.126483082771301047e+00 4.900000000000000000e+01
-2.673111915588378906e+00 9.455485939979553223e-01 -6.546075940132141113e-01 1.600000000000000000e+01
-6.090531921386718750e+01 2.155574226379394887e+01 3.385926961898804155e+00 4.900000000000000000e+01
-3.177753925323485884e+00 1.124677538871764915e+00 -6.552380919456481934e-01 1.300000000000000000e+01
-3.887766122817993164e+00 1.377493858337401900e+00 -6.532703042030334473e-01 9.000000000000000000e+00
-5.027062892913818359e+00 1.783139228820801003e+00 -6.549258232116699219e-01 1.300000000000000000e+01
-7.037410259246826172e+00 2.497608184814453125e+00 -6.533194184303283691e-01 2.000000000000000000e+00
-1.190365028381348012e+01 4.229337692260742188e+00 -6.620498299598693848e-01 3.000000000000000000e+00
-3.331021499633789062e+01 1.184813404083251953e+01 -6.171171069145202637e-01 1.400000000000000000e+01
-2.323163986206055132e+00 8.299837708473205566e-01 -6.610238552093505859e-01 1.800000000000000000e+01
-6.077028656005858664e+01 2.172302055358887074e+01 1.126483082771301047e+00 4.900000000000000000e+01
-2.669795036315917969e+00 9.548737406730651855e-01 -6.546075940132141113e-01 1.500000000000000000e+01
-3.171960115432738814e+00 1.135101675987244096e+00 -6.548564434051513672e-01 1.300000000000000000e+01
-3.886653184890747070e+00 1.392388701438904031e+00 -6.538960933685302734e-01 9.000000000000000000e+00
-5.003991127014160156e+00 1.794644713401793990e+00 -6.527321934700012207e-01 1.100000000000000000e+01
-7.009895801544188565e+00 2.515428781509398970e+00 -6.515763401985168457e-01 2.000000000000000000e+00
-1.188881492614745916e+01 4.270863056182861328e+00 -6.620498299598693848e-01 3.000000000000000000e+00
-3.327994537353516336e+01 1.196839618682860973e+01 -6.173264980316162109e-01 7.000000000000000000e+00
-2.316618680953979048e+00 8.367754817008972168e-01 -6.599885821342468262e-01 1.800000000000000000e+01
-2.677441120147705078e+00 9.681632518768310547e-01 -6.573069691658020020e-01 1.500000000000000000e+01
-3.147670984268188032e+00 1.138819694519042969e+00 -6.506586670875549316e-01 1.200000000000000000e+01
-3.872482776641846147e+00 1.402583718299865945e+00 -6.523317098617553711e-01 8.000000000000000000e+00
-5.001428604125976562e+00 1.813454270362854004e+00 -6.532196998596191406e-01 1.100000000000000000e+01
-6.982343196868895596e+00 2.533087730407714844e+00 -6.498332023620605469e-01 2.000000000000000000e+00
-1.187383460998534979e+01 4.312336921691895419e+00 -6.620498299598693848e-01 3.000000000000000000e+00
-3.318910217285156250e+01 1.206672668457031072e+01 -6.164190173149108887e-01 7.000000000000000000e+00
-2.299166440963745117e+00 8.395557999610900879e-01 -6.558474898338317871e-01 1.900000000000000000e+01
-6.080497741699218750e+01 2.221536827087401988e+01 1.129973530769347922e+00 4.900000000000000000e+01
-2.672214984893798828e+00 9.768342971801757812e-01 -6.568570733070373535e-01 1.300000000000000000e+01
-3.151051759719849077e+00 1.152497649192810059e+00 -6.521851420402526855e-01 1.200000000000000000e+01
-3.863853216171265093e+00 1.414734244346619096e+00 -6.517059803009033203e-01 8.000000000000000000e+00
-4.991340160369873047e+00 1.829535126686095969e+00 -6.527321934700012207e-01 1.100000000000000000e+01
-6.984682083129882812e+00 2.561561346054077148e+00 -6.508790850639343262e-01 2.000000000000000000e+00
-1.185870933532715021e+01 4.353758335113525391e+00 -6.620498299598693848e-01 3.000000000000000000e+00
-3.320684051513671875e+01 1.220458030700683949e+01 -6.175359487533569336e-01 7.000000000000000000e+00
-2.303322792053223100e+00 8.506541848182678223e-01 -6.579180359840393066e-01 1.900000000000000000e+01
-2.664961338043212891e+00 9.852703809738159180e-01 -6.559572815895080566e-01 1.400000000000000000e+01
-3.144965171813964844e+00 1.163357973098755105e+00 -6.518035531044006348e-01 1.200000000000000000e+01
-3.847527503967285156e+00 1.424770593643188032e+00 -6.498287916183471680e-01 8.000000000000000000e+00
-4.990185260772705078e+00 1.849887013435363992e+00 -6.534634232521057129e-01 8.000000000000000000e+00
-6.945357799530029297e+00 2.576058387756348100e+00 -6.480901241302490234e-01 2.000000000000000000e+00
-1.184267234802245916e+01 4.397193431854248047e+00 -6.620498299598693848e-01 3.000000000000000000e+00
-3.309066009521483664e+01 1.229973220825194957e+01 -6.162095665931701660e-01 1.400000000000000000e+01
-2.305768966674805132e+00 8.607158660888671875e-01 -6.594709157943725586e-01 1.900000000000000000e+01
-6.083177947998046875e+01 2.271987152099609020e+01 1.133463978767395020e+00 4.800000000000000000e+01
-2.650552988052368164e+00 9.904739260673522949e-01 -6.532578468322753906e-01 1.100000000000000000e+01
-3.150079727172852007e+00 1.177766561508178933e+00 -6.537116169929504395e-01 1.300000000000000000e+01
-3.846230745315552202e+00 1.439577221870421919e+00 -6.504545211791992188e-01 8.000000000000000000e+00
-5.002286434173583984e+00 1.874259710311890093e+00 -6.559008359909057617e-01 3.000000000000000000e+00
-6.951248645782470703e+00 2.605881690979003906e+00 -6.494845747947692871e-01 2.000000000000000000e+00
-3.312240219116210938e+01 1.244329547882080078e+01 -6.176057457923889160e-01 1.400000000000000000e+01
-2.304557800292969194e+00 8.694411516189575195e-01 -6.599885821342468262e-01 1.800000000000000000e+01
-2.650725603103638139e+00 1.001097083091736062e+00 -6.541576385498046875e-01 1.100000000000000000e+01
-3.131257295608520952e+00 1.183203577995300071e+00 -6.506586670875549316e-01 1.200000000000000000e+01
-3.841182231903076172e+00 1.452994227409363015e+00 -6.504545211791992188e-01 8.000000000000000000e+00
-4.995713710784912109e+00 1.891709566116333008e+00 -6.559008359909057617e-01 9.000000000000000000e+00
-6.927204608917236328e+00 2.624483108520507812e+00 -6.480901241302490234e-01 2.000000000000000000e+00
-3.305259323120117188e+01 1.254890155792235973e+01 -6.171171069145202637e-01 7.000000000000000000e+00
-2.297898769378662109e+00 8.761038780212402344e-01 -6.589533090591430664e-01 1.900000000000000000e+01
-2.654497623443603960e+00 1.013123273849487083e+00 -6.559572815895080566e-01 1.000000000000000000e+01
-3.117937803268433061e+00 1.190624594688415971e+00 -6.487506031990051270e-01 1.100000000000000000e+01
-3.832396507263184038e+00 1.464982986450195090e+00 -6.498287916183471680e-01 9.000000000000000000e+00
-4.989079952239990234e+00 1.909136295318603960e+00 -6.559008359909057617e-01 1.100000000000000000e+01
-6.929165363311767578e+00 2.652921915054320845e+00 -6.491359472274780273e-01 2.000000000000000000e+00
-1.170272731781006037e+01 4.485227108001708984e+00 -6.568162441253662109e-01 3.000000000000000000e+00
-3.303472518920897727e+01 1.267422771453857067e+01 -6.176057457923889160e-01 7.000000000000000000e+00
-2.285966873168944868e+00 8.802481293678283691e-01 -6.563650965690612793e-01 1.900000000000000000e+01
-2.634758472442626953e+00 1.015612125396728960e+00 -6.519081592559814453e-01 9.000000000000000000e+00
-3.117635726928710938e+00 1.202370405197143999e+00 -6.495138406753540039e-01 1.100000000000000000e+01
-3.834888696670531782e+00 1.480529427528380904e+00 -6.510802507400512695e-01 8.000000000000000000e+00
-4.982721328735351562e+00 1.925670146942138894e+00 -6.559008359909057617e-01 9.000000000000000000e+00
-6.890596866607666016e+00 2.664388418197631836e+00 -6.463469862937927246e-01 2.000000000000000000e+00
-1.164681243896484020e+01 4.508149147033691406e+00 -6.545134782791137695e-01 3.000000000000000000e+00
-3.311557769775391336e+01 1.283138942718506037e+01 -6.199094653129577637e-01 1.400000000000000000e+01
-2.288281440734862837e+00 8.903237581253051758e-01 -6.579180359840393066e-01 1.900000000000000000e+01
-6.088171386718750000e+01 2.370007324218750000e+01 1.140375137329102007e+00 4.700000000000000000e+01
-2.623933792114257812e+00 1.021973967552185059e+00 -6.501085758209228516e-01 8.000000000000000000e+00
-3.120736837387084961e+00 1.216096997261046919e+00 -6.510403156280517578e-01 1.100000000000000000e+01
-3.818655490875244141e+00 1.489599347114562988e+00 -6.492030024528503418e-01 8.000000000000000000e+00
-4.975969314575195312e+00 1.943051338195801003e+00 -6.559008359909057617e-01 9.000000000000000000e+00
-6.890533447265625000e+00 2.692049980163574219e+00 -6.472185254096984863e-01 3.000000000000000000e+00
-1.157892322540283025e+01 4.528408050537109375e+00 -6.515826582908630371e-01 3.000000000000000000e+00
-3.299610519409179688e+01 1.291774654388427912e+01 -6.185132861137390137e-01 1.400000000000000000e+01
-2.290553331375122070e+00 9.004262089729309082e-01 -6.594709157943725586e-01 1.900000000000000000e+01
-6.079861450195313211e+01 2.391244506835937855e+01 1.140375137329102007e+00 4.700000000000000000e+01
-2.623977184295653853e+00 1.032554149627685991e+00 -6.510083675384521484e-01 7.000000000000000000e+00
-3.118299722671508789e+00 1.227702260017395020e+00 -6.514219045639038086e-01 1.000000000000000000e+01
-3.813432455062866211e+00 1.502919912338257058e+00 -6.492030024528503418e-01 9.000000000000000000e+00
-4.963616847991943359e+00 1.958223462104796919e+00 -6.551696062088012695e-01 1.100000000000000000e+01
-6.875534534454345703e+00 2.713891506195067915e+00 -6.466956138610839844e-01 3.000000000000000000e+00
-1.156304550170898082e+01 4.568798065185546875e+00 -6.515826582908630371e-01 3.000000000000000000e+00
-3.295452880859375000e+01 1.303431701660156072e+01 -6.185830831527709961e-01 7.000000000000000000e+00
-2.285600900650023970e+00 9.077032208442687988e-01 -6.589533090591430664e-01 1.700000000000000000e+01
-6.080769348144531250e+01 2.416144561767578125e+01 1.142120361328125000e+00 4.600000000000000000e+01
-2.613113403320312944e+00 1.038827657699584961e+00 -6.492087244987487793e-01 7.000000000000000000e+00
-3.106698274612427202e+00 1.235677361488342063e+00 -6.498954296112060547e-01 1.000000000000000000e+01
-3.808163166046143022e+00 1.516222119331360085e+00 -6.492030024528503418e-01 8.000000000000000000e+00
-4.934622764587402344e+00 1.966718316078186035e+00 -6.522447466850280762e-01 1.100000000000000000e+01
-6.873422145843505859e+00 2.740826845169066939e+00 -6.473928689956665039e-01 2.000000000000000000e+00
-1.148024940490723012e+01 4.582477569580078125e+00 -6.478144526481628418e-01 3.000000000000000000e+00
-3.293854141235352273e+01 1.316114139556884943e+01 -6.191415786743164062e-01 1.400000000000000000e+01
-2.273612976074219194e+00 9.116826057434082031e-01 -6.563650965690612793e-01 1.900000000000000000e+01
-6.082003021240233664e+01 2.440018844604491832e+01 1.143865585327147993e+00 4.600000000000000000e+01
-2.618696451187133789e+00 1.051116824150085005e+00 -6.514582633972167969e-01 9.000000000000000000e+00
-3.089830636978148970e+00 1.240851283073425071e+00 -6.472241282463073730e-01 1.100000000000000000e+01
-3.803114175796508789e+00 1.528842091560363992e+00 -6.492030024528503418e-01 8.000000000000000000e+00
-4.926231861114501953e+00 1.982330322265625000e+00 -6.520009636878967285e-01 1.100000000000000000e+01
-6.849509716033936435e+00 2.757652044296265093e+00 -6.459983587265014648e-01 2.000000000000000000e+00
-1.146498966217041016e+01 4.620522499084472656e+00 -6.478144526481628418e-01 3.000000000000000000e+00
-3.289842605590820312e+01 1.327179431915283025e+01 -6.192113757133483887e-01 1.400000000000000000e+01
-2.265045166015625000e+00 9.174376726150512695e-01 -6.548121571540832520e-01 1.900000000000000000e+01
-6.091981887817382812e+01 2.468744468688964844e+01 1.147356152534485085e+00 4.600000000000000000e+01
-2.629459142684936968e+00 1.066109180450439009e+00 -6.550574898719787598e-01 1.400000000000000000e+01
-3.085480451583861861e+00 1.251629233360290971e+00 -6.472241282463073730e-01 1.100000000000000000e+01
-3.792263507843018022e+00 1.539878606796265093e+00 -6.482644081115722656e-01 9.000000000000000000e+00
-4.919282436370849609e+00 1.999513983726501021e+00 -6.520009636878967285e-01 1.100000000000000000e+01
-6.795547485351563388e+00 2.763531446456909180e+00 -6.418148875236511230e-01 4.000000000000000000e+00
-1.144879150390625000e+01 4.660514354705811435e+00 -6.478144526481628418e-01 3.000000000000000000e+00
-3.288893508911132812e+01 1.340164184570313033e+01 -6.199094653129577637e-01 1.400000000000000000e+01
-2.258252859115601030e+00 9.238756299018859863e-01 -6.537768840789794922e-01 1.700000000000000000e+01
-6.083327102661132812e+01 2.489994430541991832e+01 1.147356152534485085e+00 4.600000000000000000e+01
-2.616704702377318892e+00 1.071588635444640891e+00 -6.528079509735107422e-01 1.500000000000000000e+01
-3.079275846481322798e+00 1.261647582054137962e+00 -6.468424797058105469e-01 1.000000000000000000e+01
-3.775899410247803178e+00 1.548609256744384988e+00 -6.463872194290161133e-01 9.000000000000000000e+00
-4.912272930145263672e+00 2.016673326492310014e+00 -6.520009636878967285e-01 1.100000000000000000e+01
-6.793231487274169922e+00 2.790263414382935014e+00 -6.425121426582336426e-01 3.000000000000000000e+00
-1.131423091888427912e+01 4.651843070983886719e+00 -6.411154866218566895e-01 3.000000000000000000e+00
-3.287894058227539062e+01 1.353158473968506037e+01 -6.206075549125671387e-01 1.400000000000000000e+01
-2.265726804733275923e+00 9.361791014671325684e-01 -6.568827629089355469e-01 1.900000000000000000e+01
-6.083838272094727273e+01 2.515033721923828125e+01 1.149101376533508079e+00 4.500000000000000000e+01
-2.605745077133179155e+00 1.077736854553223100e+00 -6.510083675384521484e-01 1.600000000000000000e+01
-3.089365720748900923e+00 1.278393983840941939e+00 -6.498954296112060547e-01 1.200000000000000000e+01
-3.766820907592772993e+00 1.560268282890320046e+00 -6.457614898681640625e-01 9.000000000000000000e+00
-4.897868633270263672e+00 2.030766725540161133e+00 -6.510260105133056641e-01 9.000000000000000000e+00
-6.779769420623779297e+00 2.812432289123535156e+00 -6.421635150909423828e-01 2.000000000000000000e+00
-1.129792404174805043e+01 4.691308498382568359e+00 -6.411154866218566895e-01 3.000000000000000000e+00
-3.286104965209960938e+01 1.365855216979979936e+01 -6.211660504341125488e-01 1.400000000000000000e+01
-2.264062881469727007e+00 9.452214241027832031e-01 -6.574003696441650391e-01 1.900000000000000000e+01
-2.603575468063354048e+00 1.088031530380249023e+00 -6.514582633972167969e-01 1.400000000000000000e+01
-3.068357706069945845e+00 1.282892584800719993e+00 -6.464608907699584961e-01 1.200000000000000000e+01
-3.761076927185059038e+00 1.574063897132873979e+00 -6.457614898681640625e-01 9.000000000000000000e+00
-4.873914241790770596e+00 2.041801691055297852e+00 -6.488323807716369629e-01 1.100000000000000000e+01
-6.784115791320800781e+00 2.843423843383789062e+00 -6.435580253601074219e-01 2.000000000000000000e+00
-1.128065395355224965e+01 4.732686042785645419e+00 -6.411154866218566895e-01 3.000000000000000000e+00
-3.282920455932617188e+01 1.378664493560791016e+01 -6.215150952339172363e-01 1.400000000000000000e+01
-2.248288869857788086e+00 9.478653073310852051e-01 -6.537768840789794922e-01 1.900000000000000000e+01
-2.597966194152832031e+00 1.096355438232422097e+00 -6.510083675384521484e-01 1.500000000000000000e+01
-3.058434963226317915e+00 1.291304469108581987e+00 -6.453160047531127930e-01 1.200000000000000000e+01
-3.762837648391724077e+00 1.590258836746216042e+00 -6.470129489898681641e-01 1.000000000000000000e+01
-4.855787754058837891e+00 2.054161787033081055e+00 -6.473699808120727539e-01 1.100000000000000000e+01
-6.752131462097167969e+00 2.857768535614014116e+00 -6.414662599563598633e-01 3.000000000000000000e+00
-3.279560852050781250e+01 1.390740108489990057e+01 -6.217943429946899414e-01 1.400000000000000000e+01
-2.239800453186035156e+00 9.530465006828308105e-01 -6.522240042686462402e-01 1.900000000000000000e+01
-2.597902059555054155e+00 1.106491804122925027e+00 -6.519081592559814453e-01 1.500000000000000000e+01
-3.055942058563231978e+00 1.302209138870239036e+00 -6.456976532936096191e-01 1.200000000000000000e+01
-3.750275373458861861e+00 1.599628090858459029e+00 -6.457614898681640625e-01 9.000000000000000000e+00
-4.856251716613770419e+00 2.073370933532714844e+00 -6.483449339866638184e-01 1.100000000000000000e+01
-6.740785598754882812e+00 2.879361152648925781e+00 -6.412919759750366211e-01 3.000000000000000000e+00
-1.124817848205566051e+01 4.809360980987548828e+00 -6.411154866218566895e-01 3.000000000000000000e+00
-3.278975296020507812e+01 1.403338909149169922e+01 -6.225622296333312988e-01 1.400000000000000000e+01
-2.247109889984130859e+00 9.654346108436584473e-01 -6.553298234939575195e-01 1.900000000000000000e+01
-2.592233657836914062e+00 1.114783525466918945e+00 -6.514582633972167969e-01 1.300000000000000000e+01
-3.058591604232788086e+00 1.315972089767456055e+00 -6.472241282463073730e-01 1.100000000000000000e+01
-3.737411737442017046e+00 1.609583854675292969e+00 -6.445099711418151855e-01 9.000000000000000000e+00
-4.859922409057617188e+00 2.095024585723876953e+00 -6.498073339462280273e-01 1.100000000000000000e+01
-6.732522964477539062e+00 2.903662443161011186e+00 -6.414662599563598633e-01 3.000000000000000000e+00
-1.123132228851318004e+01 4.848595142364501953e+00 -6.411154866218566895e-01 3.000000000000000000e+00
-3.279196548461914062e+01 1.416997051239014027e+01 -6.235395669937133789e-01 7.000000000000000000e+00
-2.234864711761475053e+00 9.694287180900573730e-01 -6.527416110038757324e-01 1.700000000000000000e+01
-6.084878540039063211e+01 2.640730857849121094e+01 1.157827496528625044e+00 4.400000000000000000e+01
-2.566876411437987837e+00 1.114511847496032937e+00 -6.460594534873962402e-01 1.400000000000000000e+01
-3.053979396820067915e+00 1.326640605926513894e+00 -6.472241282463073730e-01 1.100000000000000000e+01
-3.731770515441894975e+00 1.622619986534119096e+00 -6.445099711418151855e-01 9.000000000000000000e+00
-6.098950958251953125e+01 2.653165245056151988e+01 8.166464805603027344e+00 6.300000000000000000e+01
-4.838018417358398438e+00 2.105638742446898970e+00 -6.478574275970458984e-01 1.100000000000000000e+01
-6.704079151153563565e+00 2.919191360473632812e+00 -6.397231221199035645e-01 2.000000000000000000e+00
-1.121432876586914062e+01 4.887770175933837891e+00 -6.411154866218566895e-01 3.000000000000000000e+00
-3.273497390747070312e+01 1.428115177154541016e+01 -6.233999729156494141e-01 1.400000000000000000e+01
-2.242084741592406782e+00 9.818736910820007324e-01 -6.558474898338317871e-01 1.900000000000000000e+01
-6.093939590454102273e+01 2.669979858398437855e+01 1.161318063735961914e+00 4.300000000000000000e+01
-2.571894407272338867e+00 1.127376914024353027e+00 -6.483089327812194824e-01 1.500000000000000000e+01
-3.036744117736815962e+00 1.331773400306702104e+00 -6.445527672767639160e-01 1.100000000000000000e+01
-3.727892637252808061e+00 1.636430382728577104e+00 -6.448228359222412109e-01 1.000000000000000000e+01
-6.089652633666992188e+01 2.674438285827637074e+01 8.166464805603027344e+00 6.300000000000000000e+01
-4.817917346954345703e+00 2.116923809051514116e+00 -6.461512446403503418e-01 1.100000000000000000e+01
-6.682904720306395596e+00 2.937764406204224077e+00 -6.386772990226745605e-01 3.000000000000000000e+00
-1.108020019531250000e+01 4.875404834747313565e+00 -6.344164609909057617e-01 3.000000000000000000e+00
-3.268492507934570312e+01 1.439533042907715021e+01 -6.233999729156494141e-01 7.000000000000000000e+00
-2.231576204299927202e+00 9.865695238113403320e-01 -6.537768840789794922e-01 1.900000000000000000e+01
-6.084582519531250000e+01 2.691235351562500000e+01 1.161318063735961914e+00 4.300000000000000000e+01
-2.571507453918457031e+00 1.137924790382385032e+00 -6.492087244987487793e-01 1.600000000000000000e+01
-3.037462472915648970e+00 1.344749808311461958e+00 -6.456976532936096191e-01 1.200000000000000000e+01
-3.720351696014403853e+00 1.648632884025573953e+00 -6.445099711418151855e-01 9.000000000000000000e+00
-6.098427200317382812e+01 2.703724479675292969e+01 8.190838813781738281e+00 6.300000000000000000e+01
-4.812313079833984375e+00 2.134533643722534180e+00 -6.463949680328369141e-01 1.100000000000000000e+01
-6.687178134918212891e+00 2.967539548873900923e+00 -6.400717496871948242e-01 2.000000000000000000e+00
-1.106311416625976918e+01 4.914052009582520419e+00 -6.344164609909057617e-01 3.000000000000000000e+00
-3.273314666748046875e+01 1.455320358276367010e+01 -6.252847909927368164e-01 7.000000000000000000e+00
-2.219298124313354048e+00 9.904167056083679199e-01 -6.511887311935424805e-01 1.900000000000000000e+01
-2.569298982620238814e+00 1.147688984870911089e+00 -6.496586203575134277e-01 1.400000000000000000e+01
-3.029165029525756836e+00 1.353742241859436035e+00 -6.449344158172607422e-01 1.100000000000000000e+01
-3.710967779159545898e+00 1.659996151924133079e+00 -6.438842415809631348e-01 9.000000000000000000e+00
-4.784903049468994141e+00 2.142395496368408203e+00 -6.437138915061950684e-01 1.100000000000000000e+01
-6.647686004638671875e+00 2.977831840515137163e+00 -6.372827887535095215e-01 3.000000000000000000e+00
-1.104589366912841975e+01 4.952639579772949219e+00 -6.344164609909057617e-01 3.000000000000000000e+00
-3.277336502075195312e+01 1.470831394195556996e+01 -6.270300745964050293e-01 7.000000000000000000e+00
-2.214066028594971147e+00 9.973639845848083496e-01 -6.506710648536682129e-01 1.800000000000000000e+01
-2.567053794860839844e+00 1.157451510429382102e+00 -6.501085758209228516e-01 1.600000000000000000e+01
-3.028000354766846147e+00 1.365922331809998003e+00 -6.456976532936096191e-01 1.100000000000000000e+01
-3.690747737884521040e+00 1.666436553001404031e+00 -6.413813233375549316e-01 9.000000000000000000e+00
-4.786440372467041016e+00 2.163172483444213867e+00 -6.449325680732727051e-01 1.100000000000000000e+01
-6.619096755981445312e+00 2.992810010910034180e+00 -6.355396509170532227e-01 2.000000000000000000e+00
-1.096303272247313920e+01 4.961521148681640625e+00 -6.306482553482055664e-01 3.000000000000000000e+00
-3.272546768188477273e+01 1.482427501678466975e+01 -6.270998716354370117e-01 7.000000000000000000e+00
-2.224639892578125000e+00 1.011483192443848100e+00 -6.548121571540832520e-01 1.800000000000000000e+01
-2.552355766296387163e+00 1.161561846733093040e+00 -6.474091410636901855e-01 1.500000000000000000e+01
-3.025000810623168945e+00 1.377297282218933105e+00 -6.460792422294616699e-01 1.200000000000000000e+01
-3.692098379135131836e+00 1.682586193084717019e+00 -6.426327824592590332e-01 1.000000000000000000e+01
-4.757187366485595703e+00 2.169981002807617188e+00 -6.420077085494995117e-01 9.000000000000000000e+00
-6.608609676361083984e+00 3.015896797180175781e+00 -6.355396509170532227e-01 2.000000000000000000e+00
-1.094564723968506037e+01 4.999759197235107422e+00 -6.306482553482055664e-01 3.000000000000000000e+00
-3.272444534301757812e+01 1.496169948577881037e+01 -6.280772089958190918e-01 7.000000000000000000e+00
-2.221451282501221147e+00 1.018467068672179954e+00 -6.548121571540832520e-01 1.900000000000000000e+01
-6.083734512329102273e+01 2.790490341186523082e+01 1.168298959732056108e+00 4.200000000000000000e+01
-2.543380498886107954e+00 1.167136311531066895e+00 -6.460594534873962402e-01 1.400000000000000000e+01
-3.011738061904906782e+00 1.382698059082031028e+00 -6.441711783409118652e-01 1.200000000000000000e+01
-3.679614543914794922e+00 1.690877676010132058e+00 -6.413813233375549316e-01 9.000000000000000000e+00
-4.746739864349365234e+00 2.183256387710570845e+00 -6.415202021598815918e-01 1.100000000000000000e+01
-6.599102020263671875e+00 3.036643505096435991e+00 -6.355396509170532227e-01 2.000000000000000000e+00
-1.092988586425781072e+01 5.034121036529541016e+00 -6.306482553482055664e-01 3.000000000000000000e+00
-3.276081466674804688e+01 1.510294246673583984e+01 -6.296828389167785645e-01 7.000000000000000000e+00
-2.203856468200684038e+00 1.019725322723388894e+00 -6.506710648536682129e-01 1.900000000000000000e+01
-2.549900770187377930e+00 1.180920958518981934e+00 -6.487588286399841309e-01 1.400000000000000000e+01
-2.996205091476439986e+00 1.388250470161437988e+00 -6.418814659118652344e-01 1.100000000000000000e+01
-3.677273988723754883e+00 1.705373764038085938e+00 -6.420070528984069824e-01 9.000000000000000000e+00
-4.739089965820313388e+00 2.199812412261962891e+00 -6.415202021598815918e-01 1.300000000000000000e+01
-6.574005603790283203e+00 3.052946567535399947e+00 -6.341452002525329590e-01 2.000000000000000000e+00
-1.091224670410156072e+01 5.072242736816406250e+00 -6.306482553482055664e-01 3.000000000000000000e+00
-3.274415969848632812e+01 1.523407745361327947e+01 -6.303809285163879395e-01 7.000000000000000000e+00
-2.196782827377318892e+00 1.025777339935302956e+00 -6.496357917785644531e-01 2.000000000000000000e+01
-2.545763015747069868e+00 1.189814567565917969e+00 -6.487588286399841309e-01 1.400000000000000000e+01
-2.996676206588745117e+00 1.401195406913757102e+00 -6.430262923240661621e-01 1.200000000000000000e+01
-3.667720317840576172e+00 1.716524839401244895e+00 -6.413813233375549316e-01 9.000000000000000000e+00
-4.729584693908691406e+00 2.215499401092528853e+00 -6.412764787673950195e-01 1.100000000000000000e+01
-6.563309192657470703e+00 3.075875520706177202e+00 -6.341452002525329590e-01 2.000000000000000000e+00
-1.089447498321533025e+01 5.110302925109863281e+00 -6.306482553482055664e-01 3.000000000000000000e+00
-2.198431491851807085e+00 1.035909652709960938e+00 -6.511887311935424805e-01 1.900000000000000000e+01
-2.532781600952147993e+00 1.194537281990051047e+00 -6.465093493461608887e-01 1.300000000000000000e+01
-2.993542432785034180e+00 1.412485003471374956e+00 -6.434079408645629883e-01 1.100000000000000000e+01
-3.643844127655028853e+00 1.720881342887877974e+00 -6.382526159286499023e-01 9.000000000000000000e+00
-4.721822261810302734e+00 2.231995105743408203e+00 -6.412764787673950195e-01 1.100000000000000000e+01
-6.534520626068115234e+00 3.090249300003052202e+00 -6.324020624160766602e-01 2.000000000000000000e+00
-2.200036048889160156e+00 1.046065926551819070e+00 -6.527416110038757324e-01 1.800000000000000000e+01
-2.523317575454711914e+00 1.200858831405640093e+00 -6.451596021652221680e-01 1.400000000000000000e+01
-2.997456789016724077e+00 1.427145600318908913e+00 -6.453160047531127930e-01 1.100000000000000000e+01
-3.652081012725830078e+00 1.740388631820678933e+00 -6.407555937767028809e-01 9.000000000000000000e+00
-4.705043792724609375e+00 2.244190692901610884e+00 -6.400578022003173828e-01 1.100000000000000000e+01
-6.527290344238281250e+00 3.114756345748900923e+00 -6.327506899833679199e-01 2.000000000000000000e+00
-1.076842117309569957e+01 5.143196105957031250e+00 -6.254146695137023926e-01 3.000000000000000000e+00
-2.198112964630126953e+00 1.054574728012084961e+00 -6.532592773437500000e-01 1.900000000000000000e+01
-2.522623777389525923e+00 1.211346626281738059e+00 -6.460594534873962402e-01 1.400000000000000000e+01
-2.976530075073242188e+00 1.429948687553405984e+00 -6.418814659118652344e-01 1.200000000000000000e+01
-3.640642881393433061e+00 1.750558137893676980e+00 -6.398169398307800293e-01 1.000000000000000000e+01
-4.691815376281738281e+00 2.258018255233765093e+00 -6.393265724182128906e-01 1.000000000000000000e+01
-6.523558616638183594e+00 3.140979051589965820e+00 -6.334479451179504395e-01 2.000000000000000000e+00
-1.066044044494629084e+01 5.137400150299072266e+00 -6.201810836791992188e-01 3.000000000000000000e+00
-2.185539484024047852e+00 1.058414101600646973e+00 -6.506710648536682129e-01 1.800000000000000000e+01
-2.525181293487548828e+00 1.223984360694885032e+00 -6.478590369224548340e-01 1.400000000000000000e+01
-2.974802017211914062e+00 1.442561864852905051e+00 -6.426447033882141113e-01 1.100000000000000000e+01
-3.628870964050292969e+00 1.761302471160888894e+00 -6.388783454895019531e-01 1.000000000000000000e+01
-4.681722164154052734e+00 2.274332046508789062e+00 -6.390828490257263184e-01 9.000000000000000000e+00
-6.479747295379638672e+00 3.149191856384276900e+00 -6.303103566169738770e-01 2.000000000000000000e+00
-1.064153957366943004e+01 5.176437854766845703e+00 -6.201810836791992188e-01 3.000000000000000000e+00
-2.178360223770142046e+00 1.064340353012084961e+00 -6.496357917785644531e-01 1.900000000000000000e+01
-2.526145458221435991e+00 1.235359787940979004e+00 -6.492087244987487793e-01 1.600000000000000000e+01
-2.959167242050170898e+00 1.447760343551635964e+00 -6.403549909591674805e-01 1.200000000000000000e+01
-3.628022909164429155e+00 1.776565074920654075e+00 -6.398169398307800293e-01 1.000000000000000000e+01
-4.668407440185546875e+00 2.288039445877075195e+00 -6.383516192436218262e-01 1.000000000000000000e+01
-6.472292900085449219e+00 3.173545598983765093e+00 -6.306589841842651367e-01 2.000000000000000000e+00
-1.059830379486083984e+01 5.201233386993408203e+00 -6.187157034873962402e-01 3.000000000000000000e+00
-2.174631595611571822e+00 1.071937799453734907e+00 -6.496357917785644531e-01 1.700000000000000000e+01
-2.516574859619141069e+00 1.241583466529845969e+00 -6.478590369224548340e-01 1.300000000000000000e+01
-2.954095602035522017e+00 1.458081007003783958e+00 -6.403549909591674805e-01 1.100000000000000000e+01
