-1.248891592025757058e+00 -2.984108448028564009e+00 -7.468374967575073242e-01 1.100000000000000000e+01
-1.497571229934691939e+00 -3.576551914215087891e+00 -7.536955475807189941e-01 9.000000000000000000e+00
-1.902845978736876997e+00 -4.539994239807128906e+00 -7.796693444252014160e-01 1.000000000000000000e+01
-2.263226509094237837e+00 -5.394542694091796875e+00 -7.182978987693786621e-01 2.600000000000000000e+01
-4.150168418884277344e+00 -9.887349128723144531e+00 -9.381443858146667480e-01 2.000000000000000000e+00
-1.048679447174072088e+01 -2.495928955078125000e+01 -1.418827772140502930e+00 1.300000000000000000e+01
-1.068518042564392090e+00 -2.530768632888793945e+00 -7.360813617706298828e-01 1.200000000000000000e+01
-1.262334942817687988e+00 -2.986910820007324219e+00 -7.486370801925659180e-01 1.100000000000000000e+01
-1.513104915618896040e+00 -3.578535556793212891e+00 -7.552220225334167480e-01 8.000000000000000000e+00
-1.910982608795166016e+00 -4.515132904052734375e+00 -7.765406966209411621e-01 1.300000000000000000e+01
-2.285915136337279829e+00 -5.395748615264892578e+00 -7.195165753364562988e-01 1.500000000000000000e+01
-4.184656620025634766e+00 -9.872802734375000000e+00 -9.381443858146667480e-01 2.000000000000000000e+00
-1.061129760742188033e+01 -2.501078605651855113e+01 -1.423851966857909934e+00 1.300000000000000000e+01
-1.079933762550354004e+00 -2.534320116043090820e+00 -7.381519079208374023e-01 1.300000000000000000e+01
-1.266116499900818093e+00 -2.968368530273437944e+00 -7.450379133224487305e-01 1.200000000000000000e+01
-1.528045654296875000e+00 -3.580721139907836914e+00 -7.567484974861145020e-01 8.000000000000000000e+00
-1.924392819404602051e+00 -4.505137920379638672e+00 -7.759149670600891113e-01 1.600000000000000000e+01
-2.298332452774047852e+00 -5.375361919403076172e+00 -7.178104519844055176e-01 2.200000000000000000e+01
-4.217372894287109375e+00 -9.858871459960937500e+00 -9.381443858146667480e-01 2.000000000000000000e+00
-1.068788909912109020e+01 -2.496077156066894887e+01 -1.423014640808105025e+00 1.300000000000000000e+01
-1.089537143707274947e+00 -2.532309770584106001e+00 -7.386695742607116699e-01 1.200000000000000000e+01
-1.274928689002990945e+00 -2.960351228713988814e+00 -7.441380620002746582e-01 1.100000000000000000e+01
-1.538204789161681907e+00 -3.569956541061400923e+00 -7.556036114692687988e-01 9.000000000000000000e+00
-1.944800853729248047e+00 -4.509276390075683594e+00 -7.777921557426452637e-01 1.300000000000000000e+01
-2.307640552520751953e+00 -5.345436096191406250e+00 -7.148855924606323242e-01 3.000000000000000000e+01
-4.204361438751220703e+00 -9.734345436096191406e+00 -9.276857376098632812e-01 2.000000000000000000e+00
-1.081775188446044922e+01 -2.502231025695801137e+01 -1.428666949272155984e+00 1.300000000000000000e+01
-1.095620393753051980e+00 -2.523366689682006836e+00 -7.371166348457336426e-01 1.100000000000000000e+01
-1.285515308380126953e+00 -2.957894325256348100e+00 -7.445880174636840820e-01 1.200000000000000000e+01
-1.543771982192992942e+00 -3.550432682037353960e+00 -7.525506615638732910e-01 9.000000000000000000e+00
-1.955013513565063032e+00 -4.491934776306152344e+00 -7.759149670600891113e-01 3.000000000000000000e+01
-2.322182655334473100e+00 -5.330474853515625000e+00 -7.139106392860412598e-01 2.600000000000000000e+01
-4.204776287078857422e+00 -9.647292137145996094e+00 -9.207132458686828613e-01 2.000000000000000000e+00
-1.089587688446044922e+01 -2.497531509399414062e+01 -1.428038954734802024e+00 1.300000000000000000e+01
-1.102870702743530051e+00 -2.515988111495972124e+00 -7.360813617706298828e-01 1.400000000000000000e+01
-1.299747347831726074e+00 -2.962311744689940962e+00 -7.468374967575073242e-01 1.100000000000000000e+01
-1.556155920028686968e+00 -3.545022249221802202e+00 -7.525506615638732910e-01 9.000000000000000000e+00
-1.969092130661010964e+00 -4.481466293334960938e+00 -7.752892374992370605e-01 2.400000000000000000e+01
-2.345570564270019975e+00 -5.333239078521729404e+00 -7.153730392456054688e-01 2.400000000000000000e+01
-4.246450424194335938e+00 -9.650792121887207031e+00 -9.224563837051391602e-01 2.000000000000000000e+00
-1.098299121856688920e+01 -2.493712997436523082e+01 -1.428038954734802024e+00 1.300000000000000000e+01
-1.113209962844849077e+00 -2.515656232833861861e+00 -7.371166348457336426e-01 1.400000000000000000e+01
-1.310079813003540039e+00 -2.957756757736206055e+00 -7.468374967575073242e-01 1.100000000000000000e+01
-1.574884057044982910e+00 -3.553927898406981978e+00 -7.556036114692687988e-01 9.000000000000000000e+00
-1.978315830230712891e+00 -4.460119724273681641e+00 -7.727862596511840820e-01 2.400000000000000000e+01
-2.366589069366455078e+00 -5.330461978912354404e+00 -7.161042690277099609e-01 2.200000000000000000e+01
-1.108133029937743963e+01 -2.492419052124023082e+01 -1.429504275321960005e+00 1.300000000000000000e+01
-1.121984481811522993e+00 -2.511755228042602983e+00 -7.371166348457336426e-01 1.200000000000000000e+01
-1.314032912254333052e+00 -2.938933610916138139e+00 -7.432382702827453613e-01 1.100000000000000000e+01
-1.587280035018920898e+00 -3.548408746719359907e+00 -7.556036114692687988e-01 9.000000000000000000e+00
-1.997101545333862083e+00 -4.460398674011229581e+00 -7.740377187728881836e-01 1.600000000000000000e+01
-2.371380329132080078e+00 -5.291373252868652344e+00 -7.119607329368591309e-01 1.600000000000000000e+01
-4.289267063140869141e+00 -9.566370964050292969e+00 -9.172270298004150391e-01 2.000000000000000000e+00
-9.992313385009765625e+00 -2.226507759094237926e+01 -1.278986096382140891e+00 1.000000000000000000e+01
-1.136388659477234109e+00 -2.517993450164794922e+00 -7.402224540710449219e-01 1.200000000000000000e+01
-1.328516960144042969e+00 -2.940970182418822798e+00 -7.450379133224487305e-01 1.100000000000000000e+01
-1.596850514411926047e+00 -3.533342838287353960e+00 -7.536955475807189941e-01 9.000000000000000000e+00
-2.015027523040771040e+00 -4.454497337341308594e+00 -7.743505835533142090e-01 1.500000000000000000e+01
-2.392498970031737837e+00 -5.284037113189697266e+00 -7.122044563293457031e-01 1.800000000000000000e+01
-4.306237220764160156e+00 -9.506274223327636719e+00 -9.130435585975646973e-01 2.000000000000000000e+00
-1.141167044639586958e+00 -2.505221128463745117e+00 -7.376343011856079102e-01 1.400000000000000000e+01
-1.340391635894774947e+00 -2.939861059188843218e+00 -7.459377050399780273e-01 1.100000000000000000e+01
-1.605915307998657005e+00 -3.520602464675902876e+00 -7.521690726280212402e-01 9.000000000000000000e+00
-2.037127733230590820e+00 -4.461812019348145419e+00 -7.768535614013671875e-01 1.600000000000000000e+01
-2.408453941345214844e+00 -5.270236968994140625e+00 -7.114732265472412109e-01 1.600000000000000000e+01
-4.321167945861816406e+00 -9.451320648193359375e+00 -9.092087149620056152e-01 2.000000000000000000e+00
-1.147419095039367898e+00 -2.498112678527832031e+00 -7.365990281105041504e-01 1.300000000000000000e+01
-1.351248860359191895e+00 -2.939176797866820845e+00 -7.468374967575073242e-01 1.100000000000000000e+01
-1.622710347175597922e+00 -3.528025388717650923e+00 -7.548403739929199219e-01 1.100000000000000000e+01
-2.046178579330443892e+00 -4.444623947143554688e+00 -7.749763131141662598e-01 1.500000000000000000e+01
-2.412537336349486861e+00 -5.235601425170898438e+00 -7.078171372413635254e-01 1.600000000000000000e+01
-4.072238445281982422e+00 -8.833368301391601562e+00 -8.509886860847473145e-01 1.000000000000000000e+00
-1.154507279396056907e+00 -2.490586757659912109e+00 -7.355637550354003906e-01 1.200000000000000000e+01
-1.361500263214111106e+00 -2.934442281723022017e+00 -7.468374967575073242e-01 1.100000000000000000e+01
-1.631709218025207964e+00 -3.515216588973999023e+00 -7.533138990402221680e-01 1.000000000000000000e+01
-2.060016155242919922e+00 -4.433871269226074219e+00 -7.743505835533142090e-01 1.800000000000000000e+01
-1.382374191284180043e+01 -2.973991775512694957e+01 4.026806831359863281e+00 1.600000000000000000e+01
-2.439168930053710938e+00 -5.245148181915283203e+00 -7.102545499801635742e-01 1.800000000000000000e+01
-1.168105483055114968e+00 -2.497040748596190962e+00 -7.386695742607116699e-01 1.300000000000000000e+01
-1.363471627235413042e+00 -2.912023067474364790e+00 -7.423384785652160645e-01 1.100000000000000000e+01
-1.652297735214232954e+00 -3.527277946472167969e+00 -7.571300864219665527e-01 1.000000000000000000e+01
-2.078835010528564009e+00 -4.433807849884033203e+00 -7.756021022796630859e-01 1.600000000000000000e+01
-1.409607315063476918e+01 -3.005092239379883168e+01 4.075554370880126953e+00 1.700000000000000000e+01
-2.448186397552489790e+00 -5.216834068298339844e+00 -7.075734138488769531e-01 2.000000000000000000e+01
-4.387830734252929688e+00 -9.345775604248046875e+00 -9.032821059226989746e-01 2.000000000000000000e+00
-1.175989985466002974e+00 -2.491201162338256836e+00 -7.381519079208374023e-01 1.300000000000000000e+01
-1.375293135643004927e+00 -2.910769939422606978e+00 -7.432382702827453613e-01 1.100000000000000000e+01
-1.657049059867859109e+00 -3.505514383316040039e+00 -7.536955475807189941e-01 9.000000000000000000e+00
-2.104436874389647993e+00 -4.447951316833496094e+00 -7.793564796447753906e-01 1.600000000000000000e+01
-2.435796022415161133e+00 -5.143669128417968750e+00 -6.987988352775573730e-01 2.100000000000000000e+01
-4.398247718811035156e+00 -9.283588409423828125e+00 -8.987500071525573730e-01 2.000000000000000000e+00
-1.183017134666443093e+00 -2.483592748641968218e+00 -7.371166348457336426e-01 1.500000000000000000e+01
-1.385445237159729004e+00 -2.905951499938964844e+00 -7.432382702827453613e-01 1.200000000000000000e+01
-1.670965909957885964e+00 -3.503252983093262163e+00 -7.544587850570678711e-01 9.000000000000000000e+00
-2.120801448822021040e+00 -4.442361354827880859e+00 -7.796693444252014160e-01 1.500000000000000000e+01
-1.411217021942139027e+01 -2.954695510864258168e+01 4.020469665527343750e+00 1.600000000000000000e+01
-2.469997167587279829e+00 -5.169166564941406250e+00 -7.034298777580261230e-01 1.600000000000000000e+01
-1.190005660057068093e+00 -2.475965738296508789e+00 -7.360813617706298828e-01 1.400000000000000000e+01
-1.400649189949036089e+00 -2.911634445190430132e+00 -7.459377050399780273e-01 1.200000000000000000e+01
-1.682332992553710938e+00 -3.495629787445067915e+00 -7.540771365165710449e-01 1.000000000000000000e+01
-2.125150918960570845e+00 -4.411795616149902344e+00 -7.756021022796630859e-01 1.300000000000000000e+01
-1.411353111267090021e+01 -2.928649902343750000e+01 3.991708517074584961e+00 1.600000000000000000e+01
-2.491474390029906782e+00 -5.167665958404541016e+00 -7.044048309326171875e-01 2.000000000000000000e+01
-1.202877998352051003e+00 -2.478330135345458984e+00 -7.381519079208374023e-01 1.500000000000000000e+01
-1.409264087677001953e+00 -2.900976181030272993e+00 -7.445880174636840820e-01 1.200000000000000000e+01
-1.419726943969726918e+01 -2.921216773986816051e+01 1.702174663543700950e+00 1.700000000000000000e+01
-1.696601033210753950e+00 -3.490910053253173828e+00 -7.544587850570678711e-01 1.100000000000000000e+01
-2.144667387008666992e+00 -4.408932209014892578e+00 -7.765406966209411621e-01 1.300000000000000000e+01
-1.420155620574950994e+01 -2.918211174011230113e+01 3.984883785247803178e+00 1.600000000000000000e+01
-2.525201797485352007e+00 -5.186617851257324219e+00 -7.083046436309814453e-01 2.200000000000000000e+01
-4.433883666992188388e+00 -9.102902412414550781e+00 -8.858509659767150879e-01 1.000000000000000000e+00
-1.218229103088379084e+01 -2.498846626281737926e+01 -1.456928372383117898e+00 1.300000000000000000e+01
-1.209822416305541992e+00 -2.470646142959595171e+00 -7.371166348457336426e-01 1.400000000000000000e+01
-1.419381856918334961e+00 -2.896039247512816939e+00 -7.445880174636840820e-01 1.300000000000000000e+01
-1.713962197303771973e+00 -3.495543003082274947e+00 -7.567484974861145020e-01 1.200000000000000000e+01
-2.159174203872681108e+00 -4.399645805358886719e+00 -7.762278318405151367e-01 1.200000000000000000e+01
-2.519660949707030806e+00 -5.129664421081542969e+00 -7.017236948013305664e-01 2.000000000000000000e+01
-1.438371372222900035e+01 -2.927024269104003906e+01 5.165465831756591797e+00 1.300000000000000000e+01
-4.479691028594970703e+00 -9.115980148315429688e+00 -8.886399269104003906e-01 1.000000000000000000e+00
-1.221302700042724965e+01 -2.483108711242676137e+01 -1.450229406356811968e+00 1.300000000000000000e+01
-1.220143318176269975e+00 -2.472030162811278853e+00 -7.386695742607116699e-01 1.200000000000000000e+01
-1.420704841613769975e+00 -2.875841379165648970e+00 -7.405388951301574707e-01 1.200000000000000000e+01
-1.717976331710814986e+00 -3.476061105728148970e+00 -7.536955475807189941e-01 1.100000000000000000e+01
-2.173861265182495117e+00 -4.394611358642578125e+00 -7.765406966209411621e-01 1.300000000000000000e+01
-2.563948869705200195e+00 -5.178650856018066406e+00 -7.095233201980590820e-01 2.000000000000000000e+01
-1.437408542633056996e+01 -2.903270530700683949e+01 5.131050586700438565e+00 1.200000000000000000e+01
-4.504770278930664062e+00 -9.094720840454101562e+00 -8.879427313804626465e-01 1.000000000000000000e+00
-1.229629898071289062e+01 -2.480333328247069957e+01 -1.450857400894165039e+00 1.300000000000000000e+01
-1.455357646942139027e+01 -2.933084106445312855e+01 -5.715314149856567383e-01 5.000000000000000000e+00
-1.230487108230591042e+00 -2.471214771270751953e+00 -7.397048473358154297e-01 1.300000000000000000e+01
-1.437688589096068892e+00 -2.884817838668822798e+00 -7.441380620002746582e-01 1.100000000000000000e+01
-1.730099558830261008e+00 -3.470042943954468218e+00 -7.536955475807189941e-01 1.200000000000000000e+01
-2.192716121673583984e+00 -4.394066333770751953e+00 -7.777921557426452637e-01 1.300000000000000000e+01
-1.456716537475585938e+01 -2.917894363403319957e+01 4.004383087158203125e+00 1.600000000000000000e+01
-2.561609506607056108e+00 -5.128823757171630859e+00 -7.039173245429992676e-01 3.000000000000000000e+01
-4.525803089141845703e+00 -9.057553291320800781e+00 -8.858509659767150879e-01 1.000000000000000000e+00
-1.242568492889403942e+01 -2.484600448608398082e+01 -1.455881595611572044e+00 1.300000000000000000e+01
-1.235637307167053001e+00 -2.459999322891234907e+00 -7.376343011856079102e-01 1.300000000000000000e+01
-1.451250910758971946e+00 -2.886746168136597124e+00 -7.459377050399780273e-01 1.100000000000000000e+01
-1.453114509582520064e+01 -2.890453338623046875e+01 1.695475697517395020e+00 1.700000000000000000e+01
-1.741319656372070090e+00 -3.462228775024414062e+00 -7.533138990402221680e-01 1.200000000000000000e+01
-1.433831596374512074e+01 -2.849617576599121094e+01 2.790901184082030806e+00 3.200000000000000000e+01
-2.205376386642456055e+00 -4.381092071533203125e+00 -7.768535614013671875e-01 1.200000000000000000e+01
-1.407785129547118963e+01 -2.795421981811523082e+01 3.843027830123900923e+00 1.600000000000000000e+01
-2.588428497314453125e+00 -5.137578964233398438e+00 -7.063547372817993164e-01 2.600000000000000000e+01
-1.477351760864257990e+01 -2.931012153625487926e+01 5.198630332946777344e+00 1.300000000000000000e+01
-4.571740627288818359e+00 -9.070166587829589844e+00 -8.886399269104003906e-01 1.000000000000000000e+00
-1.473390674591063920e+01 -2.921884727478026988e+01 6.360808849334716797e+00 5.700000000000000000e+01
-1.254652214050292969e+01 -2.487023925781250000e+01 -1.459859132766724077e+00 1.300000000000000000e+01
-1.242470502853393999e+00 -2.452224493026732954e+00 -7.365990281105041504e-01 1.200000000000000000e+01
-1.460437297821044922e+00 -2.879924774169921875e+00 -7.454878091812133789e-01 1.200000000000000000e+01
-1.753394484519958052e+00 -3.456129312515258789e+00 -7.533138990402221680e-01 1.000000000000000000e+01
-2.217972755432128906e+00 -4.368083477020263672e+00 -7.759149670600891113e-01 1.300000000000000000e+01
-1.423647975921631037e+01 -2.802525711059569957e+01 3.859602212905883789e+00 1.600000000000000000e+01
-2.618037939071654829e+00 -5.151517868041992188e+00 -7.095233201980590820e-01 2.400000000000000000e+01
-1.486141490936278942e+01 -2.923019981384276988e+01 5.193624019622802734e+00 1.300000000000000000e+01
-4.603373527526854581e+00 -9.054153442382812500e+00 -8.886399269104003906e-01 1.000000000000000000e+00
-1.260789585113525035e+01 -2.477645111083984020e+01 -1.456928372383117898e+00 1.300000000000000000e+01
-1.254516363143920898e+00 -2.452595472335814986e+00 -7.381519079208374023e-01 1.300000000000000000e+01
-1.465268373489380105e+00 -2.862153530120850053e+00 -7.423384785652160645e-01 1.200000000000000000e+01
-1.482413864135742010e+01 -2.894398880004883168e+01 1.704268097877501997e+00 1.700000000000000000e+01
-1.765757203102112038e+00 -3.447623968124390093e+00 -7.529323101043701172e-01 9.000000000000000000e+00
-2.238332986831665039e+00 -4.366566181182861328e+00 -7.771664261817932129e-01 1.300000000000000000e+01
-2.642329692840576172e+00 -5.150258541107177734e+00 -7.107419967651367188e-01 2.600000000000000000e+01
-1.483499526977539062e+01 -2.891541481018066051e+01 5.147319793701171875e+00 1.300000000000000000e+01
-4.612630844116210938e+00 -8.986779212951660156e+00 -8.837592601776123047e-01 1.000000000000000000e+00
-1.273214149475098012e+01 -2.478470802307128906e+01 -1.460277795791625977e+00 1.300000000000000000e+01
-1.261298418045043945e+00 -2.444767713546752930e+00 -7.371166348457336426e-01 1.200000000000000000e+01
-1.475250124931335005e+00 -2.857021331787108931e+00 -7.423384785652160645e-01 1.200000000000000000e+01
-1.781385064125061035e+00 -3.448416233062744141e+00 -7.544587850570678711e-01 9.000000000000000000e+00
-2.253561496734619141e+00 -4.358726501464843750e+00 -7.771664261817932129e-01 1.300000000000000000e+01
-2.670326709747314009e+00 -5.160397052764892578e+00 -7.134231328964233398e-01 2.000000000000000000e+01
-1.493542671203612926e+01 -2.885032272338866832e+01 5.145442485809326172e+00 1.300000000000000000e+01
-4.654963970184326172e+00 -8.991855621337890625e+00 -8.858509659767150879e-01 1.000000000000000000e+00
-1.285900783538818004e+01 -2.481814193725585938e+01 -1.464883446693419966e+00 1.300000000000000000e+01
-1.268972635269165039e+00 -2.440793275833129883e+00 -7.371166348457336426e-01 1.400000000000000000e+01
-1.487816572189331055e+00 -2.859287261962891069e+00 -7.441380620002746582e-01 1.100000000000000000e+01
-1.783144474029541016e+00 -3.425388574600220171e+00 -7.506425976753234863e-01 9.000000000000000000e+00
-2.271807432174683061e+00 -4.360384464263916016e+00 -7.787307500839233398e-01 1.500000000000000000e+01
-1.515860271453857067e+01 -2.908221626281737926e+01 4.026806831359863281e+00 1.600000000000000000e+01
-2.667250871658325195e+00 -5.115019321441650391e+00 -7.083046436309814453e-01 1.800000000000000000e+01
-1.519997882843017933e+01 -2.914918327331542969e+01 5.206764698028563565e+00 1.300000000000000000e+01
-4.668445110321044922e+00 -8.948924064636230469e+00 -8.830620050430297852e-01 1.000000000000000000e+00
-1.296834182739257990e+01 -2.483781623840332031e+01 -1.468442201614380105e+00 1.300000000000000000e+01
-1.276587724685668945e+00 -2.434637784957886186e+00 -7.365990281105041504e-01 1.400000000000000000e+01
-1.498693823814392090e+00 -2.855802059173583984e+00 -7.445880174636840820e-01 1.200000000000000000e+01
-1.512433910369873047e+01 -2.881984138488769887e+01 1.705733537673949973e+00 1.700000000000000000e+01
-1.797828316688538042e+00 -3.424358129501343218e+00 -7.517874240875244141e-01 1.000000000000000000e+01
-2.282419919967650923e+00 -4.343684673309326172e+00 -7.771664261817932129e-01 1.600000000000000000e+01
-1.516211700439452947e+01 -2.884287261962890980e+01 4.000970363616943359e+00 1.600000000000000000e+01
-2.630574464797974077e+00 -5.002017974853515625e+00 -6.939240694046020508e-01 2.900000000000000000e+01
-1.532370281219482067e+01 -2.913790893554687855e+01 5.214273452758789062e+00 1.300000000000000000e+01
-4.645848751068115234e+00 -8.830306053161621094e+00 -8.729519248008728027e-01 1.000000000000000000e+00
-1.307171344757080078e+01 -2.482420730590819957e+01 -1.470326304435729980e+00 1.300000000000000000e+01
-1.290019512176513894e+00 -2.438480615615845171e+00 -7.391871809959411621e-01 1.400000000000000000e+01
-1.510062694549560991e+00 -2.852012157440185991e+00 -7.450379133224487305e-01 1.400000000000000000e+01
-1.523173713684082031e+01 -2.876774597167969105e+01 1.705942869186400923e+00 1.700000000000000000e+01
-1.815880894660949929e+00 -3.428155183792113814e+00 -7.540771365165710449e-01 1.000000000000000000e+01
-2.296474456787108931e+00 -4.331799507141113281e+00 -7.765406966209411621e-01 1.600000000000000000e+01
-1.520634269714354936e+01 -2.867136383056640980e+01 3.984883785247803178e+00 1.600000000000000000e+01
-2.674011230468750000e+00 -5.039688587188720703e+00 -7.005049586296081543e-01 2.800000000000000000e+01
-3.230262279510498047e+00 -6.085485458374023438e+00 -6.027691364288330078e-01 1.000000000000000000e+00
-1.315136623382568004e+01 -2.475496482849121094e+01 -1.469070315361022949e+00 1.300000000000000000e+01
-1.294886112213134988e+00 -2.427145004272460938e+00 -7.371166348457336426e-01 1.400000000000000000e+01
-1.514501571655272993e+00 -2.836409330368041992e+00 -7.423384785652160645e-01 1.100000000000000000e+01
-1.829686403274535911e+00 -3.425259113311768022e+00 -7.548403739929199219e-01 1.000000000000000000e+01
-2.309718608856201172e+00 -4.320272445678710938e+00 -7.759149670600891113e-01 1.800000000000000000e+01
-1.552540779113770064e+01 -2.902771377563476918e+01 4.041918754577636719e+00 1.700000000000000000e+01
-2.702825069427489790e+00 -5.051327228546142578e+00 -7.034298777580261230e-01 2.600000000000000000e+01
-4.708917617797851562e+00 -8.796834945678710938e+00 -8.729519248008728027e-01 1.000000000000000000e+00
-1.324901580810547053e+01 -2.473003387451171875e+01 -1.470326304435729980e+00 1.300000000000000000e+01
-1.308417558670043945e+00 -2.433046340942382812e+00 -7.402224540710449219e-01 1.700000000000000000e+01
-1.522975564002990945e+00 -2.829655647277832031e+00 -7.418885827064514160e-01 1.200000000000000000e+01
-1.837311863899230957e+00 -3.412258386611938032e+00 -7.533138990402221680e-01 1.200000000000000000e+01
-2.326843738555908203e+00 -4.317806243896484375e+00 -7.768535614013671875e-01 1.600000000000000000e+01
-2.719561100006103960e+00 -5.042336463928222656e+00 -7.034298777580261230e-01 2.200000000000000000e+01
-4.738062858581542969e+00 -8.781171798706054688e+00 -8.729519248008728027e-01 1.000000000000000000e+00
-1.337460517883300959e+01 -2.476680183410644887e+01 -1.475141286849976030e+00 1.300000000000000000e+01
-1.316902518272399902e+00 -2.428464174270629883e+00 -7.402224540710449219e-01 1.600000000000000000e+01
-1.536561846733093040e+00 -2.831173181533813032e+00 -7.436881661415100098e-01 1.200000000000000000e+01
-1.846401333808898926e+00 -3.400648117065430132e+00 -7.521690726280212402e-01 1.100000000000000000e+01
-2.340015172958374023e+00 -4.306186676025390625e+00 -7.762278318405151367e-01 1.600000000000000000e+01
-2.739990711212158203e+00 -5.038044452667236328e+00 -7.041610479354858398e-01 2.400000000000000000e+01
-3.317512512207030806e+00 -6.097402572631835938e+00 -6.073012351989746094e-01 1.000000000000000000e+00
-1.346670722961425959e+01 -2.473048973083496094e+01 -1.475769281387329102e+00 1.300000000000000000e+01
-2.143909263610839844e+01 -3.933841323852539062e+01 -7.820074558258056641e-01 1.100000000000000000e+01
-1.315596103668212891e+00 -2.404978036880493164e+00 -7.345284223556518555e-01 1.500000000000000000e+01
-1.553479075431823953e+00 -2.837487697601317915e+00 -7.468374967575073242e-01 1.400000000000000000e+01
-1.860739111900330034e+00 -3.397301673889160156e+00 -7.529323101043701172e-01 1.100000000000000000e+01
-2.363378763198852983e+00 -4.311438560485839844e+00 -7.787307500839233398e-01 1.900000000000000000e+01
-2.768940687179564986e+00 -5.047112464904785156e+00 -7.068421840667724609e-01 2.000000000000000000e+01
-4.775853633880615234e+00 -8.701629638671875000e+00 -8.684198260307312012e-01 1.000000000000000000e+00
-1.357456684112549006e+01 -2.471247482299805043e+01 -1.477653384208678977e+00 1.300000000000000000e+01
-1.328648209571837935e+00 -2.408828973770142046e+00 -7.371166348457336426e-01 1.600000000000000000e+01
-1.557723641395569070e+00 -2.821811437606811968e+00 -7.441380620002746582e-01 1.300000000000000000e+01
-1.876382946968079057e+00 -3.397660255432128906e+00 -7.544587850570678711e-01 1.100000000000000000e+01
-2.367902755737305132e+00 -4.284144878387451172e+00 -7.752892374992370605e-01 1.800000000000000000e+01
-2.797111034393310991e+00 -5.056523323059082031e+00 -7.095233201980590820e-01 2.000000000000000000e+01
-4.806199073791503906e+00 -8.684906005859375000e+00 -8.684198260307312012e-01 1.000000000000000000e+00
-1.364332866668700994e+01 -2.463349151611328125e+01 -1.475769281387329102e+00 1.300000000000000000e+01
-1.338926315307616965e+00 -2.407553195953369141e+00 -7.381519079208374023e-01 1.600000000000000000e+01
-1.566616296768188032e+00 -2.814654111862183061e+00 -7.436881661415100098e-01 1.200000000000000000e+01
-1.889186739921570046e+00 -3.392804861068726030e+00 -7.548403739929199219e-01 1.200000000000000000e+01
-2.385727643966674805e+00 -4.281030178070068359e+00 -7.762278318405151367e-01 1.800000000000000000e+01
-2.820546150207519975e+00 -5.057130813598632812e+00 -7.109857201576232910e-01 2.200000000000000000e+01
-3.391947269439696822e+00 -6.079136848449707031e+00 -6.090443134307861328e-01 1.000000000000000000e+00
-1.376623630523681996e+01 -2.465198135375976918e+01 -1.479746818542480025e+00 1.300000000000000000e+01
-1.352991104125977007e+00 -2.412974834442139116e+00 -7.412577271461486816e-01 1.700000000000000000e+01
-1.572617053985595925e+00 -2.802370548248291016e+00 -7.418885827064514160e-01 1.300000000000000000e+01
-1.902940511703490989e+00 -3.389613628387451172e+00 -7.556036114692687988e-01 1.100000000000000000e+01
-2.404527187347412109e+00 -4.279564857482910156e+00 -7.774792909622192383e-01 1.800000000000000000e+01
-2.844019651412963867e+00 -5.057636260986328125e+00 -7.124481797218322754e-01 2.800000000000000000e+01
-3.406308650970458984e+00 -6.055104255676270419e+00 -6.078241467475891113e-01 5.000000000000000000e+00
-1.386396121978759943e+01 -2.462466239929198863e+01 -1.481002926826477051e+00 1.300000000000000000e+01
-1.361405730247498003e+00 -2.408237457275391069e+00 -7.412577271461486816e-01 1.700000000000000000e+01
-1.584308743476867898e+00 -2.800256252288817915e+00 -7.427883744239807129e-01 1.300000000000000000e+01
-1.907991409301758035e+00 -3.370990514755249023e+00 -7.529323101043701172e-01 1.100000000000000000e+01
-2.422371864318848100e+00 -4.276301860809326172e+00 -7.784178853034973145e-01 1.600000000000000000e+01
-2.872425794601439986e+00 -5.066673755645751953e+00 -7.151293158531188965e-01 2.800000000000000000e+01
-3.439219236373900923e+00 -6.063973903656005859e+00 -6.099159121513366699e-01 7.000000000000000000e+00
-1.388870620727539062e+01 -2.446842765808105113e+01 -1.474513173103332964e+00 1.300000000000000000e+01
-1.361194610595702903e+00 -2.388365030288695845e+00 -7.365990281105041504e-01 1.600000000000000000e+01
-1.597935914993285911e+00 -2.801479816436768022e+00 -7.445880174636840820e-01 1.200000000000000000e+01
-1.919746756553649902e+00 -3.364310026168822798e+00 -7.529323101043701172e-01 1.000000000000000000e+01
-2.433365583419799805e+00 -4.260958671569824219e+00 -7.771664261817932129e-01 1.300000000000000000e+01
-2.873348712921143022e+00 -5.027317523956298828e+00 -7.109857201576232910e-01 2.000000000000000000e+01
-3.466299057006835938e+00 -6.062309265136718750e+00 -6.109617352485656738e-01 7.000000000000000000e+00
-1.369107246398926003e+00 -2.383837938308715820e+00 -7.365990281105041504e-01 1.600000000000000000e+01
-1.602361559867859109e+00 -2.787717819213867188e+00 -7.423384785652160645e-01 1.300000000000000000e+01
-1.931871294975280984e+00 -3.359627246856689009e+00 -7.533138990402221680e-01 1.100000000000000000e+01
-2.441570281982421875e+00 -4.242593288421630859e+00 -7.752892374992370605e-01 1.000000000000000000e+01
-2.904865264892578125e+00 -5.043564319610595703e+00 -7.146418094635009766e-01 1.800000000000000000e+01
-3.487378120422362837e+00 -6.052507877349854404e+00 -6.111360788345336914e-01 8.000000000000000000e+00
-1.416468429565430043e+01 -2.456364631652832031e+01 -1.486027121543884055e+00 1.300000000000000000e+01
-1.379356026649475098e+00 -2.382388114929199219e+00 -7.376343011856079102e-01 1.600000000000000000e+01
-1.609151601791382058e+00 -2.777049303054810014e+00 -7.409887909889221191e-01 1.200000000000000000e+01
-1.947525262832642046e+00 -3.359657287597655806e+00 -7.548403739929199219e-01 1.100000000000000000e+01
-2.455373525619506836e+00 -4.232336044311523438e+00 -7.749763131141662598e-01 9.000000000000000000e+00
-2.935410499572753906e+00 -5.055710792541503906e+00 -7.178104519844055176e-01 2.400000000000000000e+01
-3.521493196487427202e+00 -6.062694549560546875e+00 -6.134021282196044922e-01 8.000000000000000000e+00
-1.427041625976563033e+01 -2.454858589172362926e+01 -1.488120555877685991e+00 1.400000000000000000e+01
-1.390585064888000044e+00 -2.382564067840576172e+00 -7.391871809959411621e-01 1.800000000000000000e+01
-1.620801329612731934e+00 -2.774780750274658203e+00 -7.418885827064514160e-01 1.300000000000000000e+01
-1.956269264221190962e+00 -3.347753524780272993e+00 -7.536955475807189941e-01 1.100000000000000000e+01
-2.475118398666381836e+00 -4.232265472412109375e+00 -7.765406966209411621e-01 1.000000000000000000e+01
-2.955045938491820845e+00 -5.048860073089599609e+00 -7.182978987693786621e-01 1.600000000000000000e+01
-3.544647932052611861e+00 -6.053803920745849609e+00 -6.137507557868957520e-01 1.000000000000000000e+01
-1.442468452453612926e+01 -2.461580085754394887e+01 -1.495238304138184038e+00 1.400000000000000000e+01
-1.394974827766418013e+00 -2.371035337448120117e+00 -7.371166348457336426e-01 1.500000000000000000e+01
-1.630477309226989968e+00 -2.769106149673461914e+00 -7.418885827064514160e-01 1.200000000000000000e+01
-1.968939542770385964e+00 -3.342596054077147993e+00 -7.540771365165710449e-01 1.100000000000000000e+01
-2.486867189407349077e+00 -4.218494892120361328e+00 -7.756021022796630859e-01 9.000000000000000000e+00
-2.969625711441040039e+00 -5.033385276794433594e+00 -7.175666689872741699e-01 3.000000000000000000e+01
-3.541453123092650923e+00 -6.000214576721191406e+00 -6.095672845840454102e-01 7.000000000000000000e+00
-1.456334304809569957e+01 -2.465472221374512074e+01 -1.500681161880492942e+00 1.400000000000000000e+01
-1.401684284210205078e+00 -2.362583637237548828e+00 -7.360813617706298828e-01 1.600000000000000000e+01
-1.643600344657897949e+00 -2.768138408660889116e+00 -7.432382702827453613e-01 1.200000000000000000e+01
-1.980174899101257102e+00 -3.333669185638428178e+00 -7.536955475807189941e-01 1.300000000000000000e+01
-2.500293254852294922e+00 -4.205955505371093750e+00 -7.749763131141662598e-01 9.000000000000000000e+00
-2.996173620223999023e+00 -5.036115169525145596e+00 -7.195165753364562988e-01 3.500000000000000000e+01
-3.556288242340087891e+00 -5.975209236145020419e+00 -6.083470582962036133e-01 6.000000000000000000e+00
-1.469653606414794922e+01 -2.467324638366698863e+01 -1.505077481269835982e+00 1.400000000000000000e+01
-1.773855972290039062e+01 -2.975671005249023082e+01 -6.046909689903259277e-01 6.000000000000000000e+00
-1.408931255340575950e+00 -2.356018543243408203e+00 -7.355637550354003906e-01 1.500000000000000000e+01
-1.655254483222960982e+00 -2.765728712081909180e+00 -7.441380620002746582e-01 1.300000000000000000e+01
-1.991799592971801980e+00 -3.326736688613892046e+00 -7.536955475807189941e-01 1.500000000000000000e+01
-2.514959573745727983e+00 -4.197202205657958984e+00 -7.749763131141662598e-01 1.000000000000000000e+01
-3.008630037307738814e+00 -5.017113685607910156e+00 -7.182978987693786621e-01 3.700000000000000000e+01
-3.580198764801024947e+00 -5.967885017395020419e+00 -6.088700294494628906e-01 7.000000000000000000e+00
-1.479696559906006037e+01 -2.464576911926269887e+01 -1.506542801856995073e+00 1.400000000000000000e+01
-1.790617561340332031e+01 -2.980088233947753906e+01 -6.068550944328308105e-01 6.000000000000000000e+00
-1.423715233802794966e+00 -2.362916231155395952e+00 -7.391871809959411621e-01 1.700000000000000000e+01
-1.664416909217834029e+00 -2.760224342346190962e+00 -7.441380620002746582e-01 1.300000000000000000e+01
-2.004848718643188032e+00 -3.323475599288939986e+00 -7.544587850570678711e-01 1.500000000000000000e+01
-2.520696640014647993e+00 -4.175310611724854404e+00 -7.724733948707580566e-01 1.000000000000000000e+01
-3.016011953353881836e+00 -4.991817474365234375e+00 -7.161042690277099609e-01 4.300000000000000000e+01
-3.586571216583251953e+00 -5.933813095092773438e+00 -6.066039800643920898e-01 6.000000000000000000e+00
-1.490342235565186080e+01 -2.463757896423339844e+01 -1.509055018424988015e+00 1.400000000000000000e+01
-1.434962987899780051e+00 -2.362885713577270952e+00 -7.407401204109191895e-01 1.600000000000000000e+01
-1.668981075286865012e+00 -2.746071338653564009e+00 -7.418885827064514160e-01 1.300000000000000000e+01
-2.016437530517578125e+00 -3.316457033157349077e+00 -7.544587850570678711e-01 1.500000000000000000e+01
-2.538336277008057085e+00 -4.171548843383789062e+00 -7.734119892120361328e-01 1.000000000000000000e+01
-3.040645599365233931e+00 -4.993127346038818359e+00 -7.178104519844055176e-01 3.300000000000000000e+01
-3.643542289733887163e+00 -5.980810165405273438e+00 -6.127048730850219727e-01 7.000000000000000000e+00
-1.501012706756591975e+01 -2.461951255798339844e+01 -1.511148452758789062e+00 1.400000000000000000e+01
-1.434125542640686035e+00 -2.343033075332642046e+00 -7.360813617706298828e-01 1.600000000000000000e+01
-1.682628273963928001e+00 -2.746875762939453125e+00 -7.436881661415100098e-01 1.500000000000000000e+01
-2.018769741058350053e+00 -3.294332742691040039e+00 -7.510241866111755371e-01 1.700000000000000000e+01
-2.555980443954468218e+00 -4.167714595794677734e+00 -7.743505835533142090e-01 1.000000000000000000e+01
-3.066363573074340820e+00 -4.996017932891845703e+00 -7.197603583335876465e-01 2.400000000000000000e+01
-3.675864458084106001e+00 -5.986732482910156250e+00 -6.146222949028015137e-01 8.000000000000000000e+00
-1.511897754669188920e+01 -2.460440444946289062e+01 -1.513451218605041948e+00 1.400000000000000000e+01
-1.438238501548767090e+00 -2.331436157226562944e+00 -7.340108156204223633e-01 1.400000000000000000e+01
-1.690158963203429954e+00 -2.737669229507445845e+00 -7.427883744239807129e-01 1.300000000000000000e+01
-2.035414934158325195e+00 -3.295617580413817915e+00 -7.529323101043701172e-01 1.400000000000000000e+01
-2.569474220275878906e+00 -4.157086849212645596e+00 -7.740377187728881836e-01 1.000000000000000000e+01
-3.074385643005371094e+00 -4.970089912414550781e+00 -7.175666689872741699e-01 2.200000000000000000e+01
-3.684158563613892046e+00 -5.953534126281738281e+00 -6.125305891036987305e-01 8.000000000000000000e+00
-1.526576232910156072e+01 -2.464996337890625000e+01 -1.519522190093993919e+00 1.400000000000000000e+01
-1.451875329017638938e+00 -2.334351301193236861e+00 -7.365990281105041504e-01 1.500000000000000000e+01
-1.704300761222838911e+00 -2.738073587417602983e+00 -7.445880174636840820e-01 1.500000000000000000e+01
-2.046442508697510210e+00 -3.286468744277954102e+00 -7.525506615638732910e-01 1.600000000000000000e+01
-2.576335430145264116e+00 -4.134229660034179688e+00 -7.715348005294799805e-01 1.000000000000000000e+01
-3.081026077270507812e+00 -4.940260410308837891e+00 -7.148855924606323242e-01 4.100000000000000000e+01
-3.717555522918701172e+00 -5.958584785461425781e+00 -6.144480109214782715e-01 1.100000000000000000e+01
-1.535600662231444957e+01 -2.459384536743164062e+01 -1.519522190093993919e+00 1.400000000000000000e+01
-1.854011154174805043e+01 -2.967037963867187855e+01 -6.106945872306823730e-01 7.000000000000000000e+00
-1.462067008018494096e+00 -2.332542896270751953e+00 -7.376343011856079102e-01 1.500000000000000000e+01
-1.704528093338012917e+00 -2.717250585556029829e+00 -7.405388951301574707e-01 1.400000000000000000e+01
-2.062076091766356978e+00 -3.285957098007202148e+00 -7.540771365165710449e-01 1.600000000000000000e+01
-2.594953298568726030e+00 -4.131902694702148438e+00 -7.727862596511840820e-01 1.000000000000000000e+01
-3.087688684463500977e+00 -4.912668704986572266e+00 -7.124481797218322754e-01 2.800000000000000000e+01
-3.755300521850585938e+00 -5.972558975219726562e+00 -6.172369718551635742e-01 1.200000000000000000e+01
-1.865848541259765980e+01 -2.962917137145996094e+01 -6.111832857131958008e-01 7.000000000000000000e+00
-1.472263574600219949e+00 -2.330691576004027876e+00 -7.386695742607116699e-01 1.500000000000000000e+01
-1.720250487327575906e+00 -2.721167325973511186e+00 -7.432382702827453613e-01 1.400000000000000000e+01
-2.071434974670410156e+00 -3.275420427322388139e+00 -7.533138990402221680e-01 1.600000000000000000e+01
-2.609360456466674805e+00 -4.122819423675537109e+00 -7.727862596511840820e-01 1.000000000000000000e+01
-3.120751142501831055e+00 -4.927015781402587891e+00 -7.161042690277099609e-01 4.500000000000000000e+01
-3.767594575881958008e+00 -5.945950508117675781e+00 -6.158424615859985352e-01 1.200000000000000000e+01
-1.877251052856444957e+01 -2.958074378967285156e+01 -6.115323305130004883e-01 7.000000000000000000e+00
-1.477277994155884011e+00 -2.320649147033690962e+00 -7.371166348457336426e-01 1.500000000000000000e+01
-1.730785727500915971e+00 -2.716789484024047852e+00 -7.436881661415100098e-01 1.600000000000000000e+01
-2.080745458602904829e+00 -3.264858484268188032e+00 -7.525506615638732910e-01 1.600000000000000000e+01
-2.627985000610352007e+00 -4.120347499847412109e+00 -7.740377187728881836e-01 1.000000000000000000e+01
-3.146475076675415039e+00 -4.929478168487548828e+00 -7.180541753768920898e-01 3.000000000000000000e+01
-3.766881465911864790e+00 -5.899178028106688565e+00 -6.123562455177307129e-01 1.500000000000000000e+01
-1.887565231323241832e+01 -2.951503562927246094e+01 -6.115323305130004883e-01 7.000000000000000000e+00
-1.481197237968445046e+00 -2.308974266052246094e+00 -7.350460886955261230e-01 1.400000000000000000e+01
-1.743416905403136985e+00 -2.715651035308837891e+00 -7.450379133224487305e-01 1.300000000000000000e+01
-2.091068506240845171e+00 -3.255923748016356978e+00 -7.521690726280212402e-01 1.500000000000000000e+01
-2.640215635299683061e+00 -4.107825756072998047e+00 -7.734119892120361328e-01 1.000000000000000000e+01
-3.155071973800659180e+00 -4.905108928680419922e+00 -7.161042690277099609e-01 2.800000000000000000e+01
-3.802544116973876953e+00 -5.909450054168701172e+00 -6.147966384887695312e-01 1.200000000000000000e+01
-1.906739044189453125e+01 -2.958679962158203125e+01 -6.143945455551147461e-01 7.000000000000000000e+00
-1.492394328117371050e+00 -2.308656930923461914e+00 -7.365990281105041504e-01 1.500000000000000000e+01
-1.743359088897705078e+00 -2.694823026657104048e+00 -7.409887909889221191e-01 1.300000000000000000e+01
-2.105620861053466797e+00 -3.253549098968505859e+00 -7.533138990402221680e-01 1.400000000000000000e+01
-2.656686067581177202e+00 -4.101900577545166016e+00 -7.740377187728881836e-01 1.000000000000000000e+01
-3.166776180267333984e+00 -4.885736465454101562e+00 -7.148855924606323242e-01 2.800000000000000000e+01
-3.823148965835570845e+00 -5.896140575408936435e+00 -6.147966384887695312e-01 1.200000000000000000e+01
-1.908995819091796875e+01 -2.939595794677734020e+01 -6.118115782737731934e-01 1.400000000000000000e+01
-1.503607153892517090e+00 -2.308289766311645952e+00 -7.381519079208374023e-01 1.500000000000000000e+01
-1.753819465637207031e+00 -2.690353631973267046e+00 -7.414386868476867676e-01 1.400000000000000000e+01
-2.119110107421875000e+00 -3.249468326568603960e+00 -7.540771365165710449e-01 1.200000000000000000e+01
-2.666669845581055132e+00 -4.085985183715820312e+00 -7.727862596511840820e-01 1.000000000000000000e+01
-3.157758951187133789e+00 -4.834764957427979404e+00 -7.090358138084411621e-01 2.000000000000000000e+01
-3.882939577102661133e+00 -5.942804336547851562e+00 -6.210718154907226562e-01 1.000000000000000000e+01
-1.918369293212890980e+01 -2.931575584411621094e+01 -6.115323305130004883e-01 7.000000000000000000e+00
-1.515895724296570046e+00 -2.309487104415893999e+00 -7.402224540710449219e-01 1.400000000000000000e+01
-1.764269709587096946e+00 -2.685843944549560991e+00 -7.418885827064514160e-01 1.500000000000000000e+01
-2.126127243041992188e+00 -3.235488653182982954e+00 -7.525506615638732910e-01 1.100000000000000000e+01
-2.676574707031250000e+00 -4.070049762725830078e+00 -7.715348005294799805e-01 1.000000000000000000e+01
-3.190985918045043945e+00 -4.848585605621337891e+00 -7.126919031143188477e-01 2.200000000000000000e+01
-3.881747961044311968e+00 -5.895932197570800781e+00 -6.175855994224548340e-01 1.100000000000000000e+01
-1.918023109436035156e+01 -2.908834648132323863e+01 -6.081814765930175781e-01 6.000000000000000000e+00
-1.519685387611388938e+00 -2.297736406326293945e+00 -7.381519079208374023e-01 1.400000000000000000e+01
-1.776861071586609109e+00 -2.684544324874877930e+00 -7.432382702827453613e-01 1.400000000000000000e+01
-2.136324405670166016e+00 -3.226410388946533203e+00 -7.521690726280212402e-01 1.200000000000000000e+01
-2.699494600296020952e+00 -4.073855400085449219e+00 -7.740377187728881836e-01 1.000000000000000000e+01
-3.183755159378052202e+00 -4.801021099090576172e+00 -7.073296904563903809e-01 3.300000000000000000e+01
-3.935347318649291992e+00 -5.932154655456542969e+00 -6.228149533271789551e-01 1.200000000000000000e+01
-1.932148933410644887e+01 -2.908118057250976918e+01 -6.094380617141723633e-01 7.000000000000000000e+00
-1.521268725395203081e+00 -2.282772064208983931e+00 -7.350460886955261230e-01 1.300000000000000000e+01
-1.789464831352234109e+00 -2.683189153671265093e+00 -7.445880174636840820e-01 1.300000000000000000e+01
-2.149752855300902876e+00 -3.222199916839600053e+00 -7.529323101043701172e-01 1.300000000000000000e+01
-2.707117319107056108e+00 -4.054550647735595703e+00 -7.721605300903320312e-01 1.200000000000000000e+01
-3.189465999603271040e+00 -4.773373126983642578e+00 -7.048922777175903320e-01 2.800000000000000000e+01
-3.927243232727050781e+00 -5.875314712524414062e+00 -6.182828545570373535e-01 1.000000000000000000e+01
-1.947850608825683949e+01 -2.909664344787598012e+01 -6.111832857131958008e-01 7.000000000000000000e+00
-1.527753710746764915e+00 -2.276110887527465820e+00 -7.345284223556518555e-01 1.200000000000000000e+01
-1.797266125679015891e+00 -2.675622701644897017e+00 -7.441380620002746582e-01 1.400000000000000000e+01
-2.166996240615845171e+00 -3.224830389022827148e+00 -7.552220225334167480e-01 1.300000000000000000e+01
-2.716138601303101030e+00 -4.038994312286376953e+00 -7.709090709686279297e-01 1.000000000000000000e+01
-3.230768918991088867e+00 -4.800648212432861328e+00 -7.104982733726501465e-01 3.300000000000000000e+01
-3.977860212326049805e+00 -5.908535957336425781e+00 -6.231635808944702148e-01 1.300000000000000000e+01
-1.575437355041504084e+01 -2.338322067260741832e+01 -1.477653384208678977e+00 1.300000000000000000e+01
-1.980965042114258168e+01 -2.938007545471191051e+01 -6.185132861137390137e-01 7.000000000000000000e+00
-1.542182922363281028e+00 -2.280365705490111861e+00 -7.376343011856079102e-01 1.400000000000000000e+01
-1.798949003219604048e+00 -2.658035755157471147e+00 -7.409887909889221191e-01 1.500000000000000000e+01
-2.172736406326293945e+00 -3.209118127822875977e+00 -7.533138990402221680e-01 1.300000000000000000e+01
-2.730220794677733931e+00 -4.029488563537597656e+00 -7.709090709686279297e-01 1.000000000000000000e+01
-3.240822315216064009e+00 -4.779483795166015625e+00 -7.090358138084411621e-01 2.400000000000000000e+01
-4.025303363800048828e+00 -5.934186935424804688e+00 -6.273470520973205566e-01 1.300000000000000000e+01
-1.572596836090088068e+01 -2.316614151000976918e+01 -1.467395544052124023e+00 1.300000000000000000e+01
-2.001321983337401988e+01 -2.945961570739746094e+01 -6.216546893119812012e-01 7.000000000000000000e+00
-1.546869993209839089e+00 -2.270179033279418945e+00 -7.360813617706298828e-01 1.300000000000000000e+01
-1.813705801963805930e+00 -2.659790277481079102e+00 -7.432382702827453613e-01 1.300000000000000000e+01
-2.186137676239014116e+00 -3.204757928848267046e+00 -7.540771365165710449e-01 1.300000000000000000e+01
-2.748724460601807085e+00 -4.026459693908691406e+00 -7.721605300903320312e-01 1.000000000000000000e+01
-3.263084888458251953e+00 -4.776337623596191406e+00 -7.102545499801635742e-01 1.600000000000000000e+01
-4.045992851257324219e+00 -5.920099735260009766e+00 -6.273470520973205566e-01 1.300000000000000000e+01
-2.010237693786621094e+01 -2.936977577209473012e+01 -6.212358474731445312e-01 7.000000000000000000e+00
-1.561345338821410911e+00 -2.274321794509888139e+00 -7.391871809959411621e-01 1.400000000000000000e+01
-1.821875572204590066e+00 -2.651836872100830078e+00 -7.427883744239807129e-01 1.300000000000000000e+01
-2.189527034759521040e+00 -3.185781717300415039e+00 -7.514058351516723633e-01 1.300000000000000000e+01
-2.765001773834228960e+00 -4.020095348358154297e+00 -7.727862596511840820e-01 1.000000000000000000e+01
-3.270733594894409180e+00 -4.751836776733398438e+00 -7.083046436309814453e-01 2.200000000000000000e+01
-4.077932834625244141e+00 -5.922350406646729404e+00 -6.290901303291320801e-01 1.100000000000000000e+01
-1.560399627685547053e+01 -2.264463806152344105e+01 -1.441227555274962935e+00 1.300000000000000000e+01
-2.021158599853515980e+01 -2.930930328369140980e+01 -6.214452981948852539e-01 7.000000000000000000e+00
-1.558990716934204102e+00 -2.254830360412598100e+00 -7.345284223556518555e-01 1.200000000000000000e+01
-1.830659389495850053e+00 -2.645780801773070845e+00 -7.427883744239807129e-01 1.300000000000000000e+01
-2.204548835754394975e+00 -3.184960365295410156e+00 -7.529323101043701172e-01 1.300000000000000000e+01
-2.770443677902222124e+00 -3.999537229537963867e+00 -7.705961465835571289e-01 1.000000000000000000e+01
-3.306829929351807085e+00 -4.770330429077148438e+00 -7.126919031143188477e-01 3.000000000000000000e+01
-4.015802860260009766e+00 -5.790913581848145419e+00 -6.165397167205810547e-01 1.100000000000000000e+01
-1.569494438171387074e+01 -2.261573982238769887e+01 -1.442692995071410911e+00 1.300000000000000000e+01
-2.021741294860839844e+01 -2.911072349548339844e+01 -6.186528801918029785e-01 7.000000000000000000e+00
-1.569060444831847922e+00 -2.252545118331909180e+00 -7.355637550354003906e-01 1.100000000000000000e+01
-1.840998172760009988e+00 -2.640973091125487837e+00 -7.432382702827453613e-01 1.300000000000000000e+01
-2.214529991149901900e+00 -3.175635337829589844e+00 -7.525506615638732910e-01 1.300000000000000000e+01
-2.780996561050415039e+00 -3.984982490539550781e+00 -7.696575522422790527e-01 1.000000000000000000e+01
-3.330281019210814986e+00 -4.768523216247558594e+00 -7.141543626785278320e-01 2.200000000000000000e+01
-4.136407375335693359e+00 -5.920588016510009766e+00 -6.318791508674621582e-01 9.000000000000000000e+00
-1.581499290466308949e+01 -2.261974334716796875e+01 -1.446461200714111106e+00 1.300000000000000000e+01
-2.033724784851073863e+01 -2.906618881225585938e+01 -6.192113757133483887e-01 7.000000000000000000e+00
-1.576913714408874956e+00 -2.247054338455200195e+00 -7.355637550354003906e-01 1.100000000000000000e+01
-1.843485713005065918e+00 -2.624962091445922852e+00 -7.405388951301574707e-01 1.300000000000000000e+01
-2.227858781814575195e+00 -3.171098709106444868e+00 -7.533138990402221680e-01 1.300000000000000000e+01
-2.792617321014403853e+00 -3.972018957138061968e+00 -7.690318226814270020e-01 1.000000000000000000e+01
-3.327486991882324219e+00 -4.729269504547119141e+00 -7.100107669830322266e-01 2.400000000000000000e+01
-4.080214977264404297e+00 -5.796951770782470703e+00 -6.202002763748168945e-01 8.000000000000000000e+00
-1.590995597839354936e+01 -2.258726119995116832e+01 -1.447926521301269975e+00 1.300000000000000000e+01
-2.037406539916991832e+01 -2.890349197387694957e+01 -6.172567009925842285e-01 7.000000000000000000e+00
-1.586978316307068093e+00 -2.244691133499145952e+00 -7.365990281105041504e-01 1.100000000000000000e+01
