-2.298861980438231978e+00 -1.424799442291259988e+00 -7.246932983398437500e-01 1.800000000000000000e+01
-1.128729820251465066e+00 -6.992967724800109863e-01 2.317679487168788910e-02 5.400000000000000000e+01
-2.674006462097167969e+00 -1.656016588211060014e+00 -7.261419892311096191e-01 1.300000000000000000e+01
-1.117409229278564009e+00 -6.917434930801391602e-01 6.887412071228027344e-02 6.800000000000000000e+01
-3.218366861343383789e+00 -1.992362737655640093e+00 -7.357594966888427734e-01 1.300000000000000000e+01
-1.114805102348328081e+00 -6.898623704910278320e-01 1.146969571709633012e-01 5.800000000000000000e+01
-4.033553600311279297e+00 -2.495065212249755859e+00 -7.511982917785644531e-01 1.100000000000000000e+01
-1.117715597152709961e+00 -6.911239624023437500e-01 1.613550037145614902e-01 5.200000000000000000e+01
-5.499686717987061435e+00 -3.399328231811522993e+00 -7.938569188117980957e-01 7.000000000000000000e+00
-1.130970597267151101e+00 -6.987743973731994629e-01 2.105607837438583096e-01 5.500000000000000000e+01
-7.549370765686035156e+00 -4.664406776428222656e+00 -7.763833403587341309e-01 7.000000000000000000e+00
-1.145866036415100098e+00 -7.077012658119201660e-01 2.617899477481842041e-01 7.500000000000000000e+01
-1.162439823150634988e+00 -7.176572084426879883e-01 -7.159558683633804321e-02 4.700000000000000000e+01
-1.102814078330994096e+00 -6.805801987648010254e-01 2.991848886013031006e-01 5.300000000000000000e+01
-1.157300829887389915e+00 -7.139267325401306152e-01 -2.373527362942695965e-02 5.100000000000000000e+01
-1.139533996582031028e+00 -7.026919722557067871e-01 3.587231934070587158e-01 5.200000000000000000e+01
-2.307112693786621094e+00 -1.418790102005005105e+00 -7.257286310195922852e-01 1.700000000000000000e+01
-1.148199439048767090e+00 -7.058246731758117676e-01 2.352584339678287853e-02 5.300000000000000000e+01
-2.689732789993286133e+00 -1.652793884277343972e+00 -7.288414239883422852e-01 1.400000000000000000e+01
-1.121518850326538086e+00 -6.888841390609741211e-01 6.897879391908645630e-02 6.400000000000000000e+01
-3.216937541961669922e+00 -1.975978612899780051e+00 -7.338513731956481934e-01 1.300000000000000000e+01
-1.122300028800963911e+00 -6.890942454338073730e-01 1.152198910713195940e-01 4.900000000000000000e+01
-4.048972606658936435e+00 -2.485103607177733931e+00 -7.524497509002685547e-01 1.200000000000000000e+01
-1.125197410583496094e+00 -6.903324723243713379e-01 1.620862334966660101e-01 4.700000000000000000e+01
-5.489520549774169922e+00 -3.366618871688843218e+00 -7.906882762908935547e-01 5.000000000000000000e+00
-1.133281588554382102e+00 -6.950201392173767090e-01 2.105607837438583096e-01 5.100000000000000000e+01
-7.558812141418457031e+00 -4.633861064910888672e+00 -7.756860852241516113e-01 7.000000000000000000e+00
-1.160047054290771040e+00 -7.108777165412902832e-01 2.644612789154052734e-01 7.000000000000000000e+01
-1.161531567573546919e+00 -7.115086317062377930e-01 -7.138624787330627441e-02 7.000000000000000000e+00
-1.111830830574036089e+00 -6.807970404624938965e-01 3.009845018386840820e-01 4.800000000000000000e+01
-1.163197040557861106e+00 -7.119705677032470703e-01 -2.380508184432983051e-02 5.100000000000000000e+01
-1.146800994873047097e+00 -7.019348740577697754e-01 3.602761030197144110e-01 5.300000000000000000e+01
-2.303805589675902876e+00 -1.405696988105773926e+00 -7.231404185295104980e-01 1.900000000000000000e+01
-1.150656342506408913e+00 -7.018123865127563477e-01 2.352584339678287853e-02 4.900000000000000000e+01
-2.697149515151977983e+00 -1.644409418106079102e+00 -7.292913198471069336e-01 1.200000000000000000e+01
-1.132444143295288086e+00 -6.901621222496032715e-01 6.950215250253677368e-02 5.600000000000000000e+01
-3.235550403594971147e+00 -1.971889257431030051e+00 -7.365227341651916504e-01 1.300000000000000000e+01
-1.124698638916016069e+00 -6.851724982261657715e-01 1.152198910713195940e-01 4.500000000000000000e+01
-4.059309959411621094e+00 -2.471982240676879883e+00 -7.527626752853393555e-01 1.200000000000000000e+01
-1.141165375709533913e+00 -6.946580410003662109e-01 1.640361398458481113e-01 4.000000000000000000e+01
-5.509717941284179688e+00 -3.352595567703247070e+00 -7.919070124626159668e-01 7.000000000000000000e+00
-1.151010632514954057e+00 -7.001006007194519043e-01 2.133766114711760919e-01 4.100000000000000000e+01
-7.489829540252686435e+00 -4.555678367614746094e+00 -7.669705152511596680e-01 8.000000000000000000e+00
-1.159166336059570090e+00 -7.047841548919677734e-01 2.636980414390563965e-01 6.400000000000000000e+01
-1.000671482086181996e+01 -6.081786155700683594e+00 -6.136914491653442383e-01 7.000000000000000000e+00
-1.125858783721924050e+00 -6.839946508407592773e-01 3.041338324546813965e-01 4.200000000000000000e+01
-1.177639603614806907e+00 -7.151718139648437500e-01 -2.404941618442535053e-02 3.100000000000000000e+01
-1.146063208580017090e+00 -6.957219839096069336e-01 3.592408299446105957e-01 4.800000000000000000e+01
-2.316716432571411133e+00 -1.403053402900696023e+00 -7.257286310195922852e-01 1.800000000000000000e+01
-1.151266574859618919e+00 -6.969572305679321289e-01 2.349093928933143963e-02 2.800000000000000000e+01
-2.699253320693970171e+00 -1.633438467979430930e+00 -7.283915281295776367e-01 1.300000000000000000e+01
-1.146689057350158913e+00 -6.936392188072204590e-01 7.023485004901885986e-02 2.700000000000000000e+01
-3.235352277755736861e+00 -1.957084417343140093e+00 -7.349962592124938965e-01 1.300000000000000000e+01
-1.138899087905884011e+00 -6.886555552482604980e-01 1.164400726556777954e-01 3.300000000000000000e+01
-4.062413215637207031e+00 -2.455441951751708984e+00 -7.518240213394165039e-01 1.100000000000000000e+01
-1.151957869529723899e+00 -6.960027813911437988e-01 1.652548313140868863e-01 2.500000000000000000e+01
-5.524203300476074219e+00 -3.336358785629272017e+00 -7.923944592475891113e-01 7.000000000000000000e+00
-1.195477247238158958e+00 -7.220119833946228027e-01 2.211983352899551114e-01 2.500000000000000000e+01
-7.528774738311767578e+00 -4.545232295989990234e+00 -7.694109082221984863e-01 7.000000000000000000e+00
-1.137964606285094993e+00 -6.867350339889526367e-01 2.583553791046143133e-01 4.800000000000000000e+01
-1.007471275329590021e+01 -6.077455520629882812e+00 -6.166222095489501953e-01 7.000000000000000000e+00
-1.143140077590941939e+00 -6.893141269683837891e-01 3.081829547882080078e-01 3.200000000000000000e+01
-1.154861330986022949e+00 -6.961072087287902832e-01 3.613113760948181152e-01 4.700000000000000000e+01
-2.311664342880249023e+00 -1.388988137245178001e+00 -7.226227521896362305e-01 1.800000000000000000e+01
-2.703268051147460938e+00 -1.623003244400023970e+00 -7.279416322708129883e-01 1.300000000000000000e+01
-3.248897552490233931e+00 -1.949820041656493919e+00 -7.365227341651916504e-01 1.300000000000000000e+01
-1.146421670913696067e+00 -6.877507567405700684e-01 1.169630065560341020e-01 1.300000000000000000e+01
-4.065876960754395419e+00 -2.438198804855347124e+00 -7.508854269981384277e-01 1.200000000000000000e+01
-1.149272561073303001e+00 -6.889156103134155273e-01 1.645236164331435880e-01 6.000000000000000000e+00
-5.537518501281738281e+00 -3.318075895309447798e+00 -7.926381826400756836e-01 7.000000000000000000e+00
-1.238657593727112038e+00 -7.422024011611938477e-01 2.287071943283081055e-01 2.800000000000000000e+01
-7.517247200012207031e+00 -4.502544403076171875e+00 -7.666218876838684082e-01 7.000000000000000000e+00
-1.126879453659058061e+00 -6.746906042098999023e-01 2.553024291992188055e-01 3.700000000000000000e+01
-1.011814498901367010e+01 -6.055584907531738281e+00 -6.179829835891723633e-01 1.000000000000000000e+01
-1.153900861740112083e+00 -6.903219223022460938e-01 3.104324638843535822e-01 2.800000000000000000e+01
-4.464249038696289062e+01 -2.669681930541991832e+01 -9.079439640045166016e-01 1.400000000000000000e+01
-1.165574193000793013e+00 -6.970292925834655762e-01 3.638995885848999023e-01 3.800000000000000000e+01
-2.328114509582519975e+00 -1.387834787368773970e+00 -7.262462377548217773e-01 1.900000000000000000e+01
-2.703894138336182085e+00 -1.610565423965454102e+00 -7.265918850898742676e-01 1.200000000000000000e+01
-3.260744571685791016e+00 -1.941480636596679910e+00 -7.376675605773925781e-01 1.300000000000000000e+01
-1.207026600837707964e+00 -7.183905839920043945e-01 1.228896006941794933e-01 1.000000000000000000e+00
-4.082851409912109375e+00 -2.429041385650635210e+00 -7.524497509002685547e-01 1.100000000000000000e+01
-5.528591156005859375e+00 -3.286553621292113814e+00 -7.897133231163024902e-01 7.000000000000000000e+00
-1.239671349525452104e+00 -7.366484403610229492e-01 2.283943146467208862e-01 5.500000000000000000e+01
-7.731603622436523438e+00 -4.594341278076171875e+00 -7.868420481681823730e-01 8.000000000000000000e+00
-1.151170849800110085e+00 -6.837869882583618164e-01 2.602634727954865057e-01 2.800000000000000000e+01
-1.014609050750732067e+01 -6.024307727813720703e+00 -6.184016466140747070e-01 1.400000000000000000e+01
-1.151276111602782981e+00 -6.833059787750244141e-01 3.090827465057373047e-01 3.600000000000000000e+01
-4.484891510009766336e+01 -2.660816764831542969e+01 -9.102476835250854492e-01 1.400000000000000000e+01
-1.171323060989380105e+00 -6.949278712272644043e-01 3.649348616600037176e-01 9.000000000000000000e+00
-2.326293468475341797e+00 -1.375766158103943093e+00 -7.241756916046142578e-01 1.900000000000000000e+01
-2.717888116836547852e+00 -1.606074213981627974e+00 -7.288414239883422852e-01 1.400000000000000000e+01
-3.250597953796387163e+00 -1.920101761817931907e+00 -7.338513731956481934e-01 1.300000000000000000e+01
-4.089604377746582031e+00 -2.413770675659180132e+00 -7.521368861198425293e-01 1.200000000000000000e+01
-5.557128429412841797e+00 -3.277319192886352983e+00 -7.921507358551025391e-01 8.000000000000000000e+00
-1.206499695777893066e+00 -7.112500071525573730e-01 2.218240648508071899e-01 5.000000000000000000e+01
-7.790502071380615234e+00 -4.592620372772216797e+00 -7.911998033523559570e-01 8.000000000000000000e+00
-1.187379121780395952e+00 -6.996989250183105469e-01 2.678958177566527765e-01 3.700000000000000000e+01
-1.013952350616455078e+01 -5.972635746002197266e+00 -6.167269349098205566e-01 1.000000000000000000e+01
-1.160371422767638938e+00 -6.832382082939147949e-01 3.108823597431182861e-01 3.000000000000000000e+01
-4.519313049316406250e+01 -2.659954452514648082e+01 -9.153438210487365723e-01 1.400000000000000000e+01
-1.213823556900023970e+00 -7.141408920288085938e-01 3.773581683635712225e-01 1.000000000000000000e+00
-2.326320886611938032e+00 -1.364298701286315918e+00 -7.226227521896362305e-01 1.900000000000000000e+01
-2.725437641143798828e+00 -1.597087144851685014e+00 -7.292913198471069336e-01 1.300000000000000000e+01
-3.252531528472899947e+00 -1.905197978019713911e+00 -7.327065467834472656e-01 1.300000000000000000e+01
-4.086490154266357422e+00 -2.391780614852904829e+00 -7.499468326568603516e-01 1.100000000000000000e+01
-5.567389488220214844e+00 -3.255927324295043945e+00 -7.919070124626159668e-01 8.000000000000000000e+00
-1.221035957336426003e+00 -7.138016819953918457e-01 2.240141481161118109e-01 4.500000000000000000e+01
-7.829643249511718750e+00 -4.577107429504395419e+00 -7.934658527374267578e-01 8.000000000000000000e+00
-1.200106024742126021e+00 -7.012853622436523438e-01 2.701855301856995184e-01 5.100000000000000000e+01
-1.023032951354979936e+01 -5.975727081298828125e+00 -6.209138035774230957e-01 1.400000000000000000e+01
-1.174647927284240945e+00 -6.858589053153991699e-01 3.140316605567932129e-01 1.600000000000000000e+01
-4.539048767089843750e+01 -2.649218750000000000e+01 -9.173682928085327148e-01 1.400000000000000000e+01
-2.327729463577270952e+00 -1.354227066040039062e+00 -7.215874791145324707e-01 1.800000000000000000e+01
-2.734365463256835938e+00 -1.589522600173949973e+00 -7.301911115646362305e-01 1.200000000000000000e+01
-3.269347190856934038e+00 -1.899751067161560059e+00 -7.349962592124938965e-01 1.200000000000000000e+01
-4.098230838775634766e+00 -2.379485368728638139e+00 -7.505725622177124023e-01 1.100000000000000000e+01
-5.580437660217285156e+00 -3.237469673156737837e+00 -7.921507358551025391e-01 1.000000000000000000e+01
-1.232064247131348100e+00 -7.144899964332580566e-01 2.255785018205642978e-01 1.100000000000000000e+01
-7.909343719482421875e+00 -4.586730957031250000e+00 -7.999154329299926758e-01 8.000000000000000000e+00
-1.194054126739501953e+00 -6.921689510345458984e-01 2.682774364948273260e-01 1.500000000000000000e+01
-1.033407592773438033e+01 -5.988044738769531250e+00 -6.259380578994750977e-01 1.400000000000000000e+01
-4.551729965209960938e+01 -2.635362434387207031e+01 -9.180663824081420898e-01 1.400000000000000000e+01
-2.335553407669066939e+00 -1.348432421684264915e+00 -7.226227521896362305e-01 2.000000000000000000e+01
-2.729493618011475053e+00 -1.574603676795959029e+00 -7.274917364120483398e-01 1.200000000000000000e+01
-3.277329683303833008e+00 -1.889879822731018066e+00 -7.353778481483459473e-01 1.200000000000000000e+01
-4.095829486846923828e+00 -2.359964847564696822e+00 -7.486953735351562500e-01 1.100000000000000000e+01
-5.567058086395263672e+00 -3.205080270767211914e+00 -7.887383699417114258e-01 1.000000000000000000e+01
-7.927964210510253906e+00 -4.562464714050292969e+00 -8.002640008926391602e-01 6.000000000000000000e+00
-1.034348773956299006e+01 -5.947769165039063388e+00 -6.253100037574768066e-01 1.400000000000000000e+01
-4.566685867309570312e+01 -2.623840141296387074e+01 -9.193229675292968750e-01 1.400000000000000000e+01
-2.341922521591186968e+00 -1.341231703758239968e+00 -7.231404185295104980e-01 1.900000000000000000e+01
-2.731590509414672852e+00 -1.563130617141724077e+00 -7.265918850898742676e-01 1.200000000000000000e+01
-3.275385856628417969e+00 -1.873554348945617898e+00 -7.334697842597961426e-01 1.200000000000000000e+01
-4.116047382354736328e+00 -2.352514743804932085e+00 -7.508854269981384277e-01 1.200000000000000000e+01
-5.576488018035888672e+00 -3.184643745422362837e+00 -7.884946465492248535e-01 1.000000000000000000e+01
-8.042469024658203125e+00 -4.591064929962158203e+00 -8.101997971534729004e-01 9.000000000000000000e+00
-1.038153457641601918e+01 -5.921523094177246094e+00 -6.263567209243774414e-01 2.100000000000000000e+01
-4.585546112060546875e+01 -2.613428306579589844e+01 -9.212776422500610352e-01 1.400000000000000000e+01
-2.346590042114257812e+00 -1.333048701286315918e+00 -7.231404185295104980e-01 1.900000000000000000e+01
-2.740419626235961914e+00 -1.555510044097899947e+00 -7.274917364120483398e-01 1.200000000000000000e+01
-3.281905889511107954e+00 -1.862109661102294922e+00 -7.334697842597961426e-01 1.200000000000000000e+01
-4.134544372558593750e+00 -2.343978166580200195e+00 -7.527626752853393555e-01 1.200000000000000000e+01
-5.597934246063232422e+00 -3.171029090881348100e+00 -7.899571061134338379e-01 8.000000000000000000e+00
-8.079251289367675781e+00 -4.574744224548339844e+00 -8.122915029525756836e-01 1.000000000000000000e+01
-1.044907665252686080e+01 -5.911802768707275391e+00 -6.291828751564025879e-01 2.200000000000000000e+01
-4.590114974975585938e+01 -2.594847297668457031e+01 -9.203701019287109375e-01 1.400000000000000000e+01
-2.351228952407836914e+00 -1.324849486351012962e+00 -7.231404185295104980e-01 1.900000000000000000e+01
-2.749228954315185991e+00 -1.547846794128417969e+00 -7.283915281295776367e-01 1.200000000000000000e+01
-3.284963846206665039e+00 -1.848716616630553977e+00 -7.327065467834472656e-01 1.200000000000000000e+01
-4.140979766845703125e+00 -2.328563451766968218e+00 -7.524497509002685547e-01 1.200000000000000000e+01
-5.600315570831298828e+00 -3.146607637405395952e+00 -7.887383699417114258e-01 1.000000000000000000e+01
-8.079536437988281250e+00 -4.537733554840087891e+00 -8.107227087020874023e-01 9.000000000000000000e+00
-1.051493453979492010e+01 -5.900705814361572266e+00 -6.319043636322021484e-01 1.800000000000000000e+01
-4.596353912353516336e+01 -2.577244186401366832e+01 -9.198116064071655273e-01 1.400000000000000000e+01
-2.349093914031981978e+00 -1.312864184379578081e+00 -7.210698723793029785e-01 1.900000000000000000e+01
-2.751212358474731001e+00 -1.536340594291687012e+00 -7.274917364120483398e-01 1.300000000000000000e+01
-3.299968481063843218e+00 -1.842023134231566939e+00 -7.346146106719970703e-01 1.300000000000000000e+01
-4.131830692291259766e+00 -2.304472446441649947e+00 -7.493211030960083008e-01 1.200000000000000000e+01
-5.614733219146729404e+00 -3.128972291946411133e+00 -7.892258763313293457e-01 8.000000000000000000e+00
-8.145802497863769531e+00 -4.537620544433593750e+00 -8.157777786254882812e-01 1.000000000000000000e+01
-1.058782196044922053e+01 -5.893105983734130859e+00 -6.350445151329040527e-01 1.800000000000000000e+01
-4.615807723999022727e+01 -2.567015647888183949e+01 -9.219059348106384277e-01 1.400000000000000000e+01
-2.358731269836425781e+00 -1.307466030120850053e+00 -7.226227521896362305e-01 1.800000000000000000e+01
-2.751444339752196822e+00 -1.523895144462585005e+00 -7.261419892311096191e-01 1.300000000000000000e+01
-3.304660558700561968e+00 -1.829542040824889915e+00 -7.342330217361450195e-01 1.300000000000000000e+01
-4.151949405670166016e+00 -2.296728849411011186e+00 -7.515111565589904785e-01 1.200000000000000000e+01
-5.606510162353515625e+00 -3.098791122436522993e+00 -7.865447402000427246e-01 8.000000000000000000e+00
-8.205190658569335938e+00 -4.533246517181395596e+00 -8.201355338096618652e-01 9.000000000000000000e+00
-1.061532211303710938e+01 -5.859972953796386719e+00 -6.354631781578063965e-01 2.200000000000000000e+01
-4.624740219116210938e+01 -2.550887870788573863e+01 -9.219059348106384277e-01 1.400000000000000000e+01
-2.368359327316284180e+00 -1.302016615867614968e+00 -7.241756916046142578e-01 1.600000000000000000e+01
-2.765286922454833984e+00 -1.518972635269165039e+00 -7.283915281295776367e-01 1.100000000000000000e+01
-3.316189527511597124e+00 -1.820830106735229048e+00 -7.353778481483459473e-01 1.200000000000000000e+01
-4.154745578765869141e+00 -2.279371500015258789e+00 -7.505725622177124023e-01 1.200000000000000000e+01
-5.608589172363281250e+00 -3.074430942535399947e+00 -7.853260636329650879e-01 8.000000000000000000e+00
-8.289109230041503906e+00 -4.541915893554688388e+00 -8.269336819648742676e-01 1.000000000000000000e+01
-1.066374301910400035e+01 -5.838228702545166016e+00 -6.371379494667053223e-01 1.800000000000000000e+01
-4.630107498168945312e+01 -2.532809638977051137e+01 -9.212078452110290527e-01 1.400000000000000000e+01
-2.367801427841186968e+00 -1.290967226028441939e+00 -7.226227521896362305e-01 1.700000000000000000e+01
-2.767149686813354048e+00 -1.507446169853210005e+00 -7.274917364120483398e-01 1.200000000000000000e+01
-3.317352533340454102e+00 -1.806426763534545898e+00 -7.342330217361450195e-01 1.200000000000000000e+01
-4.171352386474609375e+00 -2.269575119018555132e+00 -7.521368861198425293e-01 1.200000000000000000e+01
-5.628006935119628906e+00 -3.059575080871582031e+00 -7.865447402000427246e-01 1.000000000000000000e+01
-8.332921981811523438e+00 -4.528174400329589844e+00 -8.297226428985595703e-01 9.000000000000000000e+00
-1.079639148712158025e+01 -5.861962318420410156e+00 -6.438369154930114746e-01 7.000000000000000000e+00
-4.638920593261718750e+01 -2.516632080078125000e+01 -9.212078452110290527e-01 1.400000000000000000e+01
-2.367195367813109907e+00 -1.279937744140625000e+00 -7.210698723793029785e-01 1.900000000000000000e+01
-2.779253005981444868e+00 -1.501482963562011941e+00 -7.292913198471069336e-01 1.100000000000000000e+01
-3.313273191452025923e+00 -1.789238810539246050e+00 -7.319433093070983887e-01 1.100000000000000000e+01
-4.168818950653076172e+00 -2.249372482299805132e+00 -7.502596974372863770e-01 1.200000000000000000e+01
-5.621179103851318359e+00 -3.030490875244141069e+00 -7.841073274612426758e-01 1.000000000000000000e+01
-8.385510444641113281e+00 -4.518908500671386719e+00 -8.333832025527954102e-01 9.000000000000000000e+00
-1.101198577880859020e+01 -5.929343700408936435e+00 -6.554555296897888184e-01 1.100000000000000000e+01
-4.645563888549804688e+01 -2.499287033081055043e+01 -9.207889437675476074e-01 1.400000000000000000e+01
-2.366541147232056108e+00 -1.268928170204163042e+00 -7.195169329643249512e-01 1.800000000000000000e+01
-2.775888442993164062e+00 -1.487171053886414018e+00 -7.270417809486389160e-01 1.200000000000000000e+01
-3.319498777389525923e+00 -1.777662396430969016e+00 -7.319433093070983887e-01 1.100000000000000000e+01
-4.174903392791748047e+00 -2.233875036239624023e+00 -7.499468326568603516e-01 1.200000000000000000e+01
-5.643977642059326172e+00 -3.017402172088623047e+00 -7.858135104179382324e-01 1.000000000000000000e+01
-8.410018920898437500e+00 -4.494305133819580078e+00 -8.342547416687011719e-01 9.000000000000000000e+00
-1.106432914733887074e+01 -5.907801628112792969e+00 -6.573396325111389160e-01 1.100000000000000000e+01
-4.649319458007813211e+01 -2.480420112609862926e+01 -9.198116064071655273e-01 1.400000000000000000e+01
-2.381190299987792969e+00 -1.266101360321044922e+00 -7.226227521896362305e-01 1.800000000000000000e+01
-2.779341697692871094e+00 -1.476557970046997070e+00 -7.265918850898742676e-01 1.100000000000000000e+01
-3.339555025100708008e+00 -1.773430585861206055e+00 -7.349962592124938965e-01 1.200000000000000000e+01
-4.175695896148681641e+00 -2.215584754943848100e+00 -7.486953735351562500e-01 1.200000000000000000e+01
-5.649214267730712891e+00 -2.994893312454224077e+00 -7.850822806358337402e-01 8.000000000000000000e+00
-8.494315147399902344e+00 -4.501305103302001953e+00 -8.410528898239135742e-01 9.000000000000000000e+00
-1.110076999664306996e+01 -5.877555370330811435e+00 -6.582816839218139648e-01 1.900000000000000000e+01
-4.655474853515625000e+01 -2.462866783142089844e+01 -9.193229675292968750e-01 1.400000000000000000e+01
-2.390722036361693892e+00 -1.260484695434570090e+00 -7.241756916046142578e-01 1.900000000000000000e+01
-2.781030654907227007e+00 -1.465030789375304954e+00 -7.256920933723449707e-01 1.100000000000000000e+01
-3.338776588439940962e+00 -1.758103728294373003e+00 -7.334697842597961426e-01 1.300000000000000000e+01
-4.193893432617188388e+00 -2.206513881683350053e+00 -7.505725622177124023e-01 1.200000000000000000e+01
-5.654362678527832031e+00 -2.972384691238402876e+00 -7.843511104583740234e-01 8.000000000000000000e+00
-8.511738777160644531e+00 -4.472553730010986328e+00 -8.412272334098815918e-01 9.000000000000000000e+00
-1.113359737396240057e+01 -5.845269203186035156e+00 -6.590143442153930664e-01 2.700000000000000000e+01
-4.664751815795897727e+01 -2.446972656250000000e+01 -9.194625616073608398e-01 1.400000000000000000e+01
-2.388259410858153853e+00 -1.248551845550537109e+00 -7.221051454544067383e-01 1.900000000000000000e+01
-2.789582252502440962e+00 -1.457118749618530051e+00 -7.265918850898742676e-01 1.200000000000000000e+01
-3.334451198577880859e+00 -1.740986585617064986e+00 -7.311800718307495117e-01 1.200000000000000000e+01
-4.192812919616699219e+00 -2.187292814254761186e+00 -7.490082383155822754e-01 1.200000000000000000e+01
-5.654141902923583984e+00 -2.947123765945435014e+00 -7.828886508941650391e-01 7.000000000000000000e+00
-8.543202400207519531e+00 -4.451100349426270419e+00 -8.427960276603698730e-01 8.000000000000000000e+00
-1.117696380615234020e+01 -5.818359375000000000e+00 -6.603751182556152344e-01 2.700000000000000000e+01
-4.657298278808593750e+01 -2.422370147705078125e+01 -9.163211584091186523e-01 1.400000000000000000e+01
-2.384027481079102007e+00 -1.235762476921081987e+00 -7.195169329643249512e-01 2.000000000000000000e+01
-2.798112392425537109e+00 -1.449164748191833052e+00 -7.274917364120483398e-01 1.100000000000000000e+01
-3.343995094299315962e+00 -1.731141686439513938e+00 -7.319433093070983887e-01 1.200000000000000000e+01
-4.195158958435058594e+00 -2.169921159744263139e+00 -7.480695843696594238e-01 1.200000000000000000e+01
-5.682030200958251953e+00 -2.936483144760131836e+00 -7.853260636329650879e-01 7.000000000000000000e+00
-8.588779449462890625e+00 -4.436797142028808594e+00 -8.457593321800231934e-01 9.000000000000000000e+00
-1.123980140686034979e+01 -5.801293849945068359e+00 -6.628872156143188477e-01 2.300000000000000000e+01
-4.665725326538085938e+01 -2.406098365783691051e+01 -9.163211584091186523e-01 1.400000000000000000e+01
-2.391762971878052202e+00 -1.229199171066283958e+00 -7.205522060394287109e-01 1.800000000000000000e+01
-2.803153991699219194e+00 -1.439388751983643022e+00 -7.274917364120483398e-01 1.400000000000000000e+01
-3.344777822494506836e+00 -1.716768980026244895e+00 -7.307984232902526855e-01 1.200000000000000000e+01
-4.195676803588867188e+00 -2.151658535003662109e+00 -7.468181252479553223e-01 1.100000000000000000e+01
-5.681645393371582031e+00 -2.911199808120727983e+00 -7.838636040687561035e-01 7.000000000000000000e+00
-8.637907981872558594e+00 -4.424046516418457031e+00 -8.490712642669677734e-01 1.000000000000000000e+01
-1.130976676940917969e+01 -5.787499904632568359e+00 -6.658180356025695801e-01 2.300000000000000000e+01
-4.663056945800781250e+01 -2.384153175354003906e+01 -9.141570329666137695e-01 1.400000000000000000e+01
-2.396039009094237837e+00 -1.220842838287353960e+00 -7.205522060394287109e-01 1.800000000000000000e+01
-2.797741413116455078e+00 -1.424290537834167036e+00 -7.247923016548156738e-01 1.100000000000000000e+01
-3.364748001098632812e+00 -1.712206125259398970e+00 -7.338513731956481934e-01 1.200000000000000000e+01
-4.203161716461181641e+00 -2.136999845504761186e+00 -7.468181252479553223e-01 1.100000000000000000e+01
-5.690003395080566406e+00 -2.890450477600098100e+00 -7.836198806762695312e-01 8.000000000000000000e+00
-8.706593513488769531e+00 -4.420928955078125000e+00 -8.543006181716918945e-01 7.000000000000000000e+00
-1.150088977813721058e+01 -5.834734439849854404e+00 -6.758665442466735840e-01 7.000000000000000000e+00
-4.664572906494141336e+01 -2.364426040649414062e+01 -9.128306508064270020e-01 1.400000000000000000e+01
-2.400285959243773970e+00 -1.212471723556518999e+00 -7.205522060394287109e-01 2.000000000000000000e+01
-2.809654951095581055e+00 -1.418027997016906960e+00 -7.265918850898742676e-01 1.200000000000000000e+01
-3.358434200286864790e+00 -1.694260597229003906e+00 -7.311800718307495117e-01 1.100000000000000000e+01
-4.222943782806395596e+00 -2.128538846969604048e+00 -7.490082383155822754e-01 1.200000000000000000e+01
-5.692966461181640625e+00 -2.866999626159667969e+00 -7.826449275016784668e-01 8.000000000000000000e+00
-8.752225875854492188e+00 -4.405739307403563565e+00 -8.572638630867004395e-01 5.000000000000000000e+00
-1.161040210723876953e+01 -5.839423656463623047e+00 -6.811001300811767578e-01 1.200000000000000000e+01
-4.675299453735352273e+01 -2.349386215209960938e+01 -9.133193492889404297e-01 1.400000000000000000e+01
-2.404503583908081055e+00 -1.204085707664489968e+00 -7.205522060394287109e-01 1.800000000000000000e+01
-2.811102151870727983e+00 -1.406467914581299050e+00 -7.256920933723449707e-01 1.100000000000000000e+01
-3.364327907562255859e+00 -1.682527184486388938e+00 -7.311800718307495117e-01 1.100000000000000000e+01
-4.232114791870117188e+00 -2.114667892456055132e+00 -7.493211030960083008e-01 1.100000000000000000e+01
-5.702939033508300781e+00 -2.847110033035277876e+00 -7.826449275016784668e-01 8.000000000000000000e+00
-8.767551422119140625e+00 -4.375161647796630859e+00 -8.572638630867004395e-01 5.000000000000000000e+00
-1.157351684570313033e+01 -5.770342826843261719e+00 -6.777506470680236816e-01 7.000000000000000000e+00
-4.678102111816406250e+01 -2.330377197265625000e+01 -9.122722148895263672e-01 1.400000000000000000e+01
-2.398309707641602007e+00 -1.190531373023987038e+00 -7.174463868141174316e-01 2.000000000000000000e+01
-2.817740201950072798e+00 -1.397512674331665039e+00 -7.261419892311096191e-01 1.300000000000000000e+01
-3.370180368423461914e+00 -1.670773267745971902e+00 -7.311800718307495117e-01 1.100000000000000000e+01
-4.228849887847900391e+00 -2.094621658325194868e+00 -7.474438548088073730e-01 1.100000000000000000e+01
-5.712842941284179688e+00 -2.827185630798339844e+00 -7.826449275016784668e-01 8.000000000000000000e+00
-8.772054672241210938e+00 -4.339230060577392578e+00 -8.562180399894714355e-01 3.000000000000000000e+00
-1.167416191101074041e+01 -5.769730091094970703e+00 -6.824608445167541504e-01 1.600000000000000000e+01
-4.689076995849608664e+01 -2.315449905395508168e+01 -9.128306508064270020e-01 1.400000000000000000e+01
-2.409384489059447798e+00 -1.185564041137695090e+00 -7.195169329643249512e-01 2.000000000000000000e+01
-2.819103717803955078e+00 -1.385948896408081055e+00 -7.252421975135803223e-01 1.200000000000000000e+01
-3.384802103042602983e+00 -1.663328289985656960e+00 -7.330881357192993164e-01 1.100000000000000000e+01
-4.221950531005859375e+00 -2.072882652282714844e+00 -7.449409365653991699e-01 1.100000000000000000e+01
-5.719112396240234375e+00 -2.805478334426879883e+00 -7.821574211120605469e-01 8.000000000000000000e+00
-8.783570289611816406e+00 -4.306829452514648438e+00 -8.558694124221801758e-01 3.000000000000000000e+00
-1.177853012084960938e+01 -5.770242214202880859e+00 -6.873804330825805664e-01 8.000000000000000000e+00
-4.693538665771483664e+01 -2.297309684753417969e+01 -9.121325612068176270e-01 1.400000000000000000e+01
-2.410035371780395952e+00 -1.175452828407288042e+00 -7.184816598892211914e-01 1.900000000000000000e+01
-2.811661720275878906e+00 -1.370124340057373047e+00 -7.220928668975830078e-01 1.300000000000000000e+01
-3.381762504577637163e+00 -1.647204399108886941e+00 -7.311800718307495117e-01 1.100000000000000000e+01
-4.232712745666503906e+00 -2.059861421585083008e+00 -7.455666661262512207e-01 1.100000000000000000e+01
-5.721729278564453125e+00 -2.782025814056396040e+00 -7.811824679374694824e-01 8.000000000000000000e+00
-8.809302330017089844e+00 -4.281368255615234375e+00 -8.569152355194091797e-01 1.000000000000000000e+00
-1.191717910766601918e+01 -5.786671161651611328e+00 -6.942887902259826660e-01 1.200000000000000000e+01
-4.696131896972656250e+01 -2.278293609619140980e+01 -9.110854268074035645e-01 1.400000000000000000e+01
-2.421081066131591797e+00 -1.170396327972412109e+00 -7.205522060394287109e-01 2.000000000000000000e+01
-2.823446273803710938e+00 -1.363691568374634011e+00 -7.238925099372863770e-01 1.100000000000000000e+01
-3.394563674926757812e+00 -1.638803958892822044e+00 -7.327065467834472656e-01 1.100000000000000000e+01
-4.245214939117431641e+00 -2.047648668289185014e+00 -7.465052604675292969e-01 1.200000000000000000e+01
-5.717099189758300781e+00 -2.755141973495482954e+00 -7.792325615882873535e-01 9.000000000000000000e+00
-8.788293838500976562e+00 -4.233298778533936435e+00 -8.534290194511413574e-01 1.000000000000000000e+00
-1.201289272308349965e+01 -5.781414508819580078e+00 -6.986849904060363770e-01 1.600000000000000000e+01
-4.700451660156250000e+01 -2.260154151916503906e+01 -9.103873372077941895e-01 1.400000000000000000e+01
-2.426893949508666992e+00 -1.162772774696350098e+00 -7.210698723793029785e-01 1.900000000000000000e+01
-2.835220098495482954e+00 -1.357193231582642046e+00 -7.256920933723449707e-01 1.200000000000000000e+01
-3.382553815841674805e+00 -1.618471145629883035e+00 -7.288903594017028809e-01 1.100000000000000000e+01
-4.250554561614990234e+00 -2.031965494155883789e+00 -7.461923956871032715e-01 1.200000000000000000e+01
-5.728473186492919922e+00 -2.736024141311645952e+00 -7.794763445854187012e-01 9.000000000000000000e+00
-8.813804626464843750e+00 -4.207746505737304688e+00 -8.544749021530151367e-01 1.000000000000000000e+00
-1.203119754791259943e+01 -5.738586902618408203e+00 -6.985803246498107910e-01 1.200000000000000000e+01
-4.705062866210938211e+01 -2.242184257507323863e+01 -9.097590446472167969e-01 1.400000000000000000e+01
-2.416976928710937944e+00 -1.147665023803710938e+00 -7.169287800788879395e-01 2.100000000000000000e+01
-2.836419105529785156e+00 -1.345617651939392090e+00 -7.247923016548156738e-01 1.100000000000000000e+01
-3.393504381179810014e+00 -1.609177470207213911e+00 -7.300352454185485840e-01 1.200000000000000000e+01
-4.254051208496093750e+00 -2.015424489974976030e+00 -7.455666661262512207e-01 1.100000000000000000e+01
-5.745165824890136719e+00 -2.719408512115478960e+00 -7.804512977600097656e-01 7.000000000000000000e+00
-8.806827545166015625e+00 -4.166729927062988281e+00 -8.523831367492675781e-01 1.000000000000000000e+00
-1.216310787200927912e+01 -5.749475002288818359e+00 -7.050700187683105469e-01 1.600000000000000000e+01
-4.701650238037108664e+01 -2.220452308654785156e+01 -9.075949192047119141e-01 1.400000000000000000e+01
-2.424464464187622070e+00 -1.140866398811340110e+00 -7.179640531539916992e-01 2.100000000000000000e+01
-2.844625949859619141e+00 -1.337366700172424094e+00 -7.256920933723449707e-01 1.100000000000000000e+01
-3.397324085235596147e+00 -1.596487164497375044e+00 -7.296535968780517578e-01 1.200000000000000000e+01
-4.246755599975585938e+00 -1.993846654891967995e+00 -7.430636882781982422e-01 1.100000000000000000e+01
-5.760015010833740234e+00 -2.701866626739501953e+00 -7.811824679374694824e-01 8.000000000000000000e+00
-8.828534126281738281e+00 -4.139346122741699219e+00 -8.530803918838500977e-01 1.000000000000000000e+00
-1.223917198181151988e+01 -5.733246803283691406e+00 -7.083148360252380371e-01 2.000000000000000000e+01
-4.706474685668945312e+01 -2.202670669555664062e+01 -9.070364832878112793e-01 1.400000000000000000e+01
-2.433684587478638139e+00 -1.134845733642577903e+00 -7.195169329643249512e-01 1.900000000000000000e+01
-2.835145473480225053e+00 -1.320845365524291992e+00 -7.220928668975830078e-01 1.100000000000000000e+01
-3.420673608779906782e+00 -1.592906236648560014e+00 -7.334697842597961426e-01 1.200000000000000000e+01
-4.260853290557861328e+00 -1.982343673706054910e+00 -7.443152070045471191e-01 1.100000000000000000e+01
-5.762210369110107422e+00 -2.678397178649901900e+00 -7.802075147628784180e-01 8.000000000000000000e+00
-8.835701942443847656e+00 -4.105145454406738281e+00 -8.523831367492675781e-01 1.000000000000000000e+00
-1.235693645477294922e+01 -5.735898971557617188e+00 -7.139671444892883301e-01 1.200000000000000000e+01
-4.707966613769531250e+01 -2.183368110656737926e+01 -9.058496952056884766e-01 1.400000000000000000e+01
-2.439384698867797852e+00 -1.127153992652893066e+00 -7.200345993041992188e-01 2.100000000000000000e+01
-2.841508150100708008e+00 -1.311757564544677956e+00 -7.225427627563476562e-01 1.200000000000000000e+01
-3.413734674453734907e+00 -1.575198292732238992e+00 -7.307984232902526855e-01 1.200000000000000000e+01
-4.271335124969482422e+00 -1.969112396240233931e+00 -7.449409365653991699e-01 1.100000000000000000e+01
-5.753494262695313388e+00 -2.649962425231934038e+00 -7.777701616287231445e-01 9.000000000000000000e+00
-8.860836029052734375e+00 -4.079277515411376953e+00 -8.534290194511413574e-01 1.000000000000000000e+00
-1.246760940551757990e+01 -5.734459877014160156e+00 -7.192007303237915039e-01 8.000000000000000000e+00
-4.709744644165039062e+01 -2.164249038696289062e+01 -9.047327637672424316e-01 1.400000000000000000e+01
-2.439791440963745117e+00 -1.117023706436157005e+00 -7.189993262290954590e-01 1.900000000000000000e+01
-2.854930400848389116e+00 -1.305883884429932085e+00 -7.247923016548156738e-01 1.200000000000000000e+01
-3.406713962554932085e+00 -1.557558298110961914e+00 -7.281271219253540039e-01 1.200000000000000000e+01
-4.281775951385498047e+00 -1.955832242965698020e+00 -7.455666661262512207e-01 1.100000000000000000e+01
-5.762709140777587891e+00 -2.629862785339355025e+00 -7.777701616287231445e-01 9.000000000000000000e+00
-8.831516265869140625e+00 -4.028477668762207031e+00 -8.492455482482910156e-01 1.000000000000000000e+00
-1.256388282775879084e+01 -5.725691318511962891e+00 -7.235969305038452148e-01 8.000000000000000000e+00
-4.718362808227539062e+01 -2.148292922973633168e+01 -9.049421548843383789e-01 1.400000000000000000e+01
-2.433119773864746094e+00 -1.103712081909179910e+00 -7.158935070037841797e-01 1.900000000000000000e+01
-4.858506011962891336e+01 -2.202893829345703125e+01 9.311556816101074219e-01 6.300000000000000000e+01
-2.855921506881713867e+00 -1.294301509857177956e+00 -7.238925099372863770e-01 1.200000000000000000e+01
-3.417495012283325195e+00 -1.548087358474731001e+00 -7.292720079421997070e-01 1.100000000000000000e+01
-4.288577079772949219e+00 -1.940874099731445090e+00 -7.455666661262512207e-01 1.100000000000000000e+01
-5.773663043975830078e+00 -2.610548973083496094e+00 -7.780138850212097168e-01 1.100000000000000000e+01
-8.841893196105957031e+00 -3.995984315872191939e+00 -8.488969206809997559e-01 1.000000000000000000e+00
-1.261473751068115057e+01 -5.695772647857666016e+00 -7.253763675689697266e-01 1.200000000000000000e+01
-4.712343978881835938e+01 -2.125724983215332031e+01 -9.023592472076416016e-01 1.400000000000000000e+01
-2.435195684432982954e+00 -1.094420313835144043e+00 -7.153758406639099121e-01 1.900000000000000000e+01
-2.863977432250977007e+00 -1.285921096801758035e+00 -7.247923016548156738e-01 1.200000000000000000e+01
-3.424669027328491211e+00 -1.536952495574950950e+00 -7.296535968780517578e-01 1.200000000000000000e+01
-4.291720867156982422e+00 -1.924275994300842063e+00 -7.449409365653991699e-01 1.100000000000000000e+01
-5.784552097320556641e+00 -2.591190814971923828e+00 -7.782576084136962891e-01 1.100000000000000000e+01
-8.830329895019531250e+00 -3.953697443008422852e+00 -8.464565873146057129e-01 1.000000000000000000e+00
-1.264912796020507990e+01 -5.658228397369384766e+00 -7.262137532234191895e-01 1.200000000000000000e+01
-4.719735717773438211e+01 -2.109262847900390980e+01 -9.023592472076416016e-01 1.400000000000000000e+01
-2.445870161056518999e+00 -1.089483141899109109e+00 -7.174463868141174316e-01 1.900000000000000000e+01
-2.857543706893920898e+00 -1.271662831306457964e+00 -7.220928668975830078e-01 1.100000000000000000e+01
-3.433334589004517046e+00 -1.527183294296265093e+00 -7.304168343544006348e-01 1.200000000000000000e+01
-4.283637046813964844e+00 -1.903615951538085938e+00 -7.424379587173461914e-01 1.100000000000000000e+01
-5.780412673950195312e+00 -2.566355705261230025e+00 -7.765514850616455078e-01 9.000000000000000000e+00
-8.865245819091796875e+00 -3.934091091156005859e+00 -8.485482931137084961e-01 1.000000000000000000e+00
-1.274998569488525035e+01 -5.652678489685058594e+00 -7.309239506721496582e-01 8.000000000000000000e+00
-4.720122146606445312e+01 -2.090684700012207031e+01 -9.011026620864868164e-01 1.400000000000000000e+01
-2.449658393859862837e+00 -1.080938816070557085e+00 -7.174463868141174316e-01 2.000000000000000000e+01
-2.867314577102661133e+00 -1.264038681983947976e+00 -7.234426140785217285e-01 1.200000000000000000e+01
-3.427865028381348100e+00 -1.510439515113831010e+00 -7.281271219253540039e-01 1.200000000000000000e+01
-4.288447856903076172e+00 -1.887855768203734907e+00 -7.421250939369201660e-01 1.200000000000000000e+01
-5.780250072479248047e+00 -2.542166948318481001e+00 -7.753327488899230957e-01 1.100000000000000000e+01
-8.878924369812011719e+00 -3.903121471405028853e+00 -8.485482931137084961e-01 1.000000000000000000e+00
-1.278792667388916016e+01 -5.616169452667236328e+00 -7.319706678390502930e-01 1.200000000000000000e+01
-5.156142425537108664e+01 -2.261242103576660156e+01 1.508604431152343928e+01 1.900000000000000000e+01
-2.453229427337646040e+00 -1.072809457778931108e+00 -7.174463868141174316e-01 1.900000000000000000e+01
-2.873276233673096147e+00 -1.255303502082824929e+00 -7.238925099372863770e-01 1.200000000000000000e+01
-3.425658226013184038e+00 -1.495921373367310014e+00 -7.266006469726562500e-01 1.200000000000000000e+01
-4.303737640380859375e+00 -1.877573847770690918e+00 -7.436894178390502930e-01 1.200000000000000000e+01
-5.786828517913818359e+00 -2.522191762924193892e+00 -7.750890254974365234e-01 1.100000000000000000e+01
-8.877206802368164062e+00 -3.867290496826171875e+00 -8.471538424491882324e-01 1.000000000000000000e+00
-1.290170860290526988e+01 -5.615178585052490234e+00 -7.374136447906494141e-01 8.000000000000000000e+00
-5.267111968994141336e+01 -2.291298675537109020e+01 1.326086425781250000e+01 1.900000000000000000e+01
-2.448095798492432085e+00 -1.060400366783142090e+00 -7.148581743240356445e-01 1.900000000000000000e+01
-2.881217479705810991e+00 -1.246814131736754927e+00 -7.247923016548156738e-01 1.200000000000000000e+01
-3.427255392074584961e+00 -1.482395648956299050e+00 -7.258374094963073730e-01 1.200000000000000000e+01
-4.310265541076660156e+00 -1.862539529800415039e+00 -7.436894178390502930e-01 1.100000000000000000e+01
-5.038327407836914062e+01 -2.176104164123535156e+01 6.738643646240234375e+00 5.800000000000000000e+01
-5.790130138397216797e+00 -2.499616146087646040e+00 -7.743577957153320312e-01 1.100000000000000000e+01
-8.857723236083984375e+00 -3.822071313858031782e+00 -8.440161943435668945e-01 3.000000000000000000e+00
-1.294874286651610973e+01 -5.581968784332275391e+00 -7.389836907386779785e-01 1.200000000000000000e+01
-4.729645919799804688e+01 -2.036907196044921875e+01 -8.988687396049499512e-01 1.400000000000000000e+01
-2.457476139068603960e+00 -1.053275704383850098e+00 -7.164111137390136719e-01 1.900000000000000000e+01
-2.878818035125731978e+00 -1.232673645019531028e+00 -7.229927182197570801e-01 1.200000000000000000e+01
-3.443751335144042969e+00 -1.473859906196594016e+00 -7.281271219253540039e-01 1.200000000000000000e+01
-4.304671287536621094e+00 -1.840539455413817915e+00 -7.414993643760681152e-01 1.200000000000000000e+01
-5.805161476135253906e+00 -2.479704618453979048e+00 -7.750890254974365234e-01 1.100000000000000000e+01
-8.908981323242187500e+00 -3.803678512573242188e+00 -8.475024700164794922e-01 1.000000000000000000e+00
-1.296640586853026988e+01 -5.530640602111816406e+00 -7.387743592262268066e-01 1.700000000000000000e+01
-5.070772933959960938e+01 -2.160776329040526988e+01 1.476924991607666016e+01 1.900000000000000000e+01
-2.457581281661986861e+00 -1.043181419372559038e+00 -7.153758406639099121e-01 1.800000000000000000e+01
-2.870544672012329102e+00 -1.217291593551635964e+00 -7.198433876037597656e-01 1.200000000000000000e+01
-3.443452358245850053e+00 -1.459531426429748979e+00 -7.269822955131530762e-01 1.200000000000000000e+01
-4.305612564086914062e+00 -1.823191404342650923e+00 -7.405607700347900391e-01 1.100000000000000000e+01
-5.799156188964843750e+00 -2.453238487243651900e+00 -7.731391191482543945e-01 1.100000000000000000e+01
-8.889172554016113281e+00 -3.758590698242187944e+00 -8.443648219108581543e-01 1.000000000000000000e+00
-1.302058982849120916e+01 -5.500112533569335938e+00 -7.407631278038024902e-01 2.100000000000000000e+01
-5.078302764892578125e+01 -2.142026329040526988e+01 1.476821517944335938e+01 1.900000000000000000e+01
-2.473492622375487837e+00 -1.040268540382385032e+00 -7.189993262290954590e-01 1.500000000000000000e+01
-2.878158807754517046e+00 -1.209275484085083008e+00 -7.207431793212890625e-01 1.200000000000000000e+01
-3.441033124923706055e+00 -1.445063948631287065e+00 -7.254558205604553223e-01 1.200000000000000000e+01
-4.315278053283691406e+00 -1.810431838035583052e+00 -7.411864995956420898e-01 1.200000000000000000e+01
-5.810921192169188565e+00 -2.435528993606566939e+00 -7.736265659332275391e-01 1.100000000000000000e+01
-8.908938407897949219e+00 -3.732171773910522017e+00 -8.450620770454406738e-01 1.000000000000000000e+00
-1.306455039978026988e+01 -5.467699527740479404e+00 -7.422285079956054688e-01 2.100000000000000000e+01
-2.477108716964722124e+00 -1.031628131866455078e+00 -7.189993262290954590e-01 1.500000000000000000e+01
-2.887760162353516069e+00 -1.201467156410217063e+00 -7.220928668975830078e-01 1.100000000000000000e+01
-3.444243431091309038e+00 -1.432289838790893999e+00 -7.250741720199584961e-01 1.200000000000000000e+01
-4.341637611389160156e+00 -1.803694128990172896e+00 -7.446280717849731445e-01 1.200000000000000000e+01
-5.808386802673339844e+00 -2.410664558410644975e+00 -7.721641659736633301e-01 1.100000000000000000e+01
-8.903508186340332031e+00 -3.693416833877563032e+00 -8.433189392089843750e-01 1.000000000000000000e+00
-1.313890933990479049e+01 -5.445001602172851562e+00 -7.453686594963073730e-01 2.100000000000000000e+01
-5.126642227172852273e+01 -2.123524665832519887e+01 1.281096267700194957e+01 1.800000000000000000e+01
-5.230928421020507812e+01 -2.164582633972167969e+01 1.516886615753174006e+01 2.000000000000000000e+01
-2.476944446563721147e+00 -1.021934509277343972e+00 -7.179640531539916992e-01 1.400000000000000000e+01
-2.893530130386352983e+00 -1.192627072334289995e+00 -7.225427627563476562e-01 1.200000000000000000e+01
-3.454419851303101030e+00 -1.423103928565979004e+00 -7.262190580368041992e-01 1.100000000000000000e+01
-4.332981109619140625e+00 -1.783272385597229004e+00 -7.421250939369201660e-01 1.200000000000000000e+01
-5.829200267791748047e+00 -2.396674156188964844e+00 -7.738703489303588867e-01 9.000000000000000000e+00
-8.893592834472656250e+00 -3.654783725738524947e+00 -8.412272334098815918e-01 1.000000000000000000e+00
-1.314765548706055043e+01 -5.397608757019042969e+00 -7.448453307151794434e-01 1.700000000000000000e+01
-5.133678054809570312e+01 -2.105474853515625000e+01 1.486760139465332031e+01 1.900000000000000000e+01
-2.485861778259276900e+00 -1.015473723411560059e+00 -7.195169329643249512e-01 1.300000000000000000e+01
-2.903088331222534180e+00 -1.184728384017943892e+00 -7.238925099372863770e-01 1.100000000000000000e+01
-3.450277328491210938e+00 -1.407329678535460982e+00 -7.243109345436096191e-01 1.200000000000000000e+01
-4.326374053955078125e+00 -1.762918591499329057e+00 -7.399350404739379883e-01 1.100000000000000000e+01
-5.839369297027587891e+00 -2.377060174942017046e+00 -7.741140723228454590e-01 1.100000000000000000e+01
-8.917368888854980469e+00 -3.628222227096558061e+00 -8.422731161117553711e-01 1.000000000000000000e+00
-1.323117542266846058e+01 -5.378004074096679688e+00 -7.485088706016540527e-01 1.200000000000000000e+01
-2.485984802246094194e+00 -1.004907846450806108e+00 -7.184816598892211914e-01 1.100000000000000000e+01
-2.891148328781127930e+00 -1.167512893676758035e+00 -7.198433876037597656e-01 1.300000000000000000e+01
-3.464514970779418945e+00 -1.398348331451416016e+00 -7.262190580368041992e-01 1.100000000000000000e+01
-4.338302612304688388e+00 -1.749266028404236062e+00 -7.408736348152160645e-01 1.200000000000000000e+01
-5.851725101470947266e+00 -2.357125282287598100e+00 -7.746015191078186035e-01 1.100000000000000000e+01
-8.919518470764160156e+00 -3.591049432754517046e+00 -8.412272334098815918e-01 1.000000000000000000e+00
-1.318779659271240057e+01 -5.304133892059326172e+00 -7.449499964714050293e-01 8.000000000000000000e+00
-5.095911407470703125e+01 -2.047510337829589844e+01 1.471541595458984020e+01 1.900000000000000000e+01
-2.487683773040771040e+00 -9.955062270164489746e-01 -7.179640531539916992e-01 1.000000000000000000e+01
-2.893396615982056108e+00 -1.156690359115601030e+00 -7.193934917449951172e-01 1.100000000000000000e+01
-3.463905572891234907e+00 -1.384061098098755105e+00 -7.250741720199584961e-01 1.200000000000000000e+01
-4.346217155456542969e+00 -1.734844088554382102e+00 -7.411864995956420898e-01 1.100000000000000000e+01
-5.823039531707763672e+00 -2.321979284286499023e+00 -7.697267532348632812e-01 1.100000000000000000e+01
-8.913491249084472656e+00 -3.552516222000122070e+00 -8.394840955734252930e-01 3.000000000000000000e+00
-1.335467815399169922e+01 -5.317172050476074219e+00 -7.533237338066101074e-01 8.000000000000000000e+00
-5.117025375366210938e+01 -2.034243011474609020e+01 1.475475597381591975e+01 1.900000000000000000e+01
-2.496531963348389116e+00 -9.889509677886962891e-01 -7.195169329643249512e-01 1.100000000000000000e+01
-2.899228572845458984e+00 -1.147300601005553977e+00 -7.198433876037597656e-01 1.200000000000000000e+01
-3.459587574005126953e+00 -1.368350863456726074e+00 -7.231661081314086914e-01 1.200000000000000000e+01
-4.357757568359375000e+00 -1.721840143203734907e+00 -7.421250939369201660e-01 1.200000000000000000e+01
-5.820030689239501953e+00 -2.297266006469727007e+00 -7.682643532752990723e-01 1.100000000000000000e+01
-8.922130584716796875e+00 -3.519918203353881836e+00 -8.391354680061340332e-01 3.000000000000000000e+00
