-2.794351100921630859e+00 3.819395303726195845e+00 -5.810730457305908203e-01 1.100000000000000000e+01
-3.684894084930419922e+00 5.038458824157714844e+00 -5.461179018020629883e-01 8.000000000000000000e+00
-5.558829307556152344e+00 7.606313228607177734e+00 -4.937373995780944824e-01 1.000000000000000000e+00
-1.104806613922118963e+01 1.512848377227783025e+01 -3.269882798194885254e-01 3.000000000000000000e+00
-1.370265722274780051e+00 1.881861567497252974e+00 -6.237539052963256836e-01 8.000000000000000000e+00
-1.568468213081360085e+00 2.155644893646239790e+00 -6.154660582542419434e-01 1.600000000000000000e+01
-1.833827853202820046e+00 2.521270275115966797e+00 -6.060093641281127930e-01 1.100000000000000000e+01
-2.212421655654906782e+00 3.044019699096680132e+00 -5.960153341293334961e-01 1.000000000000000000e+01
-2.782168388366699219e+00 3.830732107162476030e+00 -5.813167691230773926e-01 1.100000000000000000e+01
-3.670795917510985884e+00 5.056127548217773438e+00 -5.466408133506774902e-01 9.000000000000000000e+00
-5.508787631988525391e+00 7.593338012695313388e+00 -4.916439652442932129e-01 1.000000000000000000e+00
-1.099519062042235973e+01 1.516695594787598012e+01 -3.269882798194885254e-01 3.000000000000000000e+00
-1.368545532226562944e+00 1.892657041549683061e+00 -6.258244514465332031e-01 7.000000000000000000e+00
-1.560169935226439986e+00 2.159254789352416992e+00 -6.150161623954772949e-01 1.600000000000000000e+01
-1.823157906532288042e+00 2.524154663085937944e+00 -6.052461266517639160e-01 1.100000000000000000e+01
-2.196534872055054155e+00 3.043330907821654829e+00 -5.944509506225585938e-01 9.000000000000000000e+00
-2.760160446166992188e+00 3.827056884765625000e+00 -5.793668627738952637e-01 1.100000000000000000e+01
-3.647017717361450195e+00 5.058575630187988281e+00 -5.455949306488037109e-01 6.000000000000000000e+00
-5.495251655578613281e+00 7.627768993377686435e+00 -4.926906824111937921e-01 1.000000000000000000e+00
-1.094483470916748047e+01 1.520333385467528942e+01 -3.269882798194885254e-01 3.000000000000000000e+00
-1.363057136535644975e+00 1.898992061614990012e+00 -6.263421177864074707e-01 7.000000000000000000e+00
-1.553758978843688965e+00 2.166271209716796875e+00 -6.154660582542419434e-01 1.400000000000000000e+01
-1.808616042137145996e+00 2.522525548934936968e+00 -6.033380627632141113e-01 1.100000000000000000e+01
-2.190500020980834961e+00 3.057402849197388139e+00 -5.957024693489074707e-01 1.000000000000000000e+01
-2.749095916748046875e+00 3.839896440505981001e+00 -5.798543095588684082e-01 1.100000000000000000e+01
-3.629337787628173828e+00 5.071275234222412109e+00 -5.455949306488037109e-01 6.000000000000000000e+00
-5.491827964782714844e+00 7.679396152496337891e+00 -4.947841167449951172e-01 2.000000000000000000e+00
-1.089169788360596058e+01 1.524144649505615057e+01 -3.269882798194885254e-01 3.000000000000000000e+00
-1.349363327026366965e+00 1.894533991813659890e+00 -6.232362389564514160e-01 9.000000000000000000e+00
-1.551458597183227983e+00 2.179889917373656782e+00 -6.177155971527099609e-01 1.500000000000000000e+01
-1.795943975448607954e+00 2.524338483810424805e+00 -6.021931767463684082e-01 1.100000000000000000e+01
-2.174701213836669922e+00 3.058970928192139116e+00 -5.944509506225585938e-01 9.000000000000000000e+00
-2.733853816986083984e+00 3.848328351974486861e+00 -5.796105861663818359e-01 1.100000000000000000e+01
-3.606112003326416016e+00 5.078045368194580078e+00 -5.448976755142211914e-01 9.000000000000000000e+00
-5.440527915954589844e+00 7.666896820068359375e+00 -4.926906824111937921e-01 1.000000000000000000e+00
-1.351663827896117942e+00 1.911852121353148970e+00 -6.273773908615112305e-01 1.000000000000000000e+01
-1.534844517707824929e+00 2.172559261322021040e+00 -6.141163706779479980e-01 1.500000000000000000e+01
-1.789386510848999023e+00 2.533799409866333008e+00 -6.029564142227172852e-01 1.100000000000000000e+01
-2.154898405075072798e+00 3.053631544113159180e+00 -5.919480323791503906e-01 9.000000000000000000e+00
-2.727267980575561968e+00 3.867581605911254883e+00 -5.810730457305908203e-01 9.000000000000000000e+00
-3.588364362716674805e+00 5.090602397918701172e+00 -5.448976755142211914e-01 9.000000000000000000e+00
-5.402231216430664062e+00 7.669512271881104404e+00 -4.916439652442932129e-01 1.000000000000000000e+00
-1.072480583190917969e+01 1.523723220825194957e+01 -3.252430558204650879e-01 3.000000000000000000e+00
-1.340876579284667969e+00 1.909999370574950950e+00 -6.253067851066589355e-01 1.400000000000000000e+01
-1.522035837173461914e+00 2.169660329818726030e+00 -6.118668913841247559e-01 1.600000000000000000e+01
-1.785483121871948020e+00 2.546149015426636186e+00 -6.044828891754150391e-01 1.100000000000000000e+01
-2.153829097747803178e+00 3.073702573776245117e+00 -5.944509506225585938e-01 9.000000000000000000e+00
-2.708734512329102007e+00 3.868473768234252930e+00 -5.798543095588684082e-01 1.100000000000000000e+01
-3.574891090393065962e+00 5.107370376586914062e+00 -5.454206466674804688e-01 8.000000000000000000e+00
-5.381347179412841797e+00 7.693931579589843750e+00 -4.920626580715178888e-01 1.000000000000000000e+00
-1.061694145202637074e+01 1.519076061248778942e+01 -3.234978020191193182e-01 3.000000000000000000e+00
-1.340828061103821023e+00 1.924178242683411089e+00 -6.284126639366149902e-01 1.300000000000000000e+01
-1.521134495735168013e+00 2.184555292129517046e+00 -6.145662665367126465e-01 1.700000000000000000e+01
-1.772098183631896973e+00 2.545920610427856001e+00 -6.029564142227172852e-01 1.100000000000000000e+01
-2.140830993652344194e+00 3.077958822250366211e+00 -5.938252210617065430e-01 1.000000000000000000e+01
-2.680486679077147993e+00 3.856714725494385210e+00 -5.766857266426086426e-01 8.000000000000000000e+00
-3.559314966201781782e+00 5.123090744018554688e+00 -5.457692742347717285e-01 6.000000000000000000e+00
-5.302063465118408203e+00 7.637199401855468750e+00 -4.872477650642395020e-01 1.000000000000000000e+00
-1.062084197998047053e+01 1.530988025665283025e+01 -3.252430558204650879e-01 3.000000000000000000e+00
-1.324977278709412065e+00 1.916367411613463911e+00 -6.242715120315551758e-01 1.700000000000000000e+01
-1.516440629959106001e+00 2.194925785064696822e+00 -6.159160137176513672e-01 1.500000000000000000e+01
-1.760523676872252974e+00 2.549167633056641069e+00 -6.021931767463684082e-01 1.100000000000000000e+01
-2.135145187377930132e+00 3.093913793563843218e+00 -5.953895449638366699e-01 1.000000000000000000e+01
-2.673094749450684038e+00 3.876318454742432085e+00 -5.781481862068176270e-01 8.000000000000000000e+00
-3.540513992309569868e+00 5.136101722717285156e+00 -5.457692742347717285e-01 6.000000000000000000e+00
-5.312557697296142578e+00 7.712504386901854581e+00 -4.908066093921660822e-01 1.000000000000000000e+00
-1.046715068817139027e+01 1.520704460144042969e+01 -3.222412467002869207e-01 3.000000000000000000e+00
-1.315000534057616965e+00 1.916202187538146973e+00 -6.227186322212219238e-01 1.900000000000000000e+01
-1.508769631385803001e+00 2.200205802917480025e+00 -6.159160137176513672e-01 1.500000000000000000e+01
-1.751614689826965110e+00 2.555297613143920898e+00 -6.021931767463684082e-01 1.100000000000000000e+01
-2.118750810623168945e+00 3.093199253082274947e+00 -5.938252210617065430e-01 9.000000000000000000e+00
-2.659547567367554155e+00 3.885625839233397993e+00 -5.781481862068176270e-01 8.000000000000000000e+00
-3.509063243865966797e+00 5.128696918487548828e+00 -5.436775088310241699e-01 8.000000000000000000e+00
-5.263058662414550781e+00 7.698026657104492188e+00 -4.887131452560424805e-01 1.000000000000000000e+00
-1.039821243286132990e+01 1.522037315368651988e+01 -3.217525780200958252e-01 3.000000000000000000e+00
-1.303533673286437988e+00 1.912342548370361106e+00 -6.201304197311401367e-01 2.000000000000000000e+01
-1.497461915016174094e+00 2.198492527008057085e+00 -6.141163706779479980e-01 1.600000000000000000e+01
-1.743578314781188965e+00 2.560787677764893022e+00 -6.021931767463684082e-01 1.200000000000000000e+01
-2.102355718612670898e+00 3.090041160583496094e+00 -5.919480323791503906e-01 9.000000000000000000e+00
-2.649559497833251953e+00 3.897245168685913086e+00 -5.786356329917907715e-01 8.000000000000000000e+00
-3.488454103469849077e+00 5.133104324340820312e+00 -5.429802536964416504e-01 6.000000000000000000e+00
-5.238848686218261719e+00 7.714523315429688388e+00 -4.887131452560424805e-01 1.000000000000000000e+00
-1.029420280456542969e+01 1.517022991180419922e+01 -3.200073242187500000e-01 3.000000000000000000e+00
-1.302263021469115989e+00 1.924881458282470925e+00 -6.227186322212219238e-01 1.900000000000000000e+01
-1.493052840232848899e+00 2.208549499511719194e+00 -6.154660582542419434e-01 1.600000000000000000e+01
-1.736827373504638894e+00 2.570111751556396040e+00 -6.029564142227172852e-01 1.200000000000000000e+01
-2.091556787490845171e+00 3.097360849380493164e+00 -5.919480323791503906e-01 9.000000000000000000e+00
-2.634829044342041016e+00 3.904824495315552202e+00 -5.783919095993041992e-01 1.000000000000000000e+01
-3.473857402801514116e+00 5.150205135345458984e+00 -5.435032248497009277e-01 8.000000000000000000e+00
-5.182865142822265625e+00 7.689702033996582031e+00 -4.859916865825653076e-01 1.000000000000000000e+00
-1.027022933959960938e+01 1.524919509887694957e+01 -3.209148347377777100e-01 3.000000000000000000e+00
-1.302735686302185059e+00 1.940869688987731934e+00 -6.263421177864074707e-01 1.700000000000000000e+01
-1.475178718566894975e+00 2.199441194534302202e+00 -6.114169359207153320e-01 1.500000000000000000e+01
-1.723022699356079102e+00 2.569937467575072798e+00 -6.014299392700195312e-01 1.300000000000000000e+01
-2.080190181732178178e+00 3.105005979537963867e+00 -5.919480323791503906e-01 9.000000000000000000e+00
-2.610560894012451172e+00 3.899609088897705078e+00 -5.761982798576354980e-01 8.000000000000000000e+00
-3.452741384506226030e+00 5.159591197967529297e+00 -5.431545972824096680e-01 8.000000000000000000e+00
-5.154645919799804688e+00 7.708646774291992188e+00 -4.859916865825653076e-01 1.000000000000000000e+00
-1.020760345458984020e+01 1.527675819396973012e+01 -3.207054138183593750e-01 3.000000000000000000e+00
-1.291668772697448953e+00 1.938974142074584961e+00 -6.242715120315551758e-01 1.500000000000000000e+01
-1.473971128463744895e+00 2.214310169219971147e+00 -6.141163706779479980e-01 1.500000000000000000e+01
-1.714041352272033913e+00 2.575936317443848100e+00 -6.014299392700195312e-01 1.300000000000000000e+01
-2.075901508331298828e+00 3.122117996215819868e+00 -5.938252210617065430e-01 9.000000000000000000e+00
-2.598031282424927202e+00 3.910351514816284180e+00 -5.764420032501220703e-01 1.000000000000000000e+01
-3.421482801437377930e+00 5.151695728302001953e+00 -5.410628318786621094e-01 6.000000000000000000e+00
-5.136541843414306641e+00 7.739905834197998047e+00 -4.868290722370148260e-01 1.000000000000000000e+00
-1.013211250305175959e+01 1.527896595001221058e+01 -3.200073242187500000e-01 3.000000000000000000e+00
-1.282761812210083008e+00 1.940248131752013938e+00 -6.232362389564514160e-01 1.600000000000000000e+01
-1.469455361366271973e+00 2.224319696426392046e+00 -6.154660582542419434e-01 1.300000000000000000e+01
-1.699629902839661089e+00 2.573712348937987837e+00 -5.995218753814697266e-01 1.200000000000000000e+01
-2.062814712524414062e+00 3.126047611236571822e+00 -5.931994915008544922e-01 9.000000000000000000e+00
-2.588736772537231001e+00 3.926025390625000000e+00 -5.774169564247131348e-01 1.000000000000000000e+01
-3.403479099273682085e+00 5.163607597351074219e+00 -5.410628318786621094e-01 8.000000000000000000e+00
-5.094112873077392578e+00 7.734436988830566406e+00 -4.853636622428894043e-01 1.000000000000000000e+00
-1.003914070129395064e+01 1.525410556793213068e+01 -3.187507390975952148e-01 3.000000000000000000e+00
-1.273861646652221902e+00 1.941483616828918013e+00 -6.222009658813476562e-01 1.600000000000000000e+01
-1.461682081222533958e+00 2.229435682296752930e+00 -6.154660582542419434e-01 1.400000000000000000e+01
-1.699244856834412065e+00 2.592765808105469194e+00 -6.025748252868652344e-01 1.200000000000000000e+01
-2.036739110946654829e+00 3.110093593597412109e+00 -5.888193249702453613e-01 9.000000000000000000e+00
-2.575016736984252930e+00 3.935037851333618164e+00 -5.774169564247131348e-01 1.000000000000000000e+01
-3.383252620697021040e+00 5.172122001647949219e+00 -5.407142043113708496e-01 6.000000000000000000e+00
-5.069269180297851562e+00 7.755515098571777344e+00 -4.855729937553405762e-01 1.000000000000000000e+00
-9.985833168029785156e+00 1.528905582427979049e+01 -3.187507390975952148e-01 3.000000000000000000e+00
-1.268844962120055930e+00 1.949377655982970969e+00 -6.232362389564514160e-01 1.700000000000000000e+01
-1.445000886917114036e+00 2.221709012985229048e+00 -6.118668913841247559e-01 1.200000000000000000e+01
-1.686520099639893022e+00 2.594038486480712891e+00 -6.014299392700195312e-01 1.100000000000000000e+01
-2.029630899429320845e+00 3.124163627624512163e+00 -5.900707840919494629e-01 9.000000000000000000e+00
-2.556253194808959961e+00 3.937789201736450195e+00 -5.764420032501220703e-01 1.000000000000000000e+01
-3.367526769638061968e+00 5.189501285552979404e+00 -5.412371754646301270e-01 8.000000000000000000e+00
-5.027770519256591797e+00 7.753932952880859375e+00 -4.843169450759888250e-01 1.000000000000000000e+00
-9.881885528564453125e+00 1.525171089172362926e+01 -3.172149360179901123e-01 3.000000000000000000e+00
-1.264128923416137917e+00 1.957040309906006081e+00 -6.242715120315551758e-01 1.600000000000000000e+01
-1.436180114746093972e+00 2.225102186203002930e+00 -6.114169359207153320e-01 1.300000000000000000e+01
-1.673197388648987038e+00 2.593311071395874023e+00 -5.999034643173217773e-01 1.100000000000000000e+01
-2.020853996276855025e+00 3.134549856185913086e+00 -5.906965136528015137e-01 9.000000000000000000e+00
-2.546792507171630859e+00 3.953363418579102007e+00 -5.774169564247131348e-01 1.000000000000000000e+01
-3.341840505599976030e+00 5.189498901367188388e+00 -5.400170087814331055e-01 4.000000000000000000e+00
-4.983381271362304688e+00 7.744562625885009766e+00 -4.826421737670897882e-01 1.000000000000000000e+00
-9.861031532287597656e+00 1.533657264709473012e+01 -3.182620704174041748e-01 3.000000000000000000e+00
-1.260060667991637962e+00 1.964254140853882058e+00 -6.253067851066589355e-01 1.500000000000000000e+01
-1.431285977363585982e+00 2.232884407043457031e+00 -6.123167872428894043e-01 1.300000000000000000e+01
-1.667160391807555930e+00 2.601860761642456055e+00 -6.006667017936706543e-01 1.100000000000000000e+01
-2.015257120132445845e+00 3.147537469863892046e+00 -5.919480323791503906e-01 9.000000000000000000e+00
-2.521522283554077148e+00 3.941278934478760210e+00 -5.744920969009399414e-01 1.000000000000000000e+01
-3.331961393356322798e+00 5.210042953491210938e+00 -5.410628318786621094e-01 4.000000000000000000e+00
-4.954724311828613281e+00 7.753448486328125000e+00 -4.822235107421875000e-01 1.000000000000000000e+00
-9.758991241455078125e+00 1.528320598602294922e+01 -3.165168464183806818e-01 3.000000000000000000e+00
-1.248009443283081055e+00 1.960492253303528054e+00 -6.227186322212219238e-01 1.600000000000000000e+01
-1.424528956413269043e+00 2.239511251449584961e+00 -6.127666831016540527e-01 1.300000000000000000e+01
-1.653854370117187944e+00 2.601037502288817915e+00 -5.991402268409729004e-01 1.100000000000000000e+01
-2.006376504898070845e+00 3.157887458801269975e+00 -5.925737619400024414e-01 9.000000000000000000e+00
-2.514133214950561968e+00 3.960112094879149947e+00 -5.759544968605041504e-01 1.000000000000000000e+01
-3.298808574676514116e+00 5.198090553283691406e+00 -5.386224985122680664e-01 6.000000000000000000e+00
-4.966135025024414062e+00 7.831418037414550781e+00 -4.859916865825653076e-01 1.000000000000000000e+00
-9.705583572387695312e+00 1.531717872619629084e+01 -3.165168464183806818e-01 3.000000000000000000e+00
-1.240126729011536089e+00 1.963203430175781028e+00 -6.222009658813476562e-01 1.800000000000000000e+01
-1.418783187866210938e+00 2.247766017913817915e+00 -6.136664748191833496e-01 1.400000000000000000e+01
-1.650003075599669966e+00 2.615096569061278853e+00 -6.010483503341674805e-01 1.200000000000000000e+01
-1.987966656684875044e+00 3.153174877166748047e+00 -5.903836488723754883e-01 9.000000000000000000e+00
-2.502410650253295898e+00 3.972223043441772017e+00 -5.764420032501220703e-01 1.000000000000000000e+01
-3.276396989822388139e+00 5.202830314636229581e+00 -5.379252433776855469e-01 6.000000000000000000e+00
-4.900475025177001953e+00 7.787849426269531250e+00 -4.822235107421875000e-01 1.000000000000000000e+00
-9.613739013671875000e+00 1.529002094268799006e+01 -3.152602612972260077e-01 3.000000000000000000e+00
-1.235318303108215110e+00 1.970794081687927024e+00 -6.232362389564514160e-01 1.700000000000000000e+01
-1.408859610557555930e+00 2.249401569366455078e+00 -6.127666831016540527e-01 1.300000000000000000e+01
-1.641906499862670898e+00 2.622504234313964844e+00 -6.014299392700195312e-01 1.100000000000000000e+01
-1.982186198234558105e+00 3.168468236923218218e+00 -5.919480323791503906e-01 9.000000000000000000e+00
-2.482216358184814009e+00 3.970834255218505859e+00 -5.749795436859130859e-01 1.000000000000000000e+01
-3.275108814239501953e+00 5.241269588470458984e+00 -5.407142043113708496e-01 8.000000000000000000e+00
-4.864798069000244141e+00 7.791354656219482422e+00 -4.813861250877379816e-01 1.000000000000000000e+00
-9.545489311218261719e+00 1.529973316192626953e+01 -3.147715926170349121e-01 3.000000000000000000e+00
-1.230126738548279031e+00 1.978589773178101030e+00 -6.242715120315551758e-01 2.000000000000000000e+01
-1.395463943481445090e+00 2.246273517608643022e+00 -6.105171442031860352e-01 1.200000000000000000e+01
-1.627104997634887917e+00 2.620165348052978960e+00 -5.995218753814697266e-01 1.100000000000000000e+01
-1.954937100410460982e+00 3.150534629821776900e+00 -5.872550010681152344e-01 8.000000000000000000e+00
-2.465553760528564009e+00 3.976531028747559038e+00 -5.744920969009399414e-01 1.000000000000000000e+01
-3.251677989959716797e+00 5.246464252471923828e+00 -5.400170087814331055e-01 6.000000000000000000e+00
-4.821486473083496094e+00 7.785360813140869141e+00 -4.799207150936127264e-01 1.000000000000000000e+00
-9.489348411560058594e+00 1.533461666107177912e+01 -3.147715926170349121e-01 3.000000000000000000e+00
-1.221184134483336958e+00 1.979583263397217019e+00 -6.232362389564514160e-01 1.800000000000000000e+01
-1.386591911315917969e+00 2.249472141265869141e+00 -6.100672483444213867e-01 1.200000000000000000e+01
-1.612799525260925071e+00 2.617471933364868164e+00 -5.976137518882751465e-01 1.200000000000000000e+01
-1.953248620033263938e+00 3.172478437423706055e+00 -5.900707840919494629e-01 9.000000000000000000e+00
-2.453738451004027876e+00 3.988494873046875000e+00 -5.749795436859130859e-01 1.000000000000000000e+01
-3.229169845581055132e+00 5.250994205474854404e+00 -5.393197536468505859e-01 6.000000000000000000e+00
-4.800555229187011719e+00 7.812353610992431641e+00 -4.805487394332885742e-01 1.000000000000000000e+00
-9.414836883544921875e+00 1.533356571197509943e+01 -3.140735030174254816e-01 3.000000000000000000e+00
-1.207206964492798074e+00 1.972300052642822044e+00 -6.196128129959106445e-01 1.900000000000000000e+01
-1.389915704727173074e+00 2.272585630416870117e+00 -6.150161623954772949e-01 1.200000000000000000e+01
-1.609797239303589089e+00 2.633135795593262163e+00 -5.999034643173217773e-01 1.100000000000000000e+01
-1.938043594360352007e+00 3.172534465789794922e+00 -5.888193249702453613e-01 9.000000000000000000e+00
-2.440835237503052202e+00 3.998729944229125977e+00 -5.752233266830444336e-01 8.000000000000000000e+00
-3.198367834091186968e+00 5.241824626922607422e+00 -5.372279882431030273e-01 6.000000000000000000e+00
-4.752461433410645419e+00 7.794956684112548828e+00 -4.784553050994873047e-01 1.000000000000000000e+00
-9.357093811035156250e+00 1.535950469970702947e+01 -3.139338791370391846e-01 3.000000000000000000e+00
-1.202320575714111106e+00 1.979804396629333052e+00 -6.206480860710144043e-01 1.900000000000000000e+01
-1.371864914894104004e+00 2.260763406753540039e+00 -6.105171442031860352e-01 1.300000000000000000e+01
-1.600596070289612038e+00 2.638739109039307085e+00 -5.999034643173217773e-01 1.100000000000000000e+01
-1.927981495857238992e+00 3.180969476699829102e+00 -5.891321897506713867e-01 9.000000000000000000e+00
-2.434060573577880859e+00 4.019111633300781250e+00 -5.769294500350952148e-01 1.000000000000000000e+01
-3.182114601135253906e+00 5.256365776062011719e+00 -5.375766158103942871e-01 6.000000000000000000e+00
-4.714885711669921875e+00 7.794409275054931641e+00 -4.774085879325867254e-01 1.000000000000000000e+00
-9.276527404785156250e+00 1.534757804870604936e+01 -3.130263686180114746e-01 3.000000000000000000e+00
-1.196745991706847922e+00 1.985435009002685991e+00 -6.211656928062438965e-01 1.800000000000000000e+01
-1.361344218254088911e+00 2.260292291641234907e+00 -6.091674566268920898e-01 1.200000000000000000e+01
-1.593862175941467063e+00 2.647396326065063032e+00 -6.006667017936706543e-01 1.100000000000000000e+01
-1.915385842323303001e+00 3.183959960937500000e+00 -5.885064601898193359e-01 9.000000000000000000e+00
-2.402310848236083984e+00 3.996536254882812944e+00 -5.725421905517578125e-01 1.000000000000000000e+01
-3.160561800003052202e+00 5.260057926177979404e+00 -5.368793606758117676e-01 8.000000000000000000e+00
-4.691068649291992188e+00 7.813426494598388672e+00 -4.776179492473601740e-01 3.000000000000000000e+00
-1.192782759666443093e+00 1.994574427604675071e+00 -6.227186322212219238e-01 1.600000000000000000e+01
-1.357444286346435991e+00 2.271721839904785156e+00 -6.109670400619506836e-01 1.100000000000000000e+01
-1.586624860763550027e+00 2.656314611434936968e+00 -6.014299392700195312e-01 1.100000000000000000e+01
-1.897173523902893066e+00 3.178752899169921875e+00 -5.863163471221923828e-01 9.000000000000000000e+00
-2.384278535842895952e+00 3.998077869415283203e+00 -5.715672373771667480e-01 1.000000000000000000e+01
-3.142181396484375000e+00 5.271058559417724609e+00 -5.368793606758117676e-01 6.000000000000000000e+00
-4.663766384124755859e+00 7.829753398895263672e+00 -4.776179492473601740e-01 3.000000000000000000e+00
-9.171845436096191406e+00 1.541036510467528942e+01 -3.130263686180114746e-01 3.000000000000000000e+00
-1.182855963706969993e+00 1.993741512298583984e+00 -6.211656928062438965e-01 1.800000000000000000e+01
-1.349506258964539018e+00 2.276446342468262163e+00 -6.109670400619506836e-01 1.100000000000000000e+01
-1.572338581085205078e+00 2.653391838073730025e+00 -5.995218753814697266e-01 1.200000000000000000e+01
-1.892104744911194070e+00 3.195554494857788086e+00 -5.881935954093933105e-01 1.000000000000000000e+01
-2.378394603729248047e+00 4.020043849945068359e+00 -5.735171437263488770e-01 1.000000000000000000e+01
-3.121734380722045898e+00 5.278564453125000000e+00 -5.365307331085205078e-01 8.000000000000000000e+00
-4.622181892395020419e+00 7.821912765502929688e+00 -4.761525392532349188e-01 3.000000000000000000e+00
-9.056994438171386719e+00 1.533897113800049006e+01 -3.109320700168610174e-01 3.000000000000000000e+00
-1.173929452896117942e+00 1.994528532028198020e+00 -6.201304197311401367e-01 1.800000000000000000e+01
-1.349454879760741965e+00 2.294581413269042969e+00 -6.145662665367126465e-01 1.200000000000000000e+01
-1.565056920051574929e+00 2.662249088287353960e+00 -6.002851128578186035e-01 1.100000000000000000e+01
-1.878937602043152078e+00 3.198733091354370117e+00 -5.875678658485412598e-01 9.000000000000000000e+00
-2.364347457885742188e+00 4.028321743011474609e+00 -5.735171437263488770e-01 1.000000000000000000e+01
-3.097240447998046875e+00 5.279118537902832031e+00 -5.354849100112915039e-01 6.000000000000000000e+00
-4.608991146087645596e+00 7.862121582031250000e+00 -4.776179492473601740e-01 3.000000000000000000e+00
-9.025631904602050781e+00 1.540845298767090021e+01 -3.116999864578247070e-01 3.000000000000000000e+00
-3.134596824645996094e+01 5.351346969604492188e+01 1.661773490905762074e+01 2.700000000000000000e+01
-1.163411378860474077e+00 1.991737961769104004e+00 -6.180598735809326172e-01 1.900000000000000000e+01
-1.336926817893981934e+00 2.290628433227539062e+00 -6.123167872428894043e-01 1.200000000000000000e+01
-1.555230617523192915e+00 2.665728807449340820e+00 -5.999034643173217773e-01 1.200000000000000000e+01
-1.868319869041443093e+00 3.204946279525756836e+00 -5.875678658485412598e-01 9.000000000000000000e+00
-2.353973388671875000e+00 4.041285991668701172e+00 -5.742483735084533691e-01 1.000000000000000000e+01
-3.073702096939086914e+00 5.279029846191406250e+00 -5.344390273094177246e-01 9.000000000000000000e+00
-4.584902763366699219e+00 7.880815029144287109e+00 -4.778272807598114014e-01 1.000000000000000000e+00
-8.912177085876464844e+00 1.533111190795898082e+01 -3.095358908176422119e-01 3.000000000000000000e+00
-1.157420396804810014e+00 1.997458338737488015e+00 -6.185775399208068848e-01 1.900000000000000000e+01
-1.318182110786437988e+00 2.276730060577393022e+00 -6.073678731918334961e-01 1.100000000000000000e+01
-1.551816463470458984e+00 2.681336402893065962e+00 -6.021931767463684082e-01 1.100000000000000000e+01
-1.851187825202941895e+00 3.201188087463378906e+00 -5.856906175613403320e-01 9.000000000000000000e+00
-2.339852333068848100e+00 4.049478054046630859e+00 -5.742483735084533691e-01 8.000000000000000000e+00
-3.056252717971802202e+00 5.291451930999755859e+00 -5.346133112907409668e-01 8.000000000000000000e+00
-4.551375865936279297e+00 7.886392116546630859e+00 -4.771992564201354980e-01 1.000000000000000000e+00
-8.894568443298339844e+00 1.542449092864990057e+01 -3.107924461364746094e-01 3.000000000000000000e+00
-1.156828522682189941e+00 2.013412475585937944e+00 -6.222009658813476562e-01 1.700000000000000000e+01
-1.312739372253417969e+00 2.286616325378417969e+00 -6.087175607681274414e-01 1.200000000000000000e+01
-1.534161090850830078e+00 2.673383712768555132e+00 -5.991402268409729004e-01 1.100000000000000000e+01
-1.845338106155395952e+00 3.218233585357666016e+00 -5.875678658485412598e-01 9.000000000000000000e+00
-2.316112995147705078e+00 4.042525291442871094e+00 -5.720546841621398926e-01 1.000000000000000000e+01
-3.044759273529053178e+00 5.316449642181395596e+00 -5.360078215599060059e-01 9.000000000000000000e+00
-4.514503955841063565e+00 7.889153003692626953e+00 -4.763618707656859796e-01 1.000000000000000000e+00
-1.147880196571350098e+00 2.014081478118896040e+00 -6.211656928062438965e-01 1.800000000000000000e+01
-1.305713891983032005e+00 2.292878150939940962e+00 -6.091674566268920898e-01 1.100000000000000000e+01
-1.516078829765320046e+00 2.663367033004761186e+00 -5.957056879997253418e-01 1.000000000000000000e+01
-1.837999701499938965e+00 3.231523752212523970e+00 -5.888193249702453613e-01 9.000000000000000000e+00
-2.298064708709716797e+00 4.043681621551513672e+00 -5.710797309875488281e-01 1.000000000000000000e+01
-3.024214744567871094e+00 5.323580741882324219e+00 -5.356591939926147461e-01 9.000000000000000000e+00
-4.486938476562500000e+00 7.904863357543945312e+00 -4.763618707656859796e-01 1.000000000000000000e+00
-8.699126243591308594e+00 1.533815383911132990e+01 -3.077906370162963867e-01 3.000000000000000000e+00
-1.136089205741882102e+00 2.009667396545410156e+00 -6.185775399208068848e-01 1.900000000000000000e+01
-1.299619197845458984e+00 2.300815582275391069e+00 -6.100672483444213867e-01 1.300000000000000000e+01
-1.511599063873291016e+00 2.677190780639647993e+00 -5.976137518882751465e-01 1.100000000000000000e+01
-1.822825908660888894e+00 3.231037855148314986e+00 -5.875678658485412598e-01 1.000000000000000000e+01
-2.292708635330200195e+00 4.067242622375488281e+00 -5.732734203338623047e-01 1.000000000000000000e+01
-2.994854688644409180e+00 5.315011024475097656e+00 -5.337417721748352051e-01 9.000000000000000000e+00
-4.451478958129882812e+00 7.906554698944091797e+00 -4.755244851112365723e-01 1.000000000000000000e+00
-8.645532608032226562e+00 1.536842632293700994e+01 -3.077906370162963867e-01 3.000000000000000000e+00
-1.129067301750183105e+00 2.013620853424071822e+00 -6.185775399208068848e-01 1.900000000000000000e+01
-1.288722395896912065e+00 2.300237655639647993e+00 -6.087175607681274414e-01 1.300000000000000000e+01
-1.506081819534301980e+00 2.689302682876586914e+00 -5.991402268409729004e-01 1.100000000000000000e+01
-1.804784059524535911e+00 3.225314140319824219e+00 -5.853777527809143066e-01 1.000000000000000000e+01
-2.274622440338135210e+00 4.068290233612061435e+00 -5.722984075546264648e-01 8.000000000000000000e+00
-2.966563463211060014e+00 5.308040618896484375e+00 -5.319986343383789062e-01 9.000000000000000000e+00
-4.421905517578125000e+00 7.918557643890380859e+00 -4.753151535987854004e-01 1.000000000000000000e+00
-8.578193664550781250e+00 1.537406349182129084e+01 -3.073019683361052912e-01 3.000000000000000000e+00
-1.122383594512939009e+00 2.017354011535644975e+00 -6.185775399208068848e-01 1.900000000000000000e+01
-1.276353240013123003e+00 2.295982360839844194e+00 -6.064680218696594238e-01 1.300000000000000000e+01
-1.496201872825623003e+00 2.692566156387329102e+00 -5.987586379051208496e-01 1.000000000000000000e+01
-1.793119668960571067e+00 3.229554176330565962e+00 -5.850648880004882812e-01 9.000000000000000000e+00
-2.260155916213988814e+00 4.074074745178222656e+00 -5.720546841621398926e-01 1.000000000000000000e+01
-2.956675052642821822e+00 5.331788063049316406e+00 -5.333931446075439453e-01 9.000000000000000000e+00
-4.389814376831054688e+00 7.922695636749267578e+00 -4.746871292591094971e-01 1.000000000000000000e+00
-8.492296218872070312e+00 1.533944416046142933e+01 -3.060454130172728937e-01 2.000000000000000000e+00
-1.118134975433350053e+00 2.026333808898925781e+00 -6.201304197311401367e-01 1.700000000000000000e+01
-1.266449213027954102e+00 2.297010660171508789e+00 -6.055682301521301270e-01 1.100000000000000000e+01
-1.481108307838439941e+00 2.687455892562866211e+00 -5.964689254760742188e-01 1.100000000000000000e+01
-1.786599755287169966e+00 3.244445562362670898e+00 -5.866292715072631836e-01 1.000000000000000000e+01
-2.235394716262816939e+00 4.062808036804199219e+00 -5.693735480308532715e-01 1.000000000000000000e+01
-2.939965963363647017e+00 5.345567703247070312e+00 -5.337417721748352051e-01 9.000000000000000000e+00
-4.364056110382080078e+00 7.941471099853515625e+00 -4.748964607715607245e-01 1.000000000000000000e+00
-8.438699722290039062e+00 1.536899375915526988e+01 -3.060454130172728937e-01 2.000000000000000000e+00
-1.108626008033751997e+00 2.024946928024291992e+00 -6.185775399208068848e-01 1.900000000000000000e+01
-1.267242193222045898e+00 2.316584587097167969e+00 -6.096173524856567383e-01 1.200000000000000000e+01
-1.473130106925963911e+00 2.694075107574462891e+00 -5.968505144119262695e-01 1.100000000000000000e+01
-1.774883866310120073e+00 3.248618841171265093e+00 -5.863163471221923828e-01 9.000000000000000000e+00
-2.226665496826171875e+00 4.078910350799561435e+00 -5.705922842025756836e-01 1.000000000000000000e+01
-2.908862352371215820e+00 5.330802440643311435e+00 -5.313013792037963867e-01 9.000000000000000000e+00
-4.339609146118164062e+00 7.959406375885009766e+00 -4.751058220863341730e-01 1.000000000000000000e+00
-8.351336479187011719e+00 1.533016395568848012e+01 -3.047190308570861816e-01 2.000000000000000000e+00
-1.096941947937011941e+00 2.020315647125244141e+00 -6.159893274307250977e-01 1.800000000000000000e+01
-1.260077357292175071e+00 2.322706937789916992e+00 -6.100672483444213867e-01 1.400000000000000000e+01
-1.461845397949218972e+00 2.695749282836914062e+00 -5.960872769355773926e-01 1.200000000000000000e+01
-1.765415430068969949e+00 3.258268117904663086e+00 -5.869421362876892090e-01 9.000000000000000000e+00
-2.205798387527465820e+00 4.074438095092773438e+00 -5.688861012458801270e-01 1.000000000000000000e+01
-2.881702423095703125e+00 5.325153350830078125e+00 -5.297325849533081055e-01 9.000000000000000000e+00
-4.307999610900878906e+00 7.967478275299072266e+00 -4.746871292591094971e-01 1.000000000000000000e+00
-8.297773361206054688e+00 1.535922241210938033e+01 -3.047190308570861816e-01 2.000000000000000000e+00
-1.093191981315613015e+00 2.031126976013184038e+00 -6.180598735809326172e-01 1.800000000000000000e+01
-1.250632762908935991e+00 2.325593233108520952e+00 -6.096173524856567383e-01 1.200000000000000000e+01
-1.457532405853271040e+00 2.711464643478393999e+00 -5.983769893646240234e-01 1.100000000000000000e+01
-1.747853279113769975e+00 3.254275321960449219e+00 -5.850648880004882812e-01 9.000000000000000000e+00
-2.196481943130493164e+00 4.092990398406982422e+00 -5.703485012054443359e-01 8.000000000000000000e+00
-2.864990711212158203e+00 5.340946674346923828e+00 -5.302555561065673828e-01 9.000000000000000000e+00
-4.271220207214354581e+00 7.969131469726563388e+00 -4.738497436046599787e-01 1.000000000000000000e+00
-8.220654487609863281e+00 1.535074996948242010e+01 -3.039511144161223810e-01 2.000000000000000000e+00
-1.086095452308655007e+00 2.034930706024169922e+00 -6.180598735809326172e-01 1.800000000000000000e+01
-1.237922430038451926e+00 2.321347236633300781e+00 -6.073678731918334961e-01 1.400000000000000000e+01
-1.448058724403380904e+00 2.716535806655883789e+00 -5.983769893646240234e-01 1.200000000000000000e+01
-1.736483097076416016e+00 3.260356664657593218e+00 -5.850648880004882812e-01 9.000000000000000000e+00
-2.180316209793090820e+00 4.097127914428710938e+00 -5.698610544204711914e-01 1.000000000000000000e+01
-2.845394372940063032e+00 5.349155902862548828e+00 -5.300812125205993652e-01 9.000000000000000000e+00
-4.219005584716796875e+00 7.938138008117675781e+00 -4.711282849311829168e-01 1.000000000000000000e+00
-8.153889656066894531e+00 1.535462570190430043e+01 -3.034624457359313965e-01 2.000000000000000000e+00
-1.079889178276062012e+00 2.040416955947875977e+00 -6.185775399208068848e-01 1.900000000000000000e+01
-1.227078914642333984e+00 2.320486068725585938e+00 -6.060181260108947754e-01 1.200000000000000000e+01
-1.434897661209106001e+00 2.714631080627440962e+00 -5.968505144119262695e-01 1.200000000000000000e+01
-1.728781819343566895e+00 3.273385286331177202e+00 -5.863163471221923828e-01 9.000000000000000000e+00
-2.156737089157104048e+00 4.087156772613525391e+00 -5.674236416816711426e-01 1.000000000000000000e+01
-2.826704978942871094e+00 5.359055519104003906e+00 -5.300812125205993652e-01 9.000000000000000000e+00
-4.200582504272460938e+00 7.970485687255859375e+00 -4.721750020980834961e-01 1.000000000000000000e+00
-8.051794052124023438e+00 1.529098701477050959e+01 -3.016473948955535889e-01 2.000000000000000000e+00
-1.070067167282104048e+00 2.039042234420775923e+00 -6.170246005058288574e-01 1.700000000000000000e+01
-1.218971371650696023e+00 2.324755191802978960e+00 -6.060181260108947754e-01 1.200000000000000000e+01
-1.422678947448730025e+00 2.714406728744506836e+00 -5.957056879997253418e-01 1.100000000000000000e+01
-1.719177842140197976e+00 3.282899618148804155e+00 -5.869421362876892090e-01 1.000000000000000000e+01
-2.145217895507812944e+00 4.099936962127686435e+00 -5.681548714637756348e-01 1.000000000000000000e+01
-2.811674594879149947e+00 5.375952243804931641e+00 -5.307784676551818848e-01 9.000000000000000000e+00
-4.169034957885742188e+00 7.978019237518311435e+00 -4.717563092708588202e-01 1.000000000000000000e+00
-7.989113807678222656e+00 1.530127334594726918e+01 -3.012983500957489014e-01 2.000000000000000000e+00
-1.060267806053162065e+00 2.037623882293701172e+00 -6.154716610908508301e-01 1.900000000000000000e+01
-1.216242671012877974e+00 2.339370250701903853e+00 -6.087175607681274414e-01 1.200000000000000000e+01
-1.414100527763366921e+00 2.721098184585570845e+00 -5.960872769355773926e-01 1.100000000000000000e+01
-1.697694659233093040e+00 3.269596338272095171e+00 -5.835005640983581543e-01 1.000000000000000000e+01
-2.130893468856811968e+00 4.107400417327880859e+00 -5.681548714637756348e-01 1.000000000000000000e+01
-2.789223194122314009e+00 5.378658771514892578e+00 -5.300812125205993652e-01 1.100000000000000000e+01
-4.148511409759520596e+00 8.006710052490234375e+00 -4.725936949253082275e-01 1.000000000000000000e+00
-7.913589954376220703e+00 1.528644752502441051e+01 -3.004606366157531738e-01 2.000000000000000000e+00
-1.054034471511841042e+00 2.043029308319091797e+00 -6.159893274307250977e-01 2.000000000000000000e+01
-1.202712059020996094e+00 2.333208560943603960e+00 -6.060181260108947754e-01 1.300000000000000000e+01
-1.404593467712401900e+00 2.726017713546752930e+00 -5.960872769355773926e-01 1.100000000000000000e+01
-1.689888000488281028e+00 3.282527685165404829e+00 -5.847520232200622559e-01 1.000000000000000000e+01
-2.115634918212891069e+00 4.113048076629638672e+00 -5.679111480712890625e-01 8.000000000000000000e+00
-2.763142824172974077e+00 5.374186992645263672e+00 -5.286867618560791016e-01 9.000000000000000000e+00
-4.100459575653076172e+00 7.982058048248291016e+00 -4.702908992767333984e-01 1.000000000000000000e+00
-7.847398281097412109e+00 1.528907108306884943e+01 -2.999719679355620783e-01 2.000000000000000000e+00
-1.047776341438293013e+00 2.048415899276732954e+00 -6.165069937705993652e-01 2.100000000000000000e+01
-1.191899776458740012e+00 2.332186698913574219e+00 -6.046684384346008301e-01 1.200000000000000000e+01
-1.397748708724976030e+00 2.736149072647095171e+00 -5.972321629524230957e-01 1.200000000000000000e+01
-1.678419589996337891e+00 3.288406372070312944e+00 -5.847520232200622559e-01 1.000000000000000000e+01
-2.098559379577637163e+00 4.115102767944335938e+00 -5.671799182891845703e-01 1.000000000000000000e+01
-2.737128019332886186e+00 5.369598865509033203e+00 -5.272922515869140625e-01 1.100000000000000000e+01
-4.058069229125976562e+00 7.967847347259520596e+00 -4.686161577701569159e-01 1.000000000000000000e+00
-7.770401954650878906e+00 1.527003288269042969e+01 -2.990644276142119806e-01 2.000000000000000000e+00
-1.043240785598755105e+00 2.057229757308959961e+00 -6.180598735809326172e-01 2.000000000000000000e+01
-1.183751702308655007e+00 2.336333036422729048e+00 -6.046684384346008301e-01 1.200000000000000000e+01
-1.387302279472351074e+00 2.739260196685791016e+00 -5.968505144119262695e-01 1.300000000000000000e+01
-1.665146827697753906e+00 3.290719985961914062e+00 -5.841262936592102051e-01 1.000000000000000000e+01
-2.078808307647705078e+00 4.111773967742919922e+00 -5.657175183296203613e-01 1.000000000000000000e+01
-2.721063852310181108e+00 5.384455204010009766e+00 -5.278151631355285645e-01 1.100000000000000000e+01
-4.024830341339111328e+00 7.971266746520996094e+00 -4.679881334304810125e-01 1.000000000000000000e+00
-7.740469932556152344e+00 1.534348297119140980e+01 -2.999719679355620783e-01 2.000000000000000000e+00
-1.034526467323303001e+00 2.055139541625977007e+00 -6.165069937705993652e-01 2.200000000000000000e+01
-1.179441213607788086e+00 2.345057964324951172e+00 -6.060181260108947754e-01 1.300000000000000000e+01
-1.379168629646301047e+00 2.743364334106444868e+00 -5.968505144119262695e-01 1.300000000000000000e+01
-1.655375838279723899e+00 3.295646190643310991e+00 -5.841262936592102051e-01 1.000000000000000000e+01
-2.064818382263184038e+00 4.114375114440917969e+00 -5.652300119400024414e-01 1.000000000000000000e+01
-2.711329221725463867e+00 5.404971122741699219e+00 -5.290353298187255859e-01 1.100000000000000000e+01
-3.994002103805541992e+00 7.968889236450195312e+00 -4.671507477760314941e-01 1.000000000000000000e+00
-7.639397144317626953e+00 1.525552368164063033e+01 -2.978078722953795832e-01 2.000000000000000000e+00
-1.026483774185181108e+00 2.057009458541870117e+00 -6.159893274307250977e-01 1.900000000000000000e+01
-1.175595879554748979e+00 2.357880592346190962e+00 -6.082676649093627930e-01 1.400000000000000000e+01
-1.367832660675049050e+00 2.744647502899169922e+00 -5.960872769355773926e-01 1.100000000000000000e+01
-1.645622730255126953e+00 3.304940938949584961e+00 -5.847520232200622559e-01 1.000000000000000000e+01
-2.059285879135131836e+00 4.139330863952636719e+00 -5.676674246788024902e-01 1.000000000000000000e+01
-2.687123060226439986e+00 5.403698921203613281e+00 -5.279895067214965820e-01 1.100000000000000000e+01
-3.978602647781372070e+00 8.007822990417480469e+00 -4.686161577701569159e-01 1.000000000000000000e+00
-7.584321022033691406e+00 1.527851486206055043e+01 -2.977380454540253241e-01 2.000000000000000000e+00
-1.019297242164612038e+00 2.060580015182495117e+00 -6.159893274307250977e-01 1.800000000000000000e+01
-1.164767861366271973e+00 2.356728792190552202e+00 -6.069179177284240723e-01 1.300000000000000000e+01
-1.359113335609436035e+00 2.751165628433227983e+00 -5.964689254760742188e-01 1.200000000000000000e+01
-1.627956151962280051e+00 3.298265695571898970e+00 -5.825619697570800781e-01 9.000000000000000000e+00
-2.044824361801147017e+00 4.146493911743164062e+00 -5.676674246788024902e-01 1.000000000000000000e+01
-2.670886993408203125e+00 5.418406963348388672e+00 -5.285124182701110840e-01 1.100000000000000000e+01
-3.941801786422729048e+00 8.003745079040527344e+00 -4.675694406032562256e-01 1.000000000000000000e+00
-7.520348072052001953e+00 1.528336524963379084e+01 -2.973192036151885986e-01 2.000000000000000000e+00
-1.012948751449584961e+00 2.065860033035277876e+00 -6.165069937705993652e-01 1.900000000000000000e+01
-1.149675607681273970e+00 2.346780061721802202e+00 -6.033187508583068848e-01 1.300000000000000000e+01
-1.350365042686461958e+00 2.757656097412108931e+00 -5.968505144119262695e-01 1.100000000000000000e+01
-1.621641874313354048e+00 3.314574480056763139e+00 -5.844391584396362305e-01 9.000000000000000000e+00
-2.026850938796997070e+00 4.146472454071044922e+00 -5.666924715042114258e-01 1.000000000000000000e+01
-2.644959688186645952e+00 5.413375854492188388e+00 -5.271179080009460449e-01 1.100000000000000000e+01
-3.899820804595946822e+00 7.988738536834716797e+00 -4.658946692943572998e-01 1.000000000000000000e+00
-7.458187580108642578e+00 1.529155063629150035e+01 -2.969701588153839111e-01 2.000000000000000000e+00
-1.007902622222899947e+00 2.074771881103516069e+00 -6.180598735809326172e-01 1.700000000000000000e+01
-1.148724675178528054e+00 2.366756439208983931e+00 -6.073678731918334961e-01 1.100000000000000000e+01
-1.333393216133117898e+00 2.748456001281737837e+00 -5.937975645065307617e-01 1.100000000000000000e+01
-1.606036067008971946e+00 3.313385725021361861e+00 -5.831876993179321289e-01 1.000000000000000000e+01
-2.005583286285399947e+00 4.141367435455322266e+00 -5.649862885475158691e-01 1.000000000000000000e+01
-2.630309581756591797e+00 5.433794021606445312e+00 -5.281637907028198242e-01 1.100000000000000000e+01
-3.879210233688354048e+00 8.020958900451660156e+00 -4.669414162635803223e-01 1.000000000000000000e+00
-7.389910697937011719e+00 1.529357624053955078e+01 -2.964814901351929266e-01 2.000000000000000000e+00
-9.964638352394104004e-01 2.069574356079102007e+00 -6.154716610908508301e-01 1.900000000000000000e+01
-1.137077093124390093e+00 2.363727331161499023e+00 -6.055682301521301270e-01 1.100000000000000000e+01
-1.326343417167664018e+00 2.758401870727539062e+00 -5.949424505233764648e-01 1.200000000000000000e+01
-1.599592685699462891e+00 3.329654932022095171e+00 -5.850648880004882812e-01 1.000000000000000000e+01
-1.991973876953125000e+00 4.150132179260253906e+00 -5.652300119400024414e-01 1.000000000000000000e+01
-2.600984096527100053e+00 5.421385765075683594e+00 -5.260720849037170410e-01 1.100000000000000000e+01
-3.844281673431396040e+00 8.020042419433593750e+00 -4.661040306091309149e-01 3.000000000000000000e+00
-7.357210636138916016e+00 1.536256313323974965e+01 -2.973192036151885986e-01 2.000000000000000000e+00
-9.863767027854919434e-01 2.067981719970703125e+00 -6.139187812805175781e-01 2.000000000000000000e+01
-1.131759285926819070e+00 2.374915838241577148e+00 -6.073678731918334961e-01 1.200000000000000000e+01
-1.314535975456238015e+00 2.759699583053588867e+00 -5.941792130470275879e-01 1.100000000000000000e+01
-1.580587267875670943e+00 3.321225881576538086e+00 -5.825619697570800781e-01 1.000000000000000000e+01
-1.977602005004883035e+00 4.159198284149169922e+00 -5.654737353324890137e-01 8.000000000000000000e+00
-2.576820135116577148e+00 5.421885013580322266e+00 -5.252004861831665039e-01 1.100000000000000000e+01
-3.809720754623413086e+00 8.023253440856933594e+00 -4.654760062694550116e-01 1.000000000000000000e+00
-7.257998943328857422e+00 1.529909133911132990e+01 -2.955739498138427734e-01 2.000000000000000000e+00
-9.791520833969116211e-01 2.071412324905395952e+00 -6.139187812805175781e-01 1.900000000000000000e+01
-1.124294638633728027e+00 2.380614042282104048e+00 -6.078177690505981445e-01 1.200000000000000000e+01
-1.309923291206360085e+00 2.774923801422119141e+00 -5.964689254760742188e-01 1.200000000000000000e+01
-1.566456556320189986e+00 3.321362972259521040e+00 -5.816233158111572266e-01 1.000000000000000000e+01
-1.965610027313231978e+00 4.171463012695313388e+00 -5.662049651145935059e-01 1.000000000000000000e+01
-2.569763660430908203e+00 5.456081390380859375e+00 -5.276408791542053223e-01 1.100000000000000000e+01
-3.791895866394042969e+00 8.058189392089843750e+00 -4.667320549488068182e-01 1.000000000000000000e+00
-7.162011146545410156e+00 1.523384857177734020e+01 -2.938287258148192804e-01 2.000000000000000000e+00
-9.739172458648681641e-01 2.078146457672119141e+00 -6.149540543556213379e-01 2.000000000000000000e+01
-1.110609650611876997e+00 2.371975183486938032e+00 -6.046684384346008301e-01 1.200000000000000000e+01
-1.296553134918212891e+00 2.770361661911011186e+00 -5.945608019828796387e-01 1.100000000000000000e+01
-1.548740267753601074e+00 3.312223911285399947e+00 -5.791203975677490234e-01 1.000000000000000000e+01
-1.949245572090148926e+00 4.172563076019287109e+00 -5.654737353324890137e-01 1.000000000000000000e+01
-2.534797191619873047e+00 5.428467750549316406e+00 -5.241546630859375000e-01 9.000000000000000000e+00
-3.768530845642089844e+00 8.077959060668945312e+00 -4.671507477760314941e-01 1.000000000000000000e+00
-7.121592044830322266e+00 1.527926540374756037e+01 -2.942475676536560059e-01 2.000000000000000000e+00
-9.682846069335937500e-01 2.085037708282471147e+00 -6.159893274307250977e-01 2.000000000000000000e+01
-1.099862575531006081e+00 2.370534420013428178e+00 -6.033187508583068848e-01 1.200000000000000000e+01
-1.286048889160156028e+00 2.773089408874512163e+00 -5.941792130470275879e-01 1.100000000000000000e+01
-1.548795342445373979e+00 3.342702627182006836e+00 -5.835005640983581543e-01 1.000000000000000000e+01
-1.927997469902039018e+00 4.164929866790770596e+00 -5.635238289833068848e-01 1.000000000000000000e+01
-2.525872945785522017e+00 5.458981037139892578e+00 -5.262463688850402832e-01 9.000000000000000000e+00
-3.715168237686156782e+00 8.036676406860351562e+00 -4.640105962753295898e-01 1.000000000000000000e+00
-7.049767971038818359e+00 1.526409149169922053e+01 -2.934796810150145929e-01 2.000000000000000000e+00
-9.597493410110473633e-01 2.084727525711060014e+00 -6.149540543556213379e-01 1.900000000000000000e+01
-1.095252752304076926e+00 2.381250381469727007e+00 -6.051183342933654785e-01 1.200000000000000000e+01
-1.278486132621764915e+00 2.780906438827515093e+00 -5.949424505233764648e-01 1.200000000000000000e+01
-1.536052942276000977e+00 3.344229936599731001e+00 -5.828748345375061035e-01 1.000000000000000000e+01
-1.917487144470215066e+00 4.178517341613770419e+00 -5.644987821578979492e-01 1.000000000000000000e+01
-2.496127128601074219e+00 5.441973686218261719e+00 -5.238060355186462402e-01 1.100000000000000000e+01
-3.696817874908446822e+00 8.067109107971191406e+00 -4.650573134422302246e-01 1.000000000000000000e+00
-6.999111652374267578e+00 1.528738594055175959e+01 -2.934796810150145929e-01 2.000000000000000000e+00
-9.508629441261291504e-01 2.084549665451049805e+00 -6.139187812805175781e-01 2.000000000000000000e+01
-1.087742090225219949e+00 2.386832237243651900e+00 -6.055682301521301270e-01 1.400000000000000000e+01
-1.269584894180298074e+00 2.787138938903809038e+00 -5.953240394592285156e-01 1.200000000000000000e+01
-1.524370074272155984e+00 3.349571466445922852e+00 -5.828748345375061035e-01 1.100000000000000000e+01
