3.354934692382812944e+00 2.805160760879517046e+00 -5.369563102722167969e-01 1.000000000000000000e+01
4.367537975311279297e+00 3.650533676147460938e+00 -4.980079233646392822e-01 9.000000000000000000e+00
6.295612812042236328e+00 5.258350849151611328e+00 -4.298875331878662109e-01 2.000000000000000000e+00
1.032892894744873047e+01 8.621021270751953125e+00 -2.348395884037018100e-01 2.000000000000000000e+00
3.603789520263671875e+01 3.006829071044921875e+01 1.257601737976074041e+01 1.400000000000000000e+01
1.725403904914855957e+00 1.436022520065308061e+00 -6.014954447746276855e-01 1.900000000000000000e+01
1.970228910446166992e+00 1.638622045516967995e+00 -5.916212797164916992e-01 1.200000000000000000e+01
2.272025108337401900e+00 1.888952493667602983e+00 -5.743350982666015625e-01 9.000000000000000000e+00
2.713672399520874023e+00 2.254534721374512163e+00 -5.587838888168334961e-01 1.000000000000000000e+01
3.364706039428710938e+00 2.793432712554932085e+00 -5.369563102722167969e-01 9.000000000000000000e+00
4.367989063262938565e+00 3.625086545944213867e+00 -4.966134130954741877e-01 9.000000000000000000e+00
6.344676494598388672e+00 5.261842727661132812e+00 -4.319809973239899237e-01 2.000000000000000000e+00
1.032816600799561080e+01 8.559393882751464844e+00 -2.341414839029312134e-01 2.000000000000000000e+00
1.734873533248900923e+00 1.433682799339293990e+00 -6.030483841896057129e-01 1.700000000000000000e+01
1.969926357269287109e+00 1.626771211624145952e+00 -5.898216366767883301e-01 1.300000000000000000e+01
2.287688970565795898e+00 1.888509154319762962e+00 -5.766248106956481934e-01 1.200000000000000000e+01
2.727620840072631836e+00 2.250076770782471147e+00 -5.600354075431823730e-01 1.100000000000000000e+01
3.372904777526855025e+00 2.780408143997191939e+00 -5.367125868797302246e-01 1.000000000000000000e+01
4.408292770385742188e+00 3.632624149322510210e+00 -4.997510313987731934e-01 9.000000000000000000e+00
6.332169055938720703e+00 5.214271545410156250e+00 -4.298875331878662109e-01 2.000000000000000000e+00
1.037650966644286932e+01 8.538537025451660156e+00 -2.345603406429291049e-01 2.000000000000000000e+00
3.641701126098632812e+01 2.995587348937987926e+01 1.263502788543700994e+01 1.400000000000000000e+01
1.736631751060486062e+00 1.425470471382140891e+00 -6.020131111145019531e-01 1.900000000000000000e+01
1.981336951255797896e+00 1.625173330307007058e+00 -5.916212797164916992e-01 1.300000000000000000e+01
2.295457124710083008e+00 1.882157325744628906e+00 -5.770063996315002441e-01 1.600000000000000000e+01
2.745763063430786133e+00 2.249783039093018022e+00 -5.622254610061645508e-01 1.100000000000000000e+01
3.383642196655272993e+00 2.770465373992919922e+00 -5.369563102722167969e-01 9.000000000000000000e+00
4.414147853851318359e+00 3.612937927246094194e+00 -4.990537762641906738e-01 9.000000000000000000e+00
6.374161720275878906e+00 5.213476181030273438e+00 -4.315623044967650812e-01 2.000000000000000000e+00
1.040476799011229936e+01 8.504080772399902344e+00 -2.345603406429291049e-01 2.000000000000000000e+00
3.621477508544921875e+01 2.959925270080566051e+01 1.253253555297851918e+01 1.300000000000000000e+01
1.734109520912169966e+00 1.413297533988953081e+00 -5.994248986244201660e-01 1.900000000000000000e+01
2.002108097076416016e+00 1.630553364753722922e+00 -5.961202979087829590e-01 1.300000000000000000e+01
2.302013158798218218e+00 1.874133229255676047e+00 -5.770063996315002441e-01 1.300000000000000000e+01
2.745938062667847124e+00 2.233951568603516069e+00 -5.606611371040344238e-01 9.000000000000000000e+00
3.400993824005126953e+00 2.764898538589477983e+00 -5.381750464439392090e-01 1.000000000000000000e+01
4.415908813476563388e+00 3.588711977005004883e+00 -4.978336095809937079e-01 1.100000000000000000e+01
6.404724597930908203e+00 5.201267242431640625e+00 -4.323996603488922119e-01 2.000000000000000000e+00
1.044681072235107067e+01 8.477789878845214844e+00 -2.348395884037018100e-01 2.000000000000000000e+00
3.637487792968750000e+01 2.951891708374023082e+01 1.255220603942870916e+01 1.400000000000000000e+01
1.742035746574402078e+00 1.409666180610656960e+00 -6.004601716995239258e-01 1.900000000000000000e+01
1.991119027137755904e+00 1.610076189041137917e+00 -5.911713838577270508e-01 1.100000000000000000e+01
2.310067892074584961e+00 1.867320537567138894e+00 -5.773880481719970703e-01 1.300000000000000000e+01
2.747572422027587891e+00 2.219387769699097124e+00 -5.594096183776855469e-01 9.000000000000000000e+00
3.409079790115356001e+00 2.751763105392456055e+00 -5.379312634468078613e-01 9.000000000000000000e+00
4.442364215850830078e+00 3.584536075592041016e+00 -4.994024038314818781e-01 1.100000000000000000e+01
6.404183864593505859e+00 5.163835048675537109e+00 -4.311436116695404053e-01 2.000000000000000000e+00
3.679141235351563211e+01 2.965513420104980113e+01 1.090967655181884943e+01 1.300000000000000000e+01
1.047945499420166016e+01 8.443781852722167969e+00 -2.349093854427337924e-01 2.000000000000000000e+00
1.749957799911499023e+00 1.405996799468993919e+00 -6.014954447746276855e-01 2.100000000000000000e+01
1.996727228164673074e+00 1.603116035461426003e+00 -5.911713838577270508e-01 1.100000000000000000e+01
2.324227333068848100e+00 1.865389704704284890e+00 -5.792961120605468750e-01 1.400000000000000000e+01
2.749138832092285156e+00 2.204839944839477983e+00 -5.581581592559814453e-01 9.000000000000000000e+00
3.417115449905395952e+00 2.738605022430419922e+00 -5.376875400543212891e-01 1.000000000000000000e+01
4.459514141082763672e+00 3.572744607925415039e+00 -4.999253451824188232e-01 9.000000000000000000e+00
6.419051647186279297e+00 5.138952255249023438e+00 -4.309342503547667902e-01 2.000000000000000000e+00
1.053384876251221058e+01 8.427137374877929688e+00 -2.354678660631180087e-01 2.000000000000000000e+00
1.759385585784912109e+00 1.403493881225585938e+00 -6.030483841896057129e-01 2.000000000000000000e+01
2.002310991287231001e+00 1.596136331558227983e+00 -5.911713838577270508e-01 1.200000000000000000e+01
2.321512460708618164e+00 1.849924325942992942e+00 -5.770063996315002441e-01 1.400000000000000000e+01
2.769180774688721147e+00 2.205074310302733931e+00 -5.606611371040344238e-01 9.000000000000000000e+00
3.425100803375244141e+00 2.725424528121947798e+00 -5.374438166618347168e-01 9.000000000000000000e+00
4.470398902893066406e+00 3.555915832519530806e+00 -4.997510313987731934e-01 9.000000000000000000e+00
6.436950683593750000e+00 5.116514205932617188e+00 -4.309342503547667902e-01 2.000000000000000000e+00
1.053814792633056996e+01 8.370415687561035156e+00 -2.349093854427337924e-01 2.000000000000000000e+00
3.765013885498046875e+01 2.990538215637207031e+01 1.288349437713623047e+01 1.400000000000000000e+01
1.758216381072998047e+00 1.392546176910399947e+00 -6.009778380393981934e-01 2.000000000000000000e+01
2.015510559082030806e+00 1.595184206962585005e+00 -5.934208631515502930e-01 1.200000000000000000e+01
2.329495191574097124e+00 1.843027591705322044e+00 -5.773880481719970703e-01 1.400000000000000000e+01
2.779960393905640093e+00 2.197844743728638139e+00 -5.612868666648864746e-01 9.000000000000000000e+00
3.429920673370360884e+00 2.709760189056396040e+00 -5.367125868797302246e-01 1.000000000000000000e+01
4.460894107818604404e+00 3.523001909255981001e+00 -4.973106682300568182e-01 1.300000000000000000e+01
6.461042881011962891e+00 5.098963260650634766e+00 -4.313529431819915771e-01 2.000000000000000000e+00
1.056416130065917969e+01 8.331103324890136719e+00 -2.348395884037018100e-01 2.000000000000000000e+00
1.760029435157776101e+00 1.384012103080749956e+00 -5.999425649642944336e-01 1.800000000000000000e+01
2.022598743438721147e+00 1.589343070983886941e+00 -5.938707590103149414e-01 1.200000000000000000e+01
2.342090129852294922e+00 1.839735865592956987e+00 -5.789144635200500488e-01 1.400000000000000000e+01
2.792276859283446822e+00 2.191786527633666992e+00 -5.622254610061645508e-01 1.000000000000000000e+01
3.451853990554810014e+00 2.707572221755981001e+00 -5.386624932289123535e-01 1.000000000000000000e+01
4.463757038116455078e+00 3.500032663345336914e+00 -4.962647855281829834e-01 1.100000000000000000e+01
6.500812053680419922e+00 5.093624591827392578e+00 -4.328183531761168878e-01 2.000000000000000000e+00
1.058058166503906072e+01 8.284314155578613281e+00 -2.345603406429291049e-01 2.000000000000000000e+00
1.758758902549744096e+00 1.373104572296143022e+00 -5.978720188140869141e-01 1.800000000000000000e+01
2.021988391876221147e+00 1.577478528022765891e+00 -5.920711755752563477e-01 1.200000000000000000e+01
2.346949577331542969e+00 1.830341935157776101e+00 -5.785328745841979980e-01 1.300000000000000000e+01
2.792119979858397993e+00 2.175955057144165039e+00 -5.606611371040344238e-01 9.000000000000000000e+00
3.557121276855468750e+01 2.771138000488280895e+01 5.536524295806884766e+00 3.800000000000000000e+01
3.456585407257080078e+00 2.691847324371337891e+00 -5.379312634468078613e-01 9.000000000000000000e+00
4.471230983734130859e+00 3.480758190155028853e+00 -4.957418739795684814e-01 1.100000000000000000e+01
6.499635219573974609e+00 5.056185245513916016e+00 -4.315623044967650812e-01 2.000000000000000000e+00
1.065679836273193004e+01 8.284149169921875000e+00 -2.356074899435043057e-01 2.000000000000000000e+00
1.774229288101196067e+00 1.375241637229918990e+00 -6.014954447746276855e-01 1.600000000000000000e+01
2.021320104598999023e+00 1.565637588500977007e+00 -5.902715921401977539e-01 1.100000000000000000e+01
2.357981204986571822e+00 1.825744152069092019e+00 -5.796777009963989258e-01 1.300000000000000000e+01
2.802823305130004883e+00 2.168613195419311968e+00 -5.612868666648864746e-01 9.000000000000000000e+00
3.551070404052733664e+01 2.746559715270996094e+01 5.512150287628173828e+00 3.700000000000000000e+01
3.469101667404174805e+00 2.682193756103516069e+00 -5.384187698364257812e-01 9.000000000000000000e+00
4.503847122192382812e+00 3.480968713760375977e+00 -4.980079233646392822e-01 1.100000000000000000e+01
6.517245292663574219e+00 5.033466339111328125e+00 -4.315623044967650812e-01 2.000000000000000000e+00
3.907030868530272727e+01 3.016430091857910156e+01 1.139557075500487926e+01 1.400000000000000000e+01
1.071731185913085938e+01 8.271334648132324219e+00 -2.363055795431137085e-01 2.000000000000000000e+00
1.791266918182373047e+00 1.378465414047240989e+00 -6.056365370750427246e-01 1.900000000000000000e+01
2.034496784210205078e+00 1.564511895179748979e+00 -5.925210714340209961e-01 1.200000000000000000e+01
2.367453098297119141e+00 1.819895267486572044e+00 -5.804409384727478027e-01 1.300000000000000000e+01
2.819775342941284180e+00 2.166036367416381836e+00 -5.631640553474426270e-01 9.000000000000000000e+00
3.468995094299315962e+00 2.662815570831298828e+00 -5.369563102722167969e-01 9.000000000000000000e+00
4.517551422119140625e+00 3.466439008712768999e+00 -4.981822371482849121e-01 9.000000000000000000e+00
6.563304901123046875e+00 5.032561779022216797e+00 -4.334463775157927912e-01 2.000000000000000000e+00
1.067945194244384943e+01 8.182792663574218750e+00 -2.348395884037018100e-01 2.000000000000000000e+00
1.786618947982788086e+00 1.365479230880737083e+00 -6.025307178497314453e-01 1.900000000000000000e+01
2.041222333908081055e+00 1.558939576148987038e+00 -5.929709672927856445e-01 1.200000000000000000e+01
2.360991239547729048e+00 1.802503705024719016e+00 -5.773880481719970703e-01 1.300000000000000000e+01
2.826942682266234907e+00 2.156673669815063032e+00 -5.631640553474426270e-01 9.000000000000000000e+00
3.480963468551636186e+00 2.653704404830933061e+00 -5.374438166618347168e-01 9.000000000000000000e+00
4.548038005828857422e+00 3.465930938720703125e+00 -5.002739429473876953e-01 9.000000000000000000e+00
6.564067363739013672e+00 4.998669147491455078e+00 -4.323996603488922119e-01 1.000000000000000000e+00
1.075745105743408025e+01 8.186083793640136719e+00 -2.359565347433089932e-01 2.000000000000000000e+00
3.599567031860352273e+01 2.738165855407714844e+01 1.211842536926270064e+01 1.200000000000000000e+01
1.785218477249145952e+00 1.354563593864440918e+00 -6.004601716995239258e-01 1.900000000000000000e+01
2.040440320968627930e+00 1.547095298767090066e+00 -5.911713838577270508e-01 1.100000000000000000e+01
2.365704059600830078e+00 1.793065428733825906e+00 -5.770063996315002441e-01 1.200000000000000000e+01
2.831304311752318892e+00 2.144407510757445845e+00 -5.625383257865905762e-01 9.000000000000000000e+00
3.501285552978516069e+00 2.649923086166381836e+00 -5.391499996185302734e-01 7.000000000000000000e+00
4.531508445739746094e+00 3.428396463394165039e+00 -4.971363544464110773e-01 9.000000000000000000e+00
6.591035366058349609e+00 4.982952594757080078e+00 -4.330277144908905029e-01 2.000000000000000000e+00
1.077000522613525035e+01 8.136429786682128906e+00 -2.356074899435043057e-01 2.000000000000000000e+00
3.793790054321289062e+01 2.865059471130371094e+01 1.273855590820313033e+01 1.400000000000000000e+01
1.791478991508484109e+00 1.349486112594604048e+00 -6.009778380393981934e-01 1.700000000000000000e+01
2.048942089080810991e+00 1.542307257652282937e+00 -5.920711755752563477e-01 1.100000000000000000e+01
2.375086069107056108e+00 1.787157535552978960e+00 -5.777696371078491211e-01 1.000000000000000000e+01
2.826141595840454102e+00 2.125014066696166992e+00 -5.600354075431823730e-01 9.000000000000000000e+00
3.508927106857299805e+00 2.636492729187012163e+00 -5.389062166213989258e-01 9.000000000000000000e+00
4.589647293090820312e+00 3.447257518768310991e+00 -5.021913647651672363e-01 9.000000000000000000e+00
6.617973327636718750e+00 4.967108726501464844e+00 -4.336557388305664062e-01 2.000000000000000000e+00
1.083033561706542969e+01 8.122781753540039062e+00 -2.363055795431137085e-01 2.000000000000000000e+00
1.803914189338684082e+00 1.349009156227112038e+00 -6.035659909248352051e-01 1.900000000000000000e+01
2.051191329956055132e+00 1.532812714576720969e+00 -5.911713838577270508e-01 1.100000000000000000e+01
2.384455680847167969e+00 1.781205892562865989e+00 -5.785328745841979980e-01 1.100000000000000000e+01
2.843039989471435991e+00 2.122225761413574219e+00 -5.619125962257385254e-01 1.000000000000000000e+01
3.518108844757080078e+00 2.624228239059447798e+00 -5.389062166213989258e-01 9.000000000000000000e+00
4.593666553497313565e+00 3.425260782241820845e+00 -5.013198256492614746e-01 9.000000000000000000e+00
6.641677379608154297e+00 4.948750972747802734e+00 -4.340744316577910822e-01 2.000000000000000000e+00
1.085862350463867010e+01 8.084927558898925781e+00 -2.363055795431137085e-01 2.000000000000000000e+00
3.216438293457031250e+01 2.393967819213866832e+01 1.074357891082764027e+01 9.000000000000000000e+00
1.810163140296936035e+00 1.343855738639831987e+00 -6.040836572647094727e-01 2.000000000000000000e+01
2.058094263076781782e+00 1.526804447174072044e+00 -5.916212797164916992e-01 1.200000000000000000e+01
2.390658855438231978e+00 1.772871732711791992e+00 -5.785328745841979980e-01 1.100000000000000000e+01
2.855191946029663086e+00 2.115817070007324219e+00 -5.628511905670166016e-01 1.000000000000000000e+01
3.522461652755736861e+00 2.608387947082519975e+00 -5.381750464439392090e-01 9.000000000000000000e+00
4.605594635009765625e+00 3.409204959869385210e+00 -5.013198256492614746e-01 9.000000000000000000e+00
6.658911228179931641e+00 4.925537109375000000e+00 -4.340744316577910822e-01 2.000000000000000000e+00
3.153725051879883168e+01 2.331930541992187855e+01 9.055179595947265625e+00 1.200000000000000000e+01
1.085461711883544922e+01 8.023201942443847656e+00 -2.356074899435043057e-01 2.000000000000000000e+00
3.223116302490233664e+01 2.382369995117187855e+01 1.073943710327148082e+01 9.000000000000000000e+00
1.808622598648071067e+00 1.332944393157958984e+00 -6.020131111145019531e-01 1.800000000000000000e+01
2.066549539566040039e+00 1.521922230720520020e+00 -5.925210714340209961e-01 1.300000000000000000e+01
2.390508651733397993e+00 1.759860277175903098e+00 -5.770063996315002441e-01 1.100000000000000000e+01
2.865742444992064986e+00 2.108178853988647017e+00 -5.634769201278686523e-01 1.100000000000000000e+01
3.529945850372314009e+00 2.594900608062744141e+00 -5.379312634468078613e-01 9.000000000000000000e+00
4.631916522979736328e+00 3.403725862503052202e+00 -5.028886198997497559e-01 9.000000000000000000e+00
6.653526306152343750e+00 4.885713100433349609e+00 -4.326090216636658270e-01 2.000000000000000000e+00
3.152734375000000000e+01 2.314219665527344105e+01 9.029085159301757812e+00 1.200000000000000000e+01
1.089545536041259943e+01 7.994727611541748047e+00 -2.358867228031157892e-01 2.000000000000000000e+00
3.230891799926757812e+01 2.369855117797851918e+01 1.073633193969726918e+01 9.000000000000000000e+00
1.810146093368530051e+00 1.324341535568237083e+00 -6.009778380393981934e-01 1.700000000000000000e+01
2.078142166137694868e+00 1.519299864768981934e+00 -5.943207144737243652e-01 1.300000000000000000e+01
2.402977466583251953e+00 1.756138682365417036e+00 -5.785328745841979980e-01 1.200000000000000000e+01
2.868298053741455078e+00 2.094667673110961914e+00 -5.625383257865905762e-01 1.200000000000000000e+01
3.538982152938843218e+00 2.582562923431396040e+00 -5.379312634468078613e-01 9.000000000000000000e+00
4.574555873870849609e+00 3.337046623229980025e+00 -4.953932464122772217e-01 9.000000000000000000e+00
6.680223941802979404e+00 4.869517326354979581e+00 -4.332370460033416748e-01 2.000000000000000000e+00
3.161108207702637074e+01 2.303429985046387074e+01 9.029985427856445312e+00 1.200000000000000000e+01
1.092329597473145064e+01 7.956646919250488281e+00 -2.358867228031157892e-01 2.000000000000000000e+00
3.226396942138671875e+01 2.350142288208008168e+01 1.069543838500976918e+01 9.000000000000000000e+00
1.817884087562561035e+00 1.320285439491271973e+00 -6.020131111145019531e-01 1.900000000000000000e+01
2.078701496124268022e+00 1.508602619171143022e+00 -5.929709672927856445e-01 1.100000000000000000e+01
2.410681962966918945e+00 1.748892903327941895e+00 -5.789144635200500488e-01 1.200000000000000000e+01
2.867595672607421875e+00 2.078845739364624023e+00 -5.609740018844604492e-01 1.300000000000000000e+01
3.559228658676147017e+00 2.578345775604248047e+00 -5.396374464035034180e-01 1.000000000000000000e+01
3.146112632751464844e+01 2.278242683410644887e+01 6.152254581451416016e+00 1.400000000000000000e+01
4.662021160125732422e+00 3.375980615615845171e+00 -5.035858750343322754e-01 9.000000000000000000e+00
6.700417041778563565e+00 4.848511219024658203e+00 -4.334463775157927912e-01 1.000000000000000000e+00
3.177024269104003906e+01 2.298092269897460938e+01 9.052480697631835938e+00 1.200000000000000000e+01
1.097044849395751953e+01 7.932529449462890625e+00 -2.363055795431137085e-01 2.000000000000000000e+00
3.183321762084960938e+01 2.300955390930176137e+01 1.052461719512938920e+01 9.000000000000000000e+00
1.825615763664246050e+00 1.316191315650939941e+00 -6.030483841896057129e-01 1.900000000000000000e+01
2.077630043029785156e+00 1.496780991554260032e+00 -5.911713838577270508e-01 1.200000000000000000e+01
2.423144578933715820e+00 1.745056629180907981e+00 -5.804409384727478027e-01 1.200000000000000000e+01
2.878041505813599077e+00 2.071130752563477007e+00 -5.615997314453125000e-01 1.400000000000000000e+01
3.571430444717406782e+00 2.568223953247069868e+00 -5.401249527931213379e-01 1.000000000000000000e+01
3.161668968200683949e+01 2.273563575744628906e+01 6.167898178100585938e+00 1.400000000000000000e+01
4.720692634582520419e+00 3.393411397933959961e+00 -5.086408853530883789e-01 9.000000000000000000e+00
6.720544815063476562e+00 4.827423095703125000e+00 -4.336557388305664062e-01 1.000000000000000000e+00
1.098507499694824041e+01 7.884858608245849609e+00 -2.360263466835021973e-01 2.000000000000000000e+00
1.834911942481995073e+00 1.313183665275573953e+00 -6.046012639999389648e-01 1.900000000000000000e+01
2.089182615280150923e+00 1.494053959846497026e+00 -5.929709672927856445e-01 1.200000000000000000e+01
2.430818319320679155e+00 1.737729430198668990e+00 -5.808225870132446289e-01 1.300000000000000000e+01
2.891683101654053178e+00 2.065665006637572798e+00 -5.628511905670166016e-01 1.400000000000000000e+01
3.570679187774658203e+00 2.548821687698363814e+00 -5.386624932289123535e-01 1.000000000000000000e+01
4.724400043487548828e+00 3.371125936508179155e+00 -5.077693462371826172e-01 9.000000000000000000e+00
6.734102725982666016e+00 4.801615715026854581e+00 -4.334463775157927912e-01 2.000000000000000000e+00
3.228854370117188211e+01 2.301419258117676137e+01 9.154158592224121094e+00 1.200000000000000000e+01
1.104510307312012074e+01 7.869673252105712891e+00 -2.367244362831116000e-01 2.000000000000000000e+00
1.834759950637816939e+00 1.303414106369018999e+00 -6.030483841896057129e-01 2.000000000000000000e+01
2.092796087265015093e+00 1.485624194145203081e+00 -5.925210714340209961e-01 1.300000000000000000e+01
2.428863763809204102e+00 1.723552942276000977e+00 -5.789144635200500488e-01 1.200000000000000000e+01
2.908544301986693892e+00 2.062414169311522993e+00 -5.647284388542175293e-01 1.300000000000000000e+01
3.581174135208129883e+00 2.537489891052246094e+00 -5.389062166213989258e-01 9.000000000000000000e+00
3.161346435546875000e+01 2.240015220642089844e+01 6.136610984802246094e+00 1.400000000000000000e+01
4.728009223937988281e+00 3.348856210708618164e+00 -5.068978071212768555e-01 8.000000000000000000e+00
6.754082679748535156e+00 4.780387401580811435e+00 -4.336557388305664062e-01 2.000000000000000000e+00
1.105291461944580078e+01 7.817214488983154297e+00 -2.363055795431137085e-01 2.000000000000000000e+00
3.203691864013671875e+01 2.265822982788085938e+01 1.051426506042479936e+01 9.000000000000000000e+00
1.834562182426453081e+00 1.293661832809448020e+00 -6.014954447746276855e-01 1.900000000000000000e+01
2.105934143066405806e+00 1.483922362327575906e+00 -5.947706103324890137e-01 1.400000000000000000e+01
2.436470508575439009e+00 1.716194629669189009e+00 -5.792961120605468750e-01 1.200000000000000000e+01
2.910879611968994141e+00 2.048837900161743164e+00 -5.637897849082946777e-01 1.100000000000000000e+01
3.254315567016602273e+01 2.289717674255371094e+01 4.885742187500000000e+00 2.100000000000000000e+01
3.598128557205200195e+00 2.530683755874633789e+00 -5.401249527931213379e-01 1.000000000000000000e+01
4.755969047546386719e+00 3.343791246414185014e+00 -5.086408853530883789e-01 9.000000000000000000e+00
6.793607711791992188e+00 4.772856235504150391e+00 -4.351211488246917725e-01 1.000000000000000000e+00
3.143097114562987926e+01 2.207366943359375000e+01 8.867120742797851562e+00 1.200000000000000000e+01
1.108013439178466975e+01 7.778584957122802734e+00 -2.363055795431137085e-01 2.000000000000000000e+00
3.235062408447266336e+01 2.270267486572265980e+01 1.058983993530273082e+01 9.000000000000000000e+00
1.837259531021117942e+00 1.286463022232056108e+00 -6.009778380393981934e-01 1.900000000000000000e+01
2.110843420028686968e+00 1.476930618286133035e+00 -5.947706103324890137e-01 1.300000000000000000e+01
2.442148208618164062e+00 1.708105564117432085e+00 -5.792961120605468750e-01 1.200000000000000000e+01
2.911181211471558061e+00 2.034647464752196822e+00 -5.625383257865905762e-01 1.100000000000000000e+01
3.614638090133666992e+00 2.524421215057373047e+00 -5.413436293601989746e-01 1.000000000000000000e+01
3.184617996215819957e+01 2.224100112915039062e+01 6.152254581451416016e+00 1.400000000000000000e+01
4.773565769195556641e+00 3.332563400268555132e+00 -5.093381404876708984e-01 8.000000000000000000e+00
6.793017387390136719e+00 4.738874435424804688e+00 -4.340744316577910822e-01 2.000000000000000000e+00
3.022523117065430043e+01 2.107757186889648082e+01 8.507199287414550781e+00 1.100000000000000000e+01
1.113867759704590021e+01 7.764669895172119141e+00 -2.370036840438843051e-01 2.000000000000000000e+00
3.247566986083983664e+01 2.263849258422851918e+01 1.060743999481200994e+01 9.000000000000000000e+00
1.851256966590880904e+00 1.286657094955443892e+00 -6.040836572647094727e-01 2.000000000000000000e+01
2.101580619812012163e+00 1.459548950195312944e+00 -5.907214879989624023e-01 1.200000000000000000e+01
2.449708223342895952e+00 1.700690031051635964e+00 -5.796777009963989258e-01 1.100000000000000000e+01
2.923135042190552202e+00 2.027850866317749023e+00 -5.634769201278686523e-01 1.200000000000000000e+01
3.620165109634398970e+00 2.509526491165161133e+00 -5.408561229705810547e-01 9.000000000000000000e+00
4.793357849121093750e+00 3.321554422378540039e+00 -5.102097392082214355e-01 9.000000000000000000e+00
6.802949428558349609e+00 4.710585594177246094e+00 -4.336557388305664062e-01 2.000000000000000000e+00
3.036592102050780895e+01 2.101852035522460938e+01 8.526094436645507812e+00 1.100000000000000000e+01
1.116571331024169922e+01 7.725741386413574219e+00 -2.370036840438843051e-01 2.000000000000000000e+00
3.259020233154296875e+01 2.254129028320312855e+01 1.061779212951659979e+01 9.000000000000000000e+00
1.855736970901489036e+00 1.280187129974365012e+00 -6.040836572647094727e-01 1.800000000000000000e+01
2.106662511825561968e+00 1.452204108238219993e+00 -5.907214879989624023e-01 1.300000000000000000e+01
2.454013347625731978e+00 1.691014647483825906e+00 -5.792961120605468750e-01 1.000000000000000000e+01
2.931822776794434038e+00 2.018755197525023970e+00 -5.637897849082946777e-01 1.100000000000000000e+01
3.619090557098389116e+00 2.490123033523560014e+00 -5.393937230110168457e-01 9.000000000000000000e+00
4.811489105224609375e+00 3.309318542480469194e+00 -5.109069347381591797e-01 8.000000000000000000e+00
6.819351196289063388e+00 4.686810016632080078e+00 -4.336557388305664062e-01 2.000000000000000000e+00
3.043589210510253906e+01 2.091018867492676137e+01 8.525195121765136719e+00 1.100000000000000000e+01
1.118601894378661932e+01 7.682190418243408203e+00 -2.368640601634978970e-01 2.000000000000000000e+00
3.242590332031250000e+01 2.226904487609862926e+01 1.054014682769775035e+01 9.000000000000000000e+00
1.853818416595458984e+00 1.269335985183716042e+00 -6.020131111145019531e-01 1.800000000000000000e+01
2.119760513305664062e+00 1.450343728065490945e+00 -5.929709672927856445e-01 1.400000000000000000e+01
2.451798677444458008e+00 1.676896691322327104e+00 -5.773880481719970703e-01 1.100000000000000000e+01
2.942113399505614790e+00 2.010738134384154829e+00 -5.644155740737915039e-01 1.100000000000000000e+01
3.260333633422852273e+01 2.227385902404785156e+01 4.848206043243408203e+00 2.000000000000000000e+01
3.631039381027222124e+00 2.479713916778564009e+00 -5.398811697959899902e-01 9.000000000000000000e+00
4.827948093414306641e+00 3.295873165130614790e+00 -5.114299058914184570e-01 9.000000000000000000e+00
6.852169036865234375e+00 4.674232482910156250e+00 -4.347024559974669855e-01 2.000000000000000000e+00
3.059241867065430043e+01 2.086091041564941051e+01 8.548589706420898438e+00 1.100000000000000000e+01
1.121937656402588068e+01 7.647602558135986328e+00 -2.370036840438843051e-01 2.000000000000000000e+00
3.258325195312500000e+01 2.221012496948241832e+01 1.056602859497069957e+01 9.000000000000000000e+00
1.859835624694823997e+00 1.263943076133728027e+00 -6.025307178497314453e-01 1.900000000000000000e+01
2.131258726119995117e+00 1.447314739227294922e+00 -5.947706103324890137e-01 1.400000000000000000e+01
2.460886001586914062e+00 1.670533418655395952e+00 -5.781512856483459473e-01 1.100000000000000000e+01
2.945844650268555132e+00 1.998238205909729004e+00 -5.637897849082946777e-01 1.200000000000000000e+01
3.641316175460814986e+00 2.468137979507445845e+00 -5.401249527931213379e-01 1.000000000000000000e+01
3.176492881774901988e+01 2.152264785766601918e+01 6.077166080474854404e+00 1.400000000000000000e+01
4.824578762054443359e+00 3.268942117691040039e+00 -5.098611116409301758e-01 9.000000000000000000e+00
6.871750831604003906e+00 4.652524948120117188e+00 -4.349117875099182129e-01 2.000000000000000000e+00
3.069732666015625000e+01 2.077584075927734020e+01 8.557587623596191406e+00 1.100000000000000000e+01
1.125262832641601918e+01 7.612874984741210938e+00 -2.371432930231094083e-01 2.000000000000000000e+00
1.864236354827881081e+00 1.257443308830261008e+00 -6.025307178497314453e-01 1.900000000000000000e+01
2.134681940078734907e+00 1.438777208328247070e+00 -5.943207144737243652e-01 1.300000000000000000e+01
2.473214864730834961e+00 1.666321039199829102e+00 -5.796777009963989258e-01 1.100000000000000000e+01
2.951163291931151900e+00 1.986839890480041948e+00 -5.634769201278686523e-01 1.000000000000000000e+01
3.666380167007445845e+00 2.466492652893065962e+00 -5.425623059272766113e-01 1.000000000000000000e+01
3.190543174743651988e+01 2.145573043823241832e+01 6.089680671691895419e+00 1.400000000000000000e+01
4.854146480560302734e+00 3.264311313629149947e+00 -5.117785334587097168e-01 9.000000000000000000e+00
3.232598876953125000e+01 2.173035430908203125e+01 7.571300983428955078e+00 6.300000000000000000e+01
6.884634017944335938e+00 4.626282215118408203e+00 -4.347024559974669855e-01 2.000000000000000000e+00
3.216732788085938211e+01 2.160739898681640980e+01 8.946303367614746094e+00 1.200000000000000000e+01
1.128577423095702947e+01 7.578008651733398438e+00 -2.372829169034957886e-01 2.000000000000000000e+00
1.873430252075195090e+00 1.254152297973633035e+00 -6.040836572647094727e-01 1.700000000000000000e+01
2.131592512130736861e+00 1.425899505615233931e+00 -5.920711755752563477e-01 1.200000000000000000e+01
2.482280492782593218e+00 1.659860372543334961e+00 -5.804409384727478027e-01 1.100000000000000000e+01
2.953153371810913086e+00 1.973233938217163086e+00 -5.625383257865905762e-01 9.000000000000000000e+00
3.665061950683594194e+00 2.447066068649291992e+00 -5.410999059677124023e-01 1.000000000000000000e+01
3.184868812561035156e+01 2.125650024414062855e+01 6.064651489257813388e+00 1.400000000000000000e+01
4.872140407562255859e+00 3.251771450042725053e+00 -5.124757885932922363e-01 9.000000000000000000e+00
6.897417545318604404e+00 4.600005626678466797e+00 -4.344930946826934814e-01 2.000000000000000000e+00
3.208041000366210938e+01 2.138688468933105113e+01 8.901312828063964844e+00 1.200000000000000000e+01
1.132214164733887074e+01 7.545221328735351562e+00 -2.374923527240752896e-01 2.000000000000000000e+00
1.884232997894287109e+00 1.251881361007689986e+00 -6.061542034149169922e-01 1.700000000000000000e+01
3.245775985717772727e+01 2.155671882629394887e+01 6.801202893257141113e-01 3.300000000000000000e+01
2.130062580108643022e+00 1.414138793945312944e+00 -5.902715921401977539e-01 1.100000000000000000e+01
2.489695072174071822e+00 1.652271032333374023e+00 -5.808225870132446289e-01 1.200000000000000000e+01
2.960023164749145952e+00 1.962913513183593972e+00 -5.625383257865905762e-01 9.000000000000000000e+00
3.663652896881103960e+00 2.427678585052489790e+00 -5.396374464035034180e-01 1.000000000000000000e+01
4.883461475372313565e+00 3.234744548797606978e+00 -5.124757885932922363e-01 9.000000000000000000e+00
3.165843582153319957e+01 2.096220779418944957e+01 7.380491733551025391e+00 6.200000000000000000e+01
6.916763305664063388e+00 4.578105926513671875e+00 -4.347024559974669855e-01 2.000000000000000000e+00
1.134173870086669922e+01 7.501241207122802734e+00 -2.373527288436889926e-01 2.000000000000000000e+00
3.292240524291992188e+01 2.177434158325194957e+01 1.057638168334960938e+01 9.000000000000000000e+00
1.878914594650268999e+00 1.238915920257567915e+00 -6.030483841896057129e-01 1.800000000000000000e+01
2.144749641418457031e+00 1.413127899169922097e+00 -5.929709672927856445e-01 1.200000000000000000e+01
2.488888978958129883e+00 1.639250874519347922e+00 -5.792961120605468750e-01 1.300000000000000000e+01
2.983357906341553178e+00 1.963428854942321999e+00 -5.656670331954956055e-01 1.100000000000000000e+01
3.502029418945313211e+01 2.303904914855957031e+01 5.147029876708984375e+00 2.800000000000000000e+01
3.678739070892333984e+00 2.419238090515137163e+00 -5.406123995780944824e-01 1.000000000000000000e+01
4.886398792266845703e+00 3.212206125259398970e+00 -5.116041898727416992e-01 9.000000000000000000e+00
3.164937973022460938e+01 2.079766464233398082e+01 7.361411094665527344e+00 6.200000000000000000e+01
6.936040401458740234e+00 4.556127071380615234e+00 -4.349117875099182129e-01 2.000000000000000000e+00
3.241137695312500000e+01 2.128219985961914062e+01 8.951702117919921875e+00 1.200000000000000000e+01
1.138791465759276988e+01 7.474772930145263672e+00 -2.377715855836868009e-01 2.000000000000000000e+00
3.312741088867188211e+01 2.174409294128417969e+01 1.061779212951659979e+01 9.000000000000000000e+00
1.886460781097412109e+00 1.234465360641479048e+00 -6.040836572647094727e-01 1.700000000000000000e+01
2.156193256378173828e+00 1.409898638725280984e+00 -5.947706103324890137e-01 1.100000000000000000e+01
2.492952585220336914e+00 1.629478812217711958e+00 -5.789144635200500488e-01 1.400000000000000000e+01
2.973654747009276900e+00 1.942201018333435059e+00 -5.625383257865905762e-01 1.000000000000000000e+01
3.685498952865601030e+00 2.405297279357910156e+00 -5.403686761856079102e-01 9.000000000000000000e+00
3.294638442993164062e+01 2.149386978149414062e+01 6.230472087860107422e+00 1.400000000000000000e+01
4.907593727111816406e+00 3.201661825180054155e+00 -5.126500725746154785e-01 9.000000000000000000e+00
3.180400657653808949e+01 2.074068260192871094e+01 7.380491733551025391e+00 6.200000000000000000e+01
6.961940765380859375e+00 4.538432121276854581e+00 -4.355398416519165039e-01 2.000000000000000000e+00
3.257036972045897727e+01 2.122425651550292969e+01 8.975096702575683594e+00 1.200000000000000000e+01
1.144074630737305043e+01 7.452439308166503906e+00 -2.383300662040709894e-01 2.000000000000000000e+00
1.893998742103577104e+00 1.229977130889893022e+00 -6.051189303398132324e-01 1.700000000000000000e+01
2.161101579666138139e+00 1.402363538742064986e+00 -5.947706103324890137e-01 1.100000000000000000e+01
2.508507966995238814e+00 1.627177357673645020e+00 -5.812041759490966797e-01 1.300000000000000000e+01
2.987046480178833008e+00 1.936106801033020020e+00 -5.637897849082946777e-01 1.000000000000000000e+01
3.700537204742432085e+00 2.396734237670897993e+00 -5.413436293601989746e-01 9.000000000000000000e+00
3.302121353149414062e+01 2.137873458862305043e+01 6.230472087860107422e+00 1.400000000000000000e+01
4.922084808349609375e+00 3.186677217483520952e+00 -5.129987001419067383e-01 9.000000000000000000e+00
3.088729095458984020e+01 1.998953247070312855e+01 7.151521205902099609e+00 6.100000000000000000e+01
6.977740764617919922e+00 4.514102935791015625e+00 -4.355398416519165039e-01 2.000000000000000000e+00
1.147004985809325994e+01 7.414629459381104404e+00 -2.383998781442641934e-01 2.000000000000000000e+00
3.259375762939453125e+01 2.106971359252930043e+01 1.039934921264648082e+01 8.000000000000000000e+00
1.901528358459473100e+00 1.225451350212096946e+00 -6.061542034149169922e-01 1.900000000000000000e+01
2.159430027008057085e+00 1.390591025352478027e+00 -5.929709672927856445e-01 1.100000000000000000e+01
2.524077415466309038e+00 1.624786972999572976e+00 -5.834938883781433105e-01 1.400000000000000000e+01
2.992125272750854048e+00 1.924599647521973100e+00 -5.634769201278686523e-01 8.000000000000000000e+00
3.702201128005981001e+00 2.379509210586547852e+00 -5.403686761856079102e-01 9.000000000000000000e+00
3.317873382568358664e+01 2.131672668457030895e+01 6.246115207672119141e+00 1.400000000000000000e+01
4.938207149505615234e+00 3.172707319259643999e+00 -5.135216116905212402e-01 9.000000000000000000e+00
3.103947448730469105e+01 1.993463897705078125e+01 7.170601844787597656e+00 6.100000000000000000e+01
6.990093708038330078e+00 4.487560272216796875e+00 -4.353304803371428888e-01 3.000000000000000000e+00
1.152279186248778942e+01 7.391822338104248047e+00 -2.389583438634871881e-01 2.000000000000000000e+00
1.902114510536194070e+00 1.217388749122620073e+00 -6.051189303398132324e-01 1.800000000000000000e+01
2.157221078872681108e+00 1.379600405693053977e+00 -5.911713838577270508e-01 1.000000000000000000e+01
2.515936136245727983e+00 1.608389735221863015e+00 -5.804409384727478027e-01 1.400000000000000000e+01
2.999821662902832031e+00 1.916253566741942915e+00 -5.637897849082946777e-01 7.000000000000000000e+00
3.599991989135742188e+01 2.298751449584960938e+01 5.244525432586669922e+00 3.000000000000000000e+01
3.716351509094237837e+00 2.372138977050780806e+00 -5.413436293601989746e-01 1.000000000000000000e+01
3.141023826599121094e+01 2.004908561706542969e+01 5.901959419250488281e+00 1.300000000000000000e+01
4.933033466339111328e+00 3.147532701492310014e+00 -5.119528174400329590e-01 8.000000000000000000e+00
7.014262199401854581e+00 4.472020626068115234e+00 -4.359585046768187921e-01 2.000000000000000000e+00
3.095283508300780895e+01 1.972672653198241832e+01 8.473906517028808594e+00 1.100000000000000000e+01
1.153583812713623047e+01 7.349139213562011719e+00 -2.387489229440689087e-01 2.000000000000000000e+00
3.270383071899414062e+01 2.082661437988280895e+01 1.038899612426757990e+01 8.000000000000000000e+00
1.911244750022887962e+00 1.213848829269408958e+00 -6.066718697547912598e-01 1.900000000000000000e+01
2.175186634063721147e+00 1.380415439605712891e+00 -5.947706103324890137e-01 1.100000000000000000e+01
2.518219470977783203e+00 1.597494244575500044e+00 -5.796777009963989258e-01 1.300000000000000000e+01
3.001487016677856001e+00 1.902597784996032937e+00 -5.628511905670166016e-01 6.000000000000000000e+00
3.599610137939453125e+01 2.280858612060546875e+01 5.232338428497313565e+00 3.000000000000000000e+01
3.724609136581420898e+00 2.359152078628540039e+00 -5.413436293601989746e-01 9.000000000000000000e+00
4.949040412902832031e+00 3.133491516113280806e+00 -5.124757885932922363e-01 9.000000000000000000e+00
7.023077964782714844e+00 4.443237781524658203e+00 -4.355398416519165039e-01 2.000000000000000000e+00
3.118620872497558949e+01 1.972272109985351918e+01 8.518896102905273438e+00 1.100000000000000000e+01
1.154113769531250000e+01 7.296004295349121094e+00 -2.383300662040709894e-01 2.000000000000000000e+00
3.267834472656250000e+01 2.065040969848633168e+01 1.035793781280517933e+01 8.000000000000000000e+00
1.902395248413085938e+00 1.198929905891418013e+00 -6.025307178497314453e-01 1.900000000000000000e+01
2.183290004730225053e+00 1.374891042709351030e+00 -5.956704020500183105e-01 1.100000000000000000e+01
2.533749341964722124e+00 1.594969630241394043e+00 -5.819674134254455566e-01 1.300000000000000000e+01
3.013126373291016069e+00 1.895264267921447976e+00 -5.637897849082946777e-01 9.000000000000000000e+00
3.746266841888428178e+00 2.354587078094481978e+00 -5.432935357093811035e-01 1.000000000000000000e+01
3.171668624877930043e+01 1.993443107604980113e+01 5.933246612548828125e+00 1.300000000000000000e+01
4.959948062896729404e+00 3.116196870803833008e+00 -5.124757885932922363e-01 9.000000000000000000e+00
7.052077770233154297e+00 4.427190780639648438e+00 -4.363771975040435791e-01 2.000000000000000000e+00
3.103367805480957031e+01 1.947493743896484020e+01 8.458609580993652344e+00 1.100000000000000000e+01
1.159702682495117010e+01 7.274801254272460938e+00 -2.389583438634871881e-01 2.000000000000000000e+00
3.248835754394531250e+01 2.037200736999512074e+01 1.027511596679688033e+01 8.000000000000000000e+00
1.911482572555541992e+00 1.195354819297790971e+00 -6.040836572647094727e-01 1.700000000000000000e+01
2.181465387344359907e+00 1.363130927085876021e+00 -5.938707590103149414e-01 1.100000000000000000e+01
2.539301395416260210e+00 1.586115479469299094e+00 -5.819674134254455566e-01 1.300000000000000000e+01
3.011344909667969194e+00 1.879505395889282005e+00 -5.622254610061645508e-01 1.200000000000000000e+01
3.155999374389648082e+01 1.969025039672851918e+01 4.567419052124023438e+00 1.900000000000000000e+01
3.754463195800780806e+00 2.341495752334595171e+00 -5.432935357093811035e-01 9.000000000000000000e+00
4.974176883697509766e+00 3.100972652435303178e+00 -5.128244161605834961e-01 9.000000000000000000e+00
7.064097881317138672e+00 4.400435447692871094e+00 -4.361678659915924072e-01 2.000000000000000000e+00
3.124042510986328125e+01 1.945301818847655895e+01 8.496401786804199219e+00 1.100000000000000000e+01
1.164272212982177912e+01 7.246956348419188565e+00 -2.393772006034851074e-01 2.000000000000000000e+00
3.275610351562500000e+01 2.038094711303710938e+01 1.033723258972167969e+01 8.000000000000000000e+00
1.922209620475769043e+00 1.192749500274657981e+00 -6.061542034149169922e-01 2.000000000000000000e+01
2.179585456848144975e+00 1.351400256156920943e+00 -5.920711755752563477e-01 1.000000000000000000e+01
2.554834842681885210e+00 1.583447575569153054e+00 -5.842571258544921875e-01 1.300000000000000000e+01
3.022925376892089844e+00 1.872102618217468040e+00 -5.631640553474426270e-01 1.200000000000000000e+01
3.166566658020019887e+01 1.960295295715332031e+01 4.572781562805175781e+00 1.900000000000000000e+01
3.764301776885985884e+00 2.329420566558837891e+00 -5.435372591018676758e-01 1.000000000000000000e+01
4.988359928131104404e+00 3.085686922073363814e+00 -5.131729841232299805e-01 8.000000000000000000e+00
3.095842933654785156e+01 1.914271545410155895e+01 7.075197696685791016e+00 6.100000000000000000e+01
7.072619438171386719e+00 4.371550083160400391e+00 -4.357491731643676758e-01 2.000000000000000000e+00
3.122524642944335938e+01 1.929263496398926137e+01 8.473906517028808594e+00 1.100000000000000000e+01
1.168836402893066051e+01 7.218880653381347656e+00 -2.397960573434829989e-01 2.000000000000000000e+00
3.260326004028320312e+01 2.013618278503417969e+01 1.026786899566650035e+01 8.000000000000000000e+00
1.934586644172668013e+00 1.191096663475037065e+00 -6.087424159049987793e-01 2.100000000000000000e+01
2.187609195709228960e+00 1.345826148986815962e+00 -5.929709672927856445e-01 1.100000000000000000e+01
2.555329561233520952e+00 1.571434497833251953e+00 -5.831122994422912598e-01 1.300000000000000000e+01
3.034490823745727983e+00 1.864641785621643066e+00 -5.641027092933654785e-01 1.200000000000000000e+01
3.185906982421875000e+01 1.956918334960937855e+01 4.590817928314208984e+00 1.900000000000000000e+01
3.757184982299805132e+00 2.306918382644652876e+00 -5.413436293601989746e-01 9.000000000000000000e+00
3.141868209838866832e+01 1.929112815856933949e+01 5.839385509490966797e+00 1.300000000000000000e+01
5.002496719360351562e+00 3.070339918136597124e+00 -5.135216116905212402e-01 8.000000000000000000e+00
3.265496444702147727e+01 2.003451538085937855e+01 7.446893692016601562e+00 6.200000000000000000e+01
7.081025600433349609e+00 4.342658996582031250e+00 -4.353304803371428888e-01 2.000000000000000000e+00
3.148180007934569957e+01 1.929963111877441051e+01 8.525195121765136719e+00 1.100000000000000000e+01
1.174077224731444957e+01 7.194754123687744141e+00 -2.403545379638671875e-01 2.000000000000000000e+00
3.253517150878906250e+01 1.992976951599121094e+01 1.022335243225098012e+01 8.000000000000000000e+00
1.929046630859375000e+00 1.177957296371459961e+00 -6.056365370750427246e-01 2.200000000000000000e+01
2.199181318283081055e+00 1.341859102249145952e+00 -5.947706103324890137e-01 1.200000000000000000e+01
2.549339294433594194e+00 1.554902195930480957e+00 -5.804409384727478027e-01 1.300000000000000000e+01
3.051425695419311968e+00 1.859675407409667969e+00 -5.659798979759216309e-01 1.300000000000000000e+01
3.774092197418212891e+00 2.298294544219971147e+00 -5.425623059272766113e-01 1.000000000000000000e+01
5.000101566314697266e+00 3.043696403503417969e+00 -5.121271610260009766e-01 9.000000000000000000e+00
7.103720188140869141e+00 4.320827960968017578e+00 -4.357491731643676758e-01 2.000000000000000000e+00
3.179876327514648082e+01 1.933395004272460938e+01 8.591780662536621094e+00 1.100000000000000000e+01
1.172605133056640980e+01 7.126748085021972656e+00 -2.395168244838714877e-01 2.000000000000000000e+00
3.699583816528320312e+01 2.248497772216796875e+01 1.160026931762694957e+01 1.100000000000000000e+01
1.933146715164185014e+00 1.171216487884521040e+00 -6.056365370750427246e-01 2.100000000000000000e+01
2.210520029067993164e+00 1.338211297988892046e+00 -5.965701937675476074e-01 1.100000000000000000e+01
2.553071737289429155e+00 1.544977426528931108e+00 -5.800593495368957520e-01 1.300000000000000000e+01
3.051136970520019975e+00 1.844924092292786089e+00 -5.647284388542175293e-01 1.000000000000000000e+01
3.412187957763671875e+01 2.062426757812500000e+01 4.895491600036621094e+00 2.100000000000000000e+01
3.799082279205321822e+00 2.295372009277344194e+00 -5.449997186660766602e-01 1.000000000000000000e+01
4.997051715850830078e+00 3.017983913421630859e+00 -5.107326507568359375e-01 9.000000000000000000e+00
7.118759632110595703e+00 4.296005249023438388e+00 -4.357491731643676758e-01 2.000000000000000000e+00
3.182267189025878906e+01 1.919666290283203125e+01 8.580082893371582031e+00 1.100000000000000000e+01
1.179195499420166016e+01 7.110555648803710938e+00 -2.403545379638671875e-01 2.000000000000000000e+00
3.350090789794921875e+01 2.019309234619140980e+01 1.048113632202148082e+01 9.000000000000000000e+00
1.935161232948303001e+00 1.164141654968261941e+00 -6.051189303398132324e-01 2.000000000000000000e+01
2.211372852325439009e+00 1.329252123832703081e+00 -5.956704020500183105e-01 1.100000000000000000e+01
2.564644336700439009e+00 1.540993690490723100e+00 -5.815858244895935059e-01 1.300000000000000000e+01
3.055224418640137163e+00 1.834312796592711958e+00 -5.644155740737915039e-01 1.100000000000000000e+01
3.407416534423828125e+01 2.044954872131348012e+01 4.879404544830322266e+00 2.100000000000000000e+01
3.804572582244873047e+00 2.282404184341431108e+00 -5.447559356689453125e-01 1.000000000000000000e+01
3.157161903381348012e+01 1.894015693664551137e+01 5.831251144409179688e+00 1.300000000000000000e+01
5.016760349273681641e+00 3.008418321609497070e+00 -5.117785334587097168e-01 9.000000000000000000e+00
7.156206130981445312e+00 4.287991523742675781e+00 -4.372145831584929865e-01 2.000000000000000000e+00
3.211687469482421875e+01 1.923678207397460938e+01 8.643069267272949219e+00 1.100000000000000000e+01
1.183482360839843928e+01 7.085801601409912109e+00 -2.407733947038651068e-01 2.000000000000000000e+00
3.250983047485352273e+01 1.946443939208984020e+01 1.015295314788818004e+01 8.000000000000000000e+00
1.947507381439208984e+00 1.162329912185668945e+00 -6.077071428298950195e-01 2.100000000000000000e+01
2.205956935882567915e+00 1.315536141395569070e+00 -5.929709672927856445e-01 1.400000000000000000e+01
2.573380470275878906e+00 1.534042596817017046e+00 -5.823490619659423828e-01 1.300000000000000000e+01
3.070094347000122070e+00 1.828691363334655984e+00 -5.659798979759216309e-01 1.200000000000000000e+01
3.394066238403320312e+01 2.020861625671387074e+01 4.850156307220458984e+00 2.000000000000000000e+01
3.807398796081542969e+00 2.266064167022705078e+00 -5.440247654914855957e-01 1.000000000000000000e+01
3.185473060607910156e+01 1.895157241821289062e+01 5.870672702789306641e+00 1.300000000000000000e+01
5.032368183135986328e+00 2.993944406509398970e+00 -5.123014450073242188e-01 9.000000000000000000e+00
7.171130657196044922e+00 4.262985706329345703e+00 -4.372145831584929865e-01 1.000000000000000000e+00
3.236475753784179688e+01 1.923207092285155895e+01 8.691658973693847656e+00 1.100000000000000000e+01
1.187324047088623047e+01 7.052617073059082031e+00 -2.410526424646378119e-01 2.000000000000000000e+00
3.376698303222656250e+01 2.004936790466308949e+01 1.052254676818848012e+01 9.000000000000000000e+00
1.953215122222899947e+00 1.156509041786194070e+00 -6.082247495651245117e-01 1.900000000000000000e+01
2.215567111968994141e+00 1.310804724693297896e+00 -5.943207144737243652e-01 1.300000000000000000e+01
2.573649883270264116e+00 1.522052407264709029e+00 -5.812041759490966797e-01 1.200000000000000000e+01
3.074758291244506836e+00 1.816958546638488992e+00 -5.656670331954956055e-01 1.200000000000000000e+01
3.190870475769042969e+01 1.884821128845214844e+01 4.550357341766357422e+00 1.900000000000000000e+01
3.811866998672484907e+00 2.250741481781005859e+00 -5.435372591018676758e-01 1.000000000000000000e+01
3.187317466735839844e+01 1.881972122192383168e+01 5.862537860870361328e+00 1.300000000000000000e+01
5.061662197113037109e+00 2.987499713897705078e+00 -5.142188668251037598e-01 9.000000000000000000e+00
3.329384231567382812e+01 1.964289474487305043e+01 7.514058113098145419e+00 6.300000000000000000e+01
