-4.247963428497313565e+00 -2.009817600250244141e+00 -7.443152070045471191e-01 1.100000000000000000e+01
-5.744793891906738281e+00 -2.715551614761352983e+00 -7.802075147628784180e-01 8.000000000000000000e+00
-8.812610626220703125e+00 -4.163820266723632812e+00 -8.527317643165588379e-01 1.000000000000000000e+00
-1.218779087066650035e+01 -5.753336906433104581e+00 -7.063260674476623535e-01 1.600000000000000000e+01
-4.704078292846679688e+01 -2.218587303161621094e+01 -9.078392982482910156e-01 1.400000000000000000e+01
-2.433803558349608931e+00 -1.143704891204833984e+00 -7.205522060394287109e-01 2.000000000000000000e+01
-4.846563339233397727e+01 -2.276488113403319957e+01 9.346461892127990723e-01 6.300000000000000000e+01
-2.840033769607543945e+00 -1.333392500877379927e+00 -7.243424057960510254e-01 1.200000000000000000e+01
-3.401714086532593218e+00 -1.596376180648803933e+00 -7.304168343544006348e-01 1.100000000000000000e+01
-4.263895988464354581e+00 -1.999169945716857910e+00 -7.458795309066772461e-01 1.200000000000000000e+01
-5.750642776489257812e+00 -2.693798065185546875e+00 -7.797200679779052734e-01 9.000000000000000000e+00
-8.852353096008300781e+00 -4.144861221313476562e+00 -8.551721572875976562e-01 1.000000000000000000e+00
-1.225664520263672053e+01 -5.733608245849609375e+00 -7.091522216796875000e-01 1.600000000000000000e+01
-4.706721496582031250e+01 -2.199782752990723012e+01 -9.068619608879089355e-01 1.400000000000000000e+01
-2.430973291397095171e+00 -1.131515979766845925e+00 -7.184816598892211914e-01 2.000000000000000000e+01
-2.850203037261962891e+00 -1.325439572334289995e+00 -7.256920933723449707e-01 1.200000000000000000e+01
-3.409322500228881836e+00 -1.584725141525268999e+00 -7.307984232902526855e-01 1.200000000000000000e+01
-4.276569366455078125e+00 -1.986024618148803933e+00 -7.468181252479553223e-01 1.100000000000000000e+01
-5.746071815490722656e+00 -2.666018962860106978e+00 -7.777701616287231445e-01 9.000000000000000000e+00
-8.824105262756347656e+00 -4.092270374298095703e+00 -8.509886860847473145e-01 1.000000000000000000e+00
-1.236818695068359020e+01 -5.730629444122313565e+00 -7.143858075141906738e-01 8.000000000000000000e+00
-4.709308242797852273e+01 -2.179996871948241832e+01 -9.058148264884948730e-01 1.400000000000000000e+01
-2.424382686614989790e+00 -1.118168830871582031e+00 -7.153758406639099121e-01 2.000000000000000000e+01
-2.858351945877075195e+00 -1.317113518714905007e+00 -7.265918850898742676e-01 1.200000000000000000e+01
-3.404134273529053178e+00 -1.567886829376220925e+00 -7.285087704658508301e-01 1.200000000000000000e+01
-4.276297569274902344e+00 -1.967781543731689009e+00 -7.455666661262512207e-01 1.100000000000000000e+01
-5.767968177795410156e+00 -2.651749372482299805e+00 -7.794763445854187012e-01 1.100000000000000000e+01
-8.838336944580078125e+00 -4.061443328857421875e+00 -8.509886860847473145e-01 1.000000000000000000e+00
-1.250065135955811080e+01 -5.739087581634520596e+00 -7.208754420280456543e-01 8.000000000000000000e+00
-4.713980865478516336e+01 -2.162211036682128906e+01 -9.052563309669494629e-01 1.400000000000000000e+01
-2.431591272354125977e+00 -1.111729741096497026e+00 -7.164111137390136719e-01 2.000000000000000000e+01
-2.857386350631713867e+00 -1.305198550224303977e+00 -7.252421975135803223e-01 1.100000000000000000e+01
-3.407528877258300781e+00 -1.555774331092834029e+00 -7.281271219253540039e-01 1.100000000000000000e+01
-4.272016048431395596e+00 -1.948671221733093040e+00 -7.436894178390502930e-01 1.100000000000000000e+01
-5.774923801422119141e+00 -2.631784439086914062e+00 -7.792325615882873535e-01 1.100000000000000000e+01
-8.840877532958984375e+00 -4.027156352996826172e+00 -8.499428033828735352e-01 1.000000000000000000e+00
-1.258142185211181996e+01 -5.725730419158936435e+00 -7.244343161582946777e-01 8.000000000000000000e+00
-4.705834197998046875e+01 -2.139614677429198863e+01 -9.023243188858032227e-01 1.400000000000000000e+01
-2.438976526260375977e+00 -1.104829430580138938e+00 -7.174463868141174316e-01 2.000000000000000000e+01
-4.850550460815429688e+01 -2.196225547790526988e+01 9.294104576110839844e-01 6.300000000000000000e+01
-2.853047847747803178e+00 -1.291199088096619096e+00 -7.229927182197570801e-01 1.200000000000000000e+01
-3.423671245574951172e+00 -1.548725247383117898e+00 -7.304168343544006348e-01 1.100000000000000000e+01
-4.282392501831054688e+00 -1.935374259948730025e+00 -7.443152070045471191e-01 1.100000000000000000e+01
-5.771410465240479404e+00 -2.605891704559326172e+00 -7.775264382362365723e-01 1.100000000000000000e+01
-8.843984603881835938e+00 -3.991354227066040039e+00 -8.488969206809997559e-01 1.000000000000000000e+00
-1.261043548583984020e+01 -5.685883045196533203e+00 -7.249576449394226074e-01 1.200000000000000000e+01
-4.709627532958983664e+01 -2.121532630920410156e+01 -9.016262292861938477e-01 1.400000000000000000e+01
-2.453201055526732954e+00 -1.101483106613158958e+00 -7.205522060394287109e-01 1.900000000000000000e+01
-2.857314109802246094e+00 -1.281730890274048074e+00 -7.229927182197570801e-01 1.200000000000000000e+01
-3.425205469131470171e+00 -1.535756945610045943e+00 -7.296535968780517578e-01 1.100000000000000000e+01
-4.288786888122558594e+00 -1.921162605285644975e+00 -7.443152070045471191e-01 1.200000000000000000e+01
-5.778208255767822266e+00 -2.585927963256835938e+00 -7.772826552391052246e-01 9.000000000000000000e+00
-8.889908790588378906e+00 -3.976648330688477007e+00 -8.520345687866210938e-01 1.000000000000000000e+00
-1.266933727264403942e+01 -5.661961555480957031e+00 -7.272604703903198242e-01 1.600000000000000000e+01
-4.720288848876953125e+01 -2.107533645629883168e+01 -9.023243188858032227e-01 1.400000000000000000e+01
-2.446440458297729048e+00 -1.088202357292175071e+00 -7.174463868141174316e-01 2.000000000000000000e+01
-2.865332365036011186e+00 -1.273331999778748003e+00 -7.238925099372863770e-01 1.300000000000000000e+01
-3.425162792205810991e+00 -1.521400570869446023e+00 -7.285087704658508301e-01 1.200000000000000000e+01
-4.295466899871826172e+00 -1.906180262565613015e+00 -7.443152070045471191e-01 1.200000000000000000e+01
-5.774496555328369141e+00 -2.560110569000244141e+00 -7.755764722824096680e-01 9.000000000000000000e+00
-8.903736114501953125e+00 -3.945592641830443892e+00 -8.520345687866210938e-01 3.000000000000000000e+00
-1.275659656524658025e+01 -5.647618770599365234e+00 -7.311332821846008301e-01 1.200000000000000000e+01
-4.718473052978516336e+01 -2.086999511718750000e+01 -9.005790948867797852e-01 1.400000000000000000e+01
-5.145346832275391336e+01 -2.274734115600585938e+01 1.507413864135742010e+01 1.900000000000000000e+01
-2.450223922729492188e+00 -1.079656004905700906e+00 -7.174463868141174316e-01 2.000000000000000000e+01
-2.875110387802124023e+00 -1.265677809715270996e+00 -7.252421975135803223e-01 1.100000000000000000e+01
-3.430452585220336914e+00 -1.509435176849365012e+00 -7.285087704658508301e-01 1.200000000000000000e+01
-4.307519435882568359e+00 -1.893559575080872026e+00 -7.452538013458251953e-01 1.200000000000000000e+01
-5.797938346862792969e+00 -2.546324014663695845e+00 -7.775264382362365723e-01 1.100000000000000000e+01
-8.855425834655761719e+00 -3.887260198593140093e+00 -8.461079597473144531e-01 1.000000000000000000e+00
-1.279635238647460938e+01 -5.611879348754882812e+00 -7.322847247123718262e-01 1.200000000000000000e+01
-5.152861785888671875e+01 -2.257658958435058949e+01 1.507413864135742010e+01 1.900000000000000000e+01
-2.443354368209838867e+00 -1.066459774971008079e+00 -7.143405675888061523e-01 2.000000000000000000e+01
-2.868793010711669922e+00 -1.250960469245911089e+00 -7.225427627563476562e-01 1.200000000000000000e+01
-3.439300060272216797e+00 -1.499020338058471902e+00 -7.292720079421997070e-01 1.200000000000000000e+01
-4.290558338165283203e+00 -1.868259787559509055e+00 -7.411864995956420898e-01 1.100000000000000000e+01
-5.804970741271972656e+00 -2.525277853012084961e+00 -7.772826552391052246e-01 1.100000000000000000e+01
-8.861632347106933594e+00 -3.853147506713867188e+00 -8.454107046127319336e-01 1.000000000000000000e+00
-1.292394447326659979e+01 -5.614127635955811435e+00 -7.384603619575500488e-01 8.000000000000000000e+00
-5.268710327148438211e+01 -2.287620925903319957e+01 1.326086425781250000e+01 1.900000000000000000e+01
-4.723755645751953125e+01 -2.050027465820312855e+01 -8.988338112831115723e-01 1.400000000000000000e+01
-2.461619377136230025e+00 -1.063198089599608931e+00 -7.184816598892211914e-01 1.900000000000000000e+01
-2.869996786117554155e+00 -1.238391876220702903e+00 -7.216429710388183594e-01 1.200000000000000000e+01
-3.450438737869263139e+00 -1.488135814666748047e+00 -7.304168343544006348e-01 1.100000000000000000e+01
-4.306771278381347656e+00 -1.855679869651793990e+00 -7.427508234977722168e-01 1.200000000000000000e+01
-5.807331085205078125e+00 -2.499830484390258789e+00 -7.763077020645141602e-01 1.100000000000000000e+01
-8.898324966430664062e+00 -3.828542232513428178e+00 -8.475024700164794922e-01 1.000000000000000000e+00
-1.291054248809813920e+01 -5.549476146697998047e+00 -7.364715933799743652e-01 1.200000000000000000e+01
-4.731592559814453125e+01 -2.031874465942383168e+01 -8.988338112831115723e-01 1.400000000000000000e+01
-5.069181823730468750e+01 -2.175796699523926137e+01 1.478115558624267933e+01 1.900000000000000000e+01
-2.465315580368041992e+00 -1.054598927497863992e+00 -7.184816598892211914e-01 2.000000000000000000e+01
-2.870718002319335938e+00 -1.226834535598755105e+00 -7.207431793212890625e-01 1.200000000000000000e+01
-3.442974090576171875e+00 -1.470684051513672097e+00 -7.277455329895019531e-01 1.200000000000000000e+01
-4.320489883422851562e+00 -1.843736410140990989e+00 -7.440023422241210938e-01 1.200000000000000000e+01
-5.801413059234619141e+00 -2.473315715789794922e+00 -7.743577957153320312e-01 1.100000000000000000e+01
-8.904302597045898438e+00 -3.794333934783935991e+00 -8.468052148818969727e-01 1.000000000000000000e+00
-1.295188713073729936e+01 -5.513763904571533203e+00 -7.377276420593261719e-01 1.200000000000000000e+01
-5.092035675048828125e+01 -2.164588165283203125e+01 1.482567214965819957e+01 1.900000000000000000e+01
-2.466838121414185014e+00 -1.046094536781311035e+00 -7.179640531539916992e-01 1.600000000000000000e+01
-2.878146886825561968e+00 -1.219330191612244096e+00 -7.216429710388183594e-01 1.200000000000000000e+01
-3.443961620330810991e+00 -1.458329439163208008e+00 -7.269822955131530762e-01 1.200000000000000000e+01
-4.324441432952880859e+00 -1.829384446144104004e+00 -7.436894178390502930e-01 1.100000000000000000e+01
-5.809154510498046875e+00 -2.455077886581420898e+00 -7.743577957153320312e-01 1.100000000000000000e+01
-8.879471778869628906e+00 -3.750835657119750977e+00 -8.433189392089843750e-01 1.000000000000000000e+00
-1.303354930877686080e+01 -5.500226020812988281e+00 -7.413911819458007812e-01 2.100000000000000000e+01
-2.459787607192993164e+00 -1.032989263534545898e+00 -7.148581743240356445e-01 1.400000000000000000e+01
-2.891370534896851030e+00 -1.213045716285706010e+00 -7.238925099372863770e-01 1.200000000000000000e+01
-3.447220802307128906e+00 -1.445539593696594016e+00 -7.266006469726562500e-01 1.200000000000000000e+01
-4.330801010131835938e+00 -1.814278244972229004e+00 -7.436894178390502930e-01 1.100000000000000000e+01
-5.815857887268066406e+00 -2.434018850326538086e+00 -7.741140723228454590e-01 9.000000000000000000e+00
-8.918243408203125000e+00 -3.730581998825072798e+00 -8.457593321800231934e-01 1.000000000000000000e+00
-1.311163902282715021e+01 -5.479340553283691406e+00 -7.447406649589538574e-01 1.700000000000000000e+01
-2.472297191619873047e+00 -1.028105616569519043e+00 -7.174463868141174316e-01 1.500000000000000000e+01
-2.893787622451781782e+00 -1.202197909355164018e+00 -7.234426140785217285e-01 1.100000000000000000e+01
-3.452245712280272993e+00 -1.433497786521912065e+00 -7.266006469726562500e-01 1.200000000000000000e+01
-4.324335098266601562e+00 -1.793851613998413086e+00 -7.414993643760681152e-01 1.200000000000000000e+01
-5.824318885803222656e+00 -2.413702964782714844e+00 -7.741140723228454590e-01 1.100000000000000000e+01
-8.883352279663085938e+00 -3.679605007171630859e+00 -8.412272334098815918e-01 1.000000000000000000e+00
-1.311592197418213068e+01 -5.427429676055908203e+00 -7.439032793045043945e-01 2.100000000000000000e+01
-5.142596817016602273e+01 -2.125928306579589844e+01 1.491056537628174006e+01 1.900000000000000000e+01
-2.477657318115233931e+00 -1.020205020904541016e+00 -7.179640531539916992e-01 1.200000000000000000e+01
-2.878142118453979048e+00 -1.183934569358825906e+00 -7.184936404228210449e-01 1.200000000000000000e+01
-3.460860013961791992e+00 -1.422931551933289018e+00 -7.273638844490051270e-01 1.100000000000000000e+01
-4.328743457794188565e+00 -1.777995347976685014e+00 -7.411864995956420898e-01 1.200000000000000000e+01
-5.823526382446289062e+00 -2.389589548110961914e+00 -7.728953957557678223e-01 1.100000000000000000e+01
-8.896142005920410156e+00 -3.648573875427246094e+00 -8.412272334098815918e-01 1.000000000000000000e+00
-1.315142059326172053e+01 -5.388428688049316406e+00 -7.448453307151794434e-01 1.200000000000000000e+01
-2.497303485870360884e+00 -1.018113851547240989e+00 -7.226227521896362305e-01 1.300000000000000000e+01
-2.891281127929687944e+00 -1.177556037902832031e+00 -7.207431793212890625e-01 1.100000000000000000e+01
-3.467624187469481978e+00 -1.411582469940185991e+00 -7.277455329895019531e-01 1.200000000000000000e+01
-4.340413093566895419e+00 -1.765106797218322976e+00 -7.421250939369201660e-01 1.200000000000000000e+01
-5.835510253906250000e+00 -2.370741605758666992e+00 -7.733828425407409668e-01 1.100000000000000000e+01
-8.908823966979980469e+00 -3.617498397827147993e+00 -8.412272334098815918e-01 1.000000000000000000e+00
-1.322937488555908025e+01 -5.366513252258300781e+00 -7.481948137283325195e-01 1.200000000000000000e+01
-2.491884946823120117e+00 -1.005775213241576926e+00 -7.200345993041992188e-01 1.000000000000000000e+01
-2.895374059677124023e+00 -1.167456388473510964e+00 -7.207431793212890625e-01 1.100000000000000000e+01
-3.454320907592772993e+00 -1.392130970954895020e+00 -7.239293456077575684e-01 1.100000000000000000e+01
-4.342883110046386719e+00 -1.748469710350037065e+00 -7.414993643760681152e-01 1.200000000000000000e+01
-5.829016208648681641e+00 -2.344431400299071822e+00 -7.714329361915588379e-01 1.100000000000000000e+01
-8.921397209167480469e+00 -3.586378574371337891e+00 -8.412272334098815918e-01 1.000000000000000000e+00
-1.324246692657471058e+01 -5.318068504333496094e+00 -7.478808164596557617e-01 4.000000000000000000e+00
-5.111146545410156250e+01 -2.049488449096680043e+01 1.475527381896973012e+01 1.900000000000000000e+01
-2.484616756439208984e+00 -9.927699565887451172e-01 -7.169287800788879395e-01 1.000000000000000000e+01
-2.906671047210692915e+00 -1.160232305526732954e+00 -7.225427627563476562e-01 1.100000000000000000e+01
-3.464629888534545898e+00 -1.382247209548949973e+00 -7.250741720199584961e-01 1.200000000000000000e+01
-4.352629661560058594e+00 -1.734762310981750044e+00 -7.421250939369201660e-01 1.200000000000000000e+01
-5.837164402008056641e+00 -2.324069976806641069e+00 -7.714329361915588379e-01 1.100000000000000000e+01
-5.222414016723632812e+01 -2.079306793212890980e+01 8.902997970581054688e+00 2.800000000000000000e+01
-8.915349960327148438e+00 -3.547848463058472124e+00 -8.394840955734252930e-01 1.000000000000000000e+00
-1.340942764282226918e+01 -5.330838203430175781e+00 -7.562545537948608398e-01 8.000000000000000000e+00
-5.117914581298828125e+01 -2.032527923583984020e+01 1.475527381896973012e+01 1.900000000000000000e+01
-2.493456363677978960e+00 -9.862225651741027832e-01 -7.184816598892211914e-01 1.100000000000000000e+01
-2.899828910827637163e+00 -1.145782351493835005e+00 -7.198433876037597656e-01 1.100000000000000000e+01
-3.473085641860961914e+00 -1.371587157249450906e+00 -7.258374094963073730e-01 1.100000000000000000e+01
-4.347633361816406250e+00 -1.715208530426024947e+00 -7.402479052543640137e-01 1.200000000000000000e+01
-5.856322288513183594e+00 -2.308047533035277876e+00 -7.728953957557678223e-01 1.100000000000000000e+01
-8.923972129821777344e+00 -3.515246152877808061e+00 -8.391354680061340332e-01 1.000000000000000000e+00
-1.361380767822265980e+01 -5.357132911682128906e+00 -7.667217850685119629e-01 8.000000000000000000e+00
-4.848441314697266336e+01 -1.905942726135253906e+01 -9.093402028083801270e-01 1.400000000000000000e+01
-5.107709121704102273e+01 -2.006832885742187855e+01 1.470454502105713068e+01 1.900000000000000000e+01
-2.500481605529785156e+00 -9.789212942123413086e-01 -7.195169329643249512e-01 1.200000000000000000e+01
-2.894736528396606001e+00 -1.132104158401489036e+00 -7.175938487052917480e-01 1.200000000000000000e+01
-3.488823413848876953e+00 -1.363744020462035911e+00 -7.281271219253540039e-01 1.200000000000000000e+01
-4.349914073944091797e+00 -1.698585033416748047e+00 -7.396221756935119629e-01 1.200000000000000000e+01
-5.814410686492919922e+00 -2.268113136291503906e+00 -7.663144469261169434e-01 1.500000000000000000e+01
-8.936188697814941406e+00 -3.484074354171752930e+00 -8.391354680061340332e-01 3.000000000000000000e+00
-1.361195278167724965e+01 -5.301605701446533203e+00 -7.655703425407409668e-01 1.300000000000000000e+01
-4.864382553100585938e+01 -1.892632293701171875e+01 -9.110854268074035645e-01 1.400000000000000000e+01
-5.188511276245117188e+01 -2.018744277954101918e+01 1.491781234741210938e+01 1.900000000000000000e+01
-2.521897077560424805e+00 -9.771667718887329102e-01 -7.246932983398437500e-01 1.300000000000000000e+01
-2.907757282257080078e+00 -1.125509977340698020e+00 -7.198433876037597656e-01 1.200000000000000000e+01
-3.478914499282836914e+00 -1.345890522003174050e+00 -7.250741720199584961e-01 1.100000000000000000e+01
-4.370557308197020596e+00 -1.689087390899657981e+00 -7.421250939369201660e-01 1.200000000000000000e+01
-5.846366405487061435e+00 -2.257097482681273970e+00 -7.694830298423767090e-01 1.100000000000000000e+01
-8.952013015747070312e+00 -3.454294443130493164e+00 -8.394840955734252930e-01 1.000000000000000000e+00
-1.373846530914306996e+01 -5.295723438262938565e+00 -7.716413140296936035e-01 1.300000000000000000e+01
-4.882902526855468750e+01 -1.880239868164062855e+01 -9.133193492889404297e-01 1.400000000000000000e+01
-5.139263534545897727e+01 -1.977925872802734020e+01 1.475527381896973012e+01 1.900000000000000000e+01
-2.501843452453612837e+00 -9.593658447265625000e-01 -7.179640531539916992e-01 1.200000000000000000e+01
-2.913488149642943892e+00 -1.116050243377685991e+00 -7.202932834625244141e-01 1.200000000000000000e+01
-3.472590446472167969e+00 -1.329526782035828081e+00 -7.227844595909118652e-01 1.200000000000000000e+01
-4.374581336975097656e+00 -1.673115253448486106e+00 -7.418122291564941406e-01 1.100000000000000000e+01
-5.861627101898193359e+00 -2.239510059356689009e+00 -7.704579830169677734e-01 1.100000000000000000e+01
-8.949126243591308594e+00 -3.417338848114014116e+00 -8.380896449089050293e-01 1.000000000000000000e+00
-1.379605484008789062e+01 -5.262683868408203125e+00 -7.738394737243652344e-01 2.600000000000000000e+01
-5.439895248413085938e+01 -2.074031066894530895e+01 1.344082546234131037e+01 1.900000000000000000e+01
-4.889436340332031250e+01 -1.863183975219726918e+01 -9.133193492889404297e-01 1.400000000000000000e+01
-2.508789300918579102e+00 -9.519977569580078125e-01 -7.189993262290954590e-01 2.400000000000000000e+01
-2.919188499450684038e+00 -1.106564164161681907e+00 -7.207431793212890625e-01 1.100000000000000000e+01
-3.482717990875244141e+00 -1.319483876228332964e+00 -7.239293456077575684e-01 1.000000000000000000e+01
-4.378547668457031250e+00 -1.657135725021362083e+00 -7.414993643760681152e-01 1.200000000000000000e+01
-5.854554176330566406e+00 -2.213419437408446822e+00 -7.685080766677856445e-01 1.100000000000000000e+01
-8.927452087402343750e+00 -3.373403072357178178e+00 -8.349519968032836914e-01 1.000000000000000000e+00
-1.386666107177734020e+01 -5.234243869781494141e+00 -7.767702341079711914e-01 1.300000000000000000e+01
-4.919111633300781250e+01 -1.854854011535644887e+01 -9.176475405693054199e-01 1.400000000000000000e+01
-2.499601125717163086e+00 -9.380448460578918457e-01 -7.153758406639099121e-01 1.600000000000000000e+01
-2.917750358581542969e+00 -1.093805313110352007e+00 -7.193934917449951172e-01 1.300000000000000000e+01
-3.493046045303345171e+00 -1.308776617050170898e+00 -7.250741720199584961e-01 1.100000000000000000e+01
-4.379041671752929688e+00 -1.638999104499816895e+00 -7.405607700347900391e-01 1.100000000000000000e+01
-5.881221294403076172e+00 -2.198898553848267046e+00 -7.709454894065856934e-01 1.100000000000000000e+01
-8.947221755981445312e+00 -3.343449354171752930e+00 -8.356492519378662109e-01 1.000000000000000000e+00
-1.385955619812012074e+01 -5.173605918884277344e+00 -7.753048539161682129e-01 1.700000000000000000e+01
-4.937493896484375000e+01 -1.841143798828125000e+01 -9.198116064071655273e-01 1.400000000000000000e+01
-5.122768020629882812e+01 -1.910230827331542969e+01 1.464967536926270064e+01 1.800000000000000000e+01
-2.510104417800902876e+00 -9.320036768913269043e-01 -7.174463868141174316e-01 1.500000000000000000e+01
-2.916069269180297852e+00 -1.081580638885498047e+00 -7.180437445640563965e-01 1.100000000000000000e+01
-3.490229845046997070e+00 -1.293846011161803977e+00 -7.235476970672607422e-01 1.100000000000000000e+01
-4.377326488494873047e+00 -1.620959520339966042e+00 -7.393093109130859375e-01 1.100000000000000000e+01
-5.879551887512207031e+00 -2.174912452697753906e+00 -7.697267532348632812e-01 1.100000000000000000e+01
-8.951363563537597656e+00 -3.309433698654174805e+00 -8.349519968032836914e-01 1.000000000000000000e+00
-1.392811775207520064e+01 -5.143877983093261719e+00 -7.781310081481933594e-01 1.300000000000000000e+01
-5.139554595947266336e+01 -1.896081733703612926e+01 1.467866325378417969e+01 1.800000000000000000e+01
-2.511206865310668945e+00 -9.234465956687927246e-01 -7.169287800788879395e-01 1.500000000000000000e+01
-2.910306692123413086e+00 -1.069054603576659934e+00 -7.157942652702331543e-01 1.300000000000000000e+01
-3.490591526031494141e+00 -1.281521558761596902e+00 -7.227844595909118652e-01 1.100000000000000000e+01
-4.386106491088867188e+00 -1.608560085296631081e+00 -7.399350404739379883e-01 1.200000000000000000e+01
-5.871444225311279297e+00 -2.150967836380004883e+00 -7.677768468856811523e-01 1.100000000000000000e+01
-8.957974433898925781e+00 -3.279925823211669922e+00 -8.346033692359924316e-01 1.000000000000000000e+00
-1.407738590240479049e+01 -5.148805618286132812e+00 -7.855626940727233887e-01 9.000000000000000000e+00
-2.503522157669066939e+00 -9.107127189636230469e-01 -7.138229012489318848e-01 1.600000000000000000e+01
-2.917683839797974077e+00 -1.060220241546631081e+00 -7.166940569877624512e-01 1.300000000000000000e+01
-3.491353034973144975e+00 -1.267988920211791992e+00 -7.220212221145629883e-01 1.100000000000000000e+01
-4.395408630371093750e+00 -1.594587326049804910e+00 -7.405607700347900391e-01 1.100000000000000000e+01
-5.860253334045410156e+00 -2.123696088790893999e+00 -7.653394937515258789e-01 1.100000000000000000e+01
-8.920662879943847656e+00 -3.230995893478393999e+00 -8.300712704658508301e-01 1.000000000000000000e+00
-1.420044708251952947e+01 -5.137687206268311435e+00 -7.914243340492248535e-01 9.000000000000000000e+00
-5.139550781250000000e+01 -1.858462524414062855e+01 1.261750507354735973e+01 1.700000000000000000e+01
-5.251910781860352273e+01 -1.897019195556640980e+01 1.496232891082764027e+01 1.900000000000000000e+01
-2.497596979141234907e+00 -8.986979126930236816e-01 -7.112347483634948730e-01 2.300000000000000000e+01
-2.941539525985718218e+00 -1.057279944419861062e+00 -7.216429710388183594e-01 1.400000000000000000e+01
-3.490214824676514116e+00 -1.253802895545959029e+00 -7.208763957023620605e-01 1.000000000000000000e+01
-4.406526088714599609e+00 -1.581236243247986062e+00 -7.414993643760681152e-01 1.200000000000000000e+01
-5.878842830657958984e+00 -2.107245922088623047e+00 -7.668018937110900879e-01 1.100000000000000000e+01
-8.924384117126464844e+00 -3.197149515151977983e+00 -8.293740749359130859e-01 1.000000000000000000e+00
-1.448908329010009943e+01 -5.184989929199218750e+00 -8.064970970153808594e-01 9.000000000000000000e+00
-5.254534530639647727e+01 -1.878292274475098012e+01 1.495197582244873047e+01 1.900000000000000000e+01
-2.502538919448852983e+00 -8.906219005584716797e-01 -7.117523550987243652e-01 2.500000000000000000e+01
-2.923178195953369141e+00 -1.039172649383544922e+00 -7.162441611289978027e-01 1.400000000000000000e+01
-3.500119924545288086e+00 -1.243584036827086958e+00 -7.220212221145629883e-01 1.100000000000000000e+01
-4.400848865509033203e+00 -1.561880826950073020e+00 -7.396221756935119629e-01 1.200000000000000000e+01
-5.893646717071533203e+00 -2.089365243911743164e+00 -7.677768468856811523e-01 1.100000000000000000e+01
-8.927977561950683594e+00 -3.163316488265991211e+00 -8.286768198013305664e-01 1.000000000000000000e+00
-1.460123538970947088e+01 -5.167700767517089844e+00 -8.117306828498840332e-01 1.300000000000000000e+01
-2.514744043350220171e+00 -8.850878477096557617e-01 -7.143405675888061523e-01 2.300000000000000000e+01
-2.923110961914062944e+00 -1.027669787406920943e+00 -7.153443694114685059e-01 1.300000000000000000e+01
-3.508144140243529829e+00 -1.232660412788390891e+00 -7.227844595909118652e-01 1.100000000000000000e+01
-4.406274318695068359e+00 -1.546509504318237083e+00 -7.396221756935119629e-01 1.200000000000000000e+01
-5.900904178619384766e+00 -2.068779945373535156e+00 -7.677768468856811523e-01 1.100000000000000000e+01
-8.923922538757324219e+00 -3.126862049102783203e+00 -8.272823095321655273e-01 1.000000000000000000e+00
-1.465688705444335938e+01 -5.129897117614746094e+00 -8.138241171836853027e-01 9.000000000000000000e+00
-2.519642591476439986e+00 -8.769393563270568848e-01 -7.148581743240356445e-01 2.100000000000000000e+01
-2.924839735031127930e+00 -1.016820073127747026e+00 -7.148944735527038574e-01 1.200000000000000000e+01
-3.505007505416870117e+00 -1.217829704284667969e+00 -7.212579846382141113e-01 1.100000000000000000e+01
-4.398582458496093750e+00 -1.526585578918457031e+00 -7.374320626258850098e-01 1.200000000000000000e+01
-5.893085002899169922e+00 -2.042967557907104048e+00 -7.658269405364990234e-01 1.100000000000000000e+01
-8.946079254150390625e+00 -3.099606275558472124e+00 -8.283281922340393066e-01 1.000000000000000000e+00
-1.472943973541259943e+01 -5.097647190093994141e+00 -8.168596029281616211e-01 1.800000000000000000e+01
-2.513554811477661133e+00 -8.649956583976745605e-01 -7.122700214385986328e-01 2.300000000000000000e+01
-2.933899879455565962e+00 -1.008504748344420943e+00 -7.162441611289978027e-01 1.300000000000000000e+01
-3.501810312271118164e+00 -1.203036069869994895e+00 -7.197315096855163574e-01 1.200000000000000000e+01
-4.400147438049316406e+00 -1.509940028190613015e+00 -7.368063330650329590e-01 1.100000000000000000e+01
-5.896424293518066406e+00 -2.021097183227539062e+00 -7.653394937515258789e-01 1.100000000000000000e+01
-8.945534706115722656e+00 -3.064485549926757812e+00 -8.272823095321655273e-01 1.000000000000000000e+00
-1.485674667358398082e+01 -5.083704471588134766e+00 -8.229305744171142578e-01 1.300000000000000000e+01
-2.512901067733765093e+00 -8.549719452857971191e-01 -7.112347483634948730e-01 2.200000000000000000e+01
-2.946627855300902876e+00 -1.001392602920532005e+00 -7.184936404228210449e-01 1.200000000000000000e+01
-3.513424158096313032e+00 -1.193330645561218040e+00 -7.212579846382141113e-01 1.100000000000000000e+01
-4.420356750488281250e+00 -1.499648571014404075e+00 -7.393093109130859375e-01 1.200000000000000000e+01
-5.903443336486816406e+00 -2.000502347946166992e+00 -7.653394937515258789e-01 1.100000000000000000e+01
-8.941081047058105469e+00 -3.028128147125244141e+00 -8.258877992630004883e-01 1.000000000000000000e+00
-1.499548530578612926e+01 -5.072774887084960938e+00 -8.296296000480651855e-01 1.300000000000000000e+01
-2.514039278030395952e+00 -8.455792069435119629e-01 -7.107170820236206055e-01 1.900000000000000000e+01
-2.950105428695679155e+00 -9.911008477210998535e-01 -7.184936404228210449e-01 1.300000000000000000e+01
-3.515707015991210938e+00 -1.180434346199036089e+00 -7.208763957023620605e-01 1.100000000000000000e+01
-4.412454605102539062e+00 -1.479812741279602051e+00 -7.371191978454589844e-01 1.200000000000000000e+01
-5.910390853881835938e+00 -1.979883432388306108e+00 -7.653394937515258789e-01 1.100000000000000000e+01
-8.959154129028320312e+00 -2.999429702758789062e+00 -8.265850543975830078e-01 3.000000000000000000e+00
-1.506803131103515980e+01 -5.038768768310546875e+00 -8.326650857925415039e-01 1.300000000000000000e+01
-2.520641803741455078e+00 -8.380173444747924805e-01 -7.117523550987243652e-01 1.800000000000000000e+01
-2.938751459121704102e+00 -9.758838415145874023e-01 -7.148944735527038574e-01 1.300000000000000000e+01
-3.529122591018677202e+00 -1.171247005462646040e+00 -7.227844595909118652e-01 1.100000000000000000e+01
-4.415718078613281250e+00 -1.463779807090759055e+00 -7.368063330650329590e-01 1.200000000000000000e+01
-5.898420810699462891e+00 -1.953000545501708984e+00 -7.629020810127258301e-01 1.100000000000000000e+01
-8.962002754211425781e+00 -2.965634346008300781e+00 -8.258877992630004883e-01 1.000000000000000000e+00
-1.507415008544922053e+01 -4.982379913330078125e+00 -8.320370316505432129e-01 1.300000000000000000e+01
-5.371443939208983664e+01 -1.772276115417480113e+01 1.515592575073242010e+01 2.000000000000000000e+01
-2.527222394943236861e+00 -8.304197192192077637e-01 -7.127876281738281250e-01 1.700000000000000000e+01
-2.942140102386475053e+00 -9.656197428703308105e-01 -7.148944735527038574e-01 1.300000000000000000e+01
-3.525727748870850053e+00 -1.156473398208617942e+00 -7.212579846382141113e-01 1.100000000000000000e+01
-4.418923377990722656e+00 -1.447742104530334029e+00 -7.364934682846069336e-01 1.200000000000000000e+01
-5.901428699493408203e+00 -1.931164622306823953e+00 -7.624146342277526855e-01 1.100000000000000000e+01
-8.949576377868652344e+00 -2.926901340484619141e+00 -8.237960934638977051e-01 1.000000000000000000e+00
-1.532497024536132990e+01 -5.006011962890625000e+00 -8.449116945266723633e-01 1.400000000000000000e+01
-2.522756099700928178e+00 -8.192063570022583008e-01 -7.107170820236206055e-01 1.900000000000000000e+01
-2.954761266708374023e+00 -9.583499431610107422e-01 -7.171439528465270996e-01 1.300000000000000000e+01
-3.514802455902100053e+00 -1.139316320419311968e+00 -7.182050347328186035e-01 1.100000000000000000e+01
-4.435225963592529297e+00 -1.435959100723267046e+00 -7.383706569671630859e-01 1.200000000000000000e+01
-5.422219848632813211e+01 -1.754465103149414062e+01 6.997493743896484375e+00 6.100000000000000000e+01
-5.904356479644775391e+00 -1.909331440925597922e+00 -7.619271278381347656e-01 1.100000000000000000e+01
-5.292047882080078125e+01 -1.711325073242187855e+01 8.809137344360351562e+00 2.700000000000000000e+01
-8.936987876892089844e+00 -2.888291120529174805e+00 -8.217043280601501465e-01 3.000000000000000000e+00
-1.541457653045653942e+01 -4.975801944732666016e+00 -8.488892316818237305e-01 1.400000000000000000e+01
-2.507345914840697798e+00 -8.040553331375122070e-01 -7.055407166481018066e-01 1.800000000000000000e+01
-2.963821411132812944e+00 -9.492970705032348633e-01 -7.184936404228210449e-01 1.200000000000000000e+01
-3.526433706283568892e+00 -1.128820300102234109e+00 -7.197315096855163574e-01 1.100000000000000000e+01
-4.436696052551270419e+00 -1.418490409851073997e+00 -7.377449274063110352e-01 1.200000000000000000e+01
-5.920769691467285156e+00 -1.890697360038757102e+00 -7.631458044052124023e-01 9.000000000000000000e+00
-8.936125755310058594e+00 -2.851881504058837891e+00 -8.206584453582763672e-01 1.000000000000000000e+00
-1.531663227081299006e+01 -4.882270336151123047e+00 -8.425042033195495605e-01 1.400000000000000000e+01
-2.524870395660399947e+00 -7.999660968780517578e-01 -7.096818089485168457e-01 1.800000000000000000e+01
-2.968975067138671875e+00 -9.395335316658020020e-01 -7.189435958862304688e-01 1.200000000000000000e+01
-3.526608943939208984e+00 -1.115319967269897017e+00 -7.189682722091674805e-01 1.200000000000000000e+01
-4.422784328460693359e+00 -1.397044897079467995e+00 -7.346162199974060059e-01 1.200000000000000000e+01
-5.921654224395751953e+00 -1.868226766586303933e+00 -7.624146342277526855e-01 9.000000000000000000e+00
-8.938426017761230469e+00 -2.818274736404418945e+00 -8.199612498283386230e-01 3.000000000000000000e+00
-1.528405094146729049e+01 -4.813177585601806641e+00 -8.397827744483947754e-01 4.000000000000000000e+00
-3.208901977539063211e+01 -1.009300518035889027e+01 -5.871687531471252441e-01 6.000000000000000000e+00
-2.529352664947510210e+00 -7.921662926673889160e-01 -7.101994752883911133e-01 1.900000000000000000e+01
-2.947896003723144975e+00 -9.221197962760925293e-01 -7.130948305130004883e-01 1.300000000000000000e+01
-3.537783384323120117e+00 -1.105962276458740012e+00 -7.204947471618652344e-01 1.100000000000000000e+01
-4.434935092926025391e+00 -1.384725689888000044e+00 -7.358677387237548828e-01 1.200000000000000000e+01
-5.922131538391113281e+00 -1.846806645393372026e+00 -7.616834044456481934e-01 9.000000000000000000e+00
-8.951526641845703125e+00 -2.789803981781005859e+00 -8.203098773956298828e-01 1.000000000000000000e+00
-1.551732635498047053e+01 -4.830138206481933594e+00 -8.517153263092041016e-01 4.000000000000000000e+00
-3.240874481201171875e+01 -1.007558727264403942e+01 -5.924044847488403320e-01 6.000000000000000000e+00
-2.537639141082764116e+00 -7.850452065467834473e-01 -7.117523550987243652e-01 1.800000000000000000e+01
-2.952958822250366211e+00 -9.123993515968322754e-01 -7.135447263717651367e-01 1.500000000000000000e+01
-3.528491258621215820e+00 -1.089551687240601030e+00 -7.178234457969665527e-01 1.100000000000000000e+01
-4.435966491699218750e+00 -1.368072152137755904e+00 -7.352420091629028320e-01 1.200000000000000000e+01
-5.915262222290039062e+00 -1.822032809257507102e+00 -7.599772214889526367e-01 9.000000000000000000e+00
-8.949785232543945312e+00 -2.755023241043090820e+00 -8.192639946937561035e-01 1.000000000000000000e+00
-1.596936035156250000e+01 -4.909765720367431641e+00 -8.755805492401123047e-01 1.000000000000000000e+01
-3.244754028320313211e+01 -9.963572502136230469e+00 -5.924742817878723145e-01 1.300000000000000000e+01
-2.534821510314940962e+00 -7.744889259338378906e-01 -7.101994752883911133e-01 1.900000000000000000e+01
-2.965445041656494141e+00 -9.049299955368041992e-01 -7.157942652702331543e-01 1.400000000000000000e+01
-3.522883653640747070e+00 -1.074364900588989036e+00 -7.159153223037719727e-01 1.100000000000000000e+01
-4.440714836120604581e+00 -1.352579474449157937e+00 -7.352420091629028320e-01 1.200000000000000000e+01
-5.925384521484375000e+00 -1.802528977394104004e+00 -7.604647278785705566e-01 7.000000000000000000e+00
-8.963159561157226562e+00 -2.724925041198730025e+00 -8.196126222610473633e-01 1.000000000000000000e+00
-1.607813453674316051e+01 -4.881845474243164062e+00 -8.806048035621643066e-01 5.000000000000000000e+00
-3.252804946899414062e+01 -9.864176750183105469e+00 -5.933120250701904297e-01 6.000000000000000000e+00
-2.528261899948120117e+00 -7.628458142280578613e-01 -7.076112627983093262e-01 2.000000000000000000e+01
-2.966719865798950195e+00 -8.940108418464660645e-01 -7.153443694114685059e-01 1.200000000000000000e+01
-3.537891626358031782e+00 -1.065457940101623979e+00 -7.182050347328186035e-01 1.100000000000000000e+01
-4.441625595092773438e+00 -1.335932254791259988e+00 -7.346162199974060059e-01 1.200000000000000000e+01
-5.927838325500488281e+00 -1.780692338943481001e+00 -7.599772214889526367e-01 7.000000000000000000e+00
-8.968800544738769531e+00 -2.692475557327270952e+00 -8.192639946937561035e-01 1.000000000000000000e+00
-1.645091629028319957e+01 -4.932382106781005859e+00 -9.000737667083740234e-01 1.100000000000000000e+01
-2.532760858535767046e+00 -7.545675039291381836e-01 -7.081289291381835938e-01 2.100000000000000000e+01
-2.966086864471435991e+00 -8.825381398200988770e-01 -7.144445776939392090e-01 1.300000000000000000e+01
-3.535943746566772017e+00 -1.051423192024230957e+00 -7.170602083206176758e-01 1.200000000000000000e+01
-4.446261882781982422e+00 -1.320419907569885032e+00 -7.346162199974060059e-01 1.200000000000000000e+01
-5.949243068695068359e+00 -1.764505147933959961e+00 -7.619271278381347656e-01 7.000000000000000000e+00
-5.313341140747070312e+01 -1.575901031494140980e+01 8.777851104736328125e+00 2.600000000000000000e+01
-8.962862014770507812e+00 -2.656622409820557085e+00 -8.178694844245910645e-01 1.000000000000000000e+00
-1.662124252319335938e+01 -4.920280933380126953e+00 -9.084475040435791016e-01 1.100000000000000000e+01
-2.535379409790039062e+00 -7.457218766212463379e-01 -7.081289291381835938e-01 1.900000000000000000e+01
-2.963540315628052202e+00 -8.705314397811889648e-01 -7.130948305130004883e-01 1.400000000000000000e+01
-3.543359756469727007e+00 -1.040180087089539018e+00 -7.178234457969665527e-01 1.200000000000000000e+01
-4.431888103485107422e+00 -1.299334049224853960e+00 -7.314875721931457520e-01 1.200000000000000000e+01
-5.938220024108886719e+00 -1.738707423210144043e+00 -7.597334980964660645e-01 7.000000000000000000e+00
-8.964432716369628906e+00 -2.623081922531127930e+00 -8.171722292900085449e-01 1.000000000000000000e+00
-1.675334167480469105e+01 -4.895845890045166016e+00 -9.147278666496276855e-01 5.000000000000000000e+00
-2.543403625488280806e+00 -7.389270663261413574e-01 -7.096818089485168457e-01 2.000000000000000000e+01
-2.962667703628540039e+00 -8.596131801605224609e-01 -7.121950387954711914e-01 1.400000000000000000e+01
-3.543018579483031782e+00 -1.027330636978148970e+00 -7.170602083206176758e-01 1.200000000000000000e+01
-4.439967632293701172e+00 -1.285729169845581055e+00 -7.321133017539978027e-01 1.200000000000000000e+01
-5.932511329650878906e+00 -1.715697050094604048e+00 -7.582710385322570801e-01 7.000000000000000000e+00
-8.984565734863281250e+00 -2.596659421920775923e+00 -8.182181119918823242e-01 1.000000000000000000e+00
-1.659294319152832031e+01 -4.789307117462158203e+00 -9.050980210304260254e-01 5.000000000000000000e+00
-2.544110536575316939e+00 -7.295119762420654297e-01 -7.091642022132873535e-01 2.100000000000000000e+01
-2.976890802383422852e+00 -8.524852395057678223e-01 -7.148944735527038574e-01 1.400000000000000000e+01
-3.539033174514770952e+00 -1.012796282768249956e+00 -7.155337333679199219e-01 1.200000000000000000e+01
-4.452025890350341797e+00 -1.272394299507140891e+00 -7.333647608757019043e-01 1.200000000000000000e+01
-5.938464164733886719e+00 -1.694978237152100053e+00 -7.582710385322570801e-01 5.000000000000000000e+00
-8.985911369323730469e+00 -2.563095569610596147e+00 -8.175208568572998047e-01 1.000000000000000000e+00
-1.685927009582519887e+01 -4.802489280700683594e+00 -9.187054038047790527e-01 1.100000000000000000e+01
-2.539206027984619141e+00 -7.185229063034057617e-01 -7.070936560630798340e-01 2.100000000000000000e+01
-2.994850873947143999e+00 -8.463283777236938477e-01 -7.184936404228210449e-01 1.400000000000000000e+01
-3.544436216354370117e+00 -1.000970125198364036e+00 -7.159153223037719727e-01 1.200000000000000000e+01
-4.441230297088623047e+00 -1.252556562423706055e+00 -7.308618426322937012e-01 1.200000000000000000e+01
-5.951987743377686435e+00 -1.676391482353210005e+00 -7.592459917068481445e-01 5.000000000000000000e+00
-8.933431625366210938e+00 -2.514439344406127930e+00 -8.119428753852844238e-01 1.000000000000000000e+00
-1.682593917846680043e+01 -4.729558467864990234e+00 -9.159839153289794922e-01 5.000000000000000000e+00
-3.326882171630858664e+01 -9.338914871215820312e+00 -6.031551957130432129e-01 6.000000000000000000e+00
-2.545420169830321822e+00 -7.106940746307373047e-01 -7.081289291381835938e-01 2.100000000000000000e+01
-2.973383903503417969e+00 -8.290650248527526855e-01 -7.126449346542358398e-01 1.500000000000000000e+01
-3.555473566055297852e+00 -9.906995296478271484e-01 -7.174417972564697266e-01 1.100000000000000000e+01
-4.426544666290283203e+00 -1.231750488281250000e+00 -7.277331352233886719e-01 1.200000000000000000e+01
-5.952065467834472656e+00 -1.654010415077209029e+00 -7.585148215293884277e-01 7.000000000000000000e+00
-8.949832916259765625e+00 -2.485373020172119141e+00 -8.126401305198669434e-01 1.000000000000000000e+00
-1.691933059692383168e+01 -4.692145824432373047e+00 -9.201707839965820312e-01 5.000000000000000000e+00
-2.538694858551024947e+00 -6.987963914871215820e-01 -7.055407166481018066e-01 1.900000000000000000e+01
-2.965128421783446822e+00 -8.150623440742492676e-01 -7.099454998970031738e-01 1.600000000000000000e+01
-4.517433547973632812e+01 -1.240916061401367010e+01 2.455184459686278853e+00 3.900000000000000000e+01
-3.551508188247681108e+00 -9.755812883377075195e-01 -7.159153223037719727e-01 1.100000000000000000e+01
-4.434839725494384766e+00 -1.216563344001770020e+00 -7.283588647842407227e-01 1.100000000000000000e+01
-5.952343940734863281e+00 -1.630610466003417969e+00 -7.577835917472839355e-01 5.000000000000000000e+00
-8.997316360473632812e+00 -2.463075160980225053e+00 -8.161263465881347656e-01 1.000000000000000000e+00
-1.687476539611816051e+01 -4.613247871398925781e+00 -9.168213009834289551e-01 1.100000000000000000e+01
-4.510228729248046875e+01 -1.231321048736572088e+01 -8.160745501518249512e-01 1.200000000000000000e+01
-2.557897806167602983e+00 -6.944861412048339844e-01 -7.101994752883911133e-01 2.100000000000000000e+01
-4.516210174560546875e+01 -1.225334548950194957e+01 8.168075084686279297e-01 5.400000000000000000e+01
-2.975478887557982954e+00 -8.067469596862792969e-01 -7.117451429367065430e-01 1.500000000000000000e+01
-4.517882156372070312e+01 -1.224095153808593928e+01 2.453090906143188032e+00 3.900000000000000000e+01
-3.556786775588988814e+00 -9.636917114257812500e-01 -7.162969708442687988e-01 1.200000000000000000e+01
-4.442873001098632812e+00 -1.202107310295104980e+00 -7.289845943450927734e-01 1.100000000000000000e+01
-5.931170463562011719e+00 -1.602573871612549050e+00 -7.543712258338928223e-01 7.000000000000000000e+00
-9.005859375000000000e+00 -2.431653499603271040e+00 -8.161263465881347656e-01 3.000000000000000000e+00
-1.697175788879394887e+01 -4.576154232025145596e+00 -9.212175011634826660e-01 5.000000000000000000e+00
-4.509479141235352273e+01 -1.214218139648438033e+01 -8.151670098304748535e-01 1.200000000000000000e+01
-2.552722692489624023e+00 -6.840000152587890625e-01 -7.081289291381835938e-01 2.100000000000000000e+01
-4.516385650634766336e+01 -1.209317016601563033e+01 8.161094188690185547e-01 5.400000000000000000e+01
-2.976255178451538086e+00 -7.963717579841613770e-01 -7.112952470779418945e-01 1.400000000000000000e+01
-4.516128158569335938e+01 -1.207558822631835938e+01 2.449950695037841797e+00 3.800000000000000000e+01
-3.552376508712768999e+00 -9.498631358146667480e-01 -7.147704958915710449e-01 1.200000000000000000e+01
-4.435383796691895419e+00 -1.184309959411621094e+00 -7.271074056625366211e-01 1.200000000000000000e+01
-5.953714847564697266e+00 -1.587499499320984109e+00 -7.565648555755615234e-01 7.000000000000000000e+00
-8.971518516540527344e+00 -2.390490055084228960e+00 -8.122915029525756836e-01 1.000000000000000000e+00
-1.734969902038573863e+01 -4.616397857666015625e+00 -9.408957958221435547e-01 6.000000000000000000e+00
-2.549491643905640093e+00 -6.736047267913818359e-01 -7.065759897232055664e-01 1.900000000000000000e+01
-4.512458801269531250e+01 -1.191400527954101918e+01 8.146434426307678223e-01 5.300000000000000000e+01
-2.990322589874268022e+00 -7.889606952667236328e-01 -7.139946222305297852e-01 1.300000000000000000e+01
-4.517998123168945312e+01 -1.191176223754882990e+01 2.448694705963135210e+00 3.800000000000000000e+01
-3.557569026947021040e+00 -9.379577636718750000e-01 -7.151521444320678711e-01 1.200000000000000000e+01
-4.447131633758544922e+00 -1.170832157135009988e+00 -7.283588647842407227e-01 1.100000000000000000e+01
-5.951540470123291016e+00 -1.564688563346863015e+00 -7.555899024009704590e-01 9.000000000000000000e+00
-8.964391708374023438e+00 -2.355108976364136186e+00 -8.108970522880554199e-01 1.000000000000000000e+00
-1.773662948608398082e+01 -4.653117656707763672e+00 -9.609928131103515625e-01 1.900000000000000000e+01
-2.551943302154541016e+00 -6.642558574676513672e-01 -7.065759897232055664e-01 2.000000000000000000e+01
-4.514085769653320312e+01 -1.174148845672607067e+01 8.141547441482543945e-01 5.300000000000000000e+01
-2.987535953521728960e+00 -7.765246033668518066e-01 -7.126449346542358398e-01 1.500000000000000000e+01
-4.517102813720703125e+01 -1.174091815948485973e+01 2.445973157882689986e+00 3.800000000000000000e+01
-3.562883138656616211e+00 -9.254058599472045898e-01 -7.155337333679199219e-01 1.200000000000000000e+01
-4.439920425415039062e+00 -1.151549100875854048e+00 -7.264816761016845703e-01 1.100000000000000000e+01
-5.964921951293945312e+00 -1.544855356216431108e+00 -7.565648555755615234e-01 7.000000000000000000e+00
-8.976820945739746094e+00 -2.323235511779785156e+00 -8.112456798553466797e-01 1.000000000000000000e+00
-1.775743293762207031e+01 -4.589077949523925781e+00 -9.612021446228027344e-01 1.200000000000000000e+01
-3.373743438720703125e+01 -8.706250190734863281e+00 -6.081814765930175781e-01 6.000000000000000000e+00
-2.561731338500977007e+00 -6.572642922401428223e-01 -7.086465358734130859e-01 2.000000000000000000e+01
-4.513895416259766336e+01 -1.157291984558104936e+01 8.133868575096130371e-01 5.300000000000000000e+01
-2.973238229751586914e+00 -7.617386579513549805e-01 -7.085958123207092285e-01 1.400000000000000000e+01
-4.519054031372070312e+01 -1.156933498382568004e+01 2.444717168807982954e+00 3.800000000000000000e+01
-3.558483839035034180e+00 -9.110158085823059082e-01 -7.140072584152221680e-01 1.200000000000000000e+01
-4.447741031646729404e+00 -1.137022376060486062e+00 -7.271074056625366211e-01 1.100000000000000000e+01
-5.954891204833984375e+00 -1.520096540451050027e+00 -7.546149492263793945e-01 7.000000000000000000e+00
-8.942403793334960938e+00 -2.281052350997924805e+00 -8.074107766151428223e-01 1.000000000000000000e+00
-1.778108596801758168e+01 -4.529036998748779297e+00 -9.616208672523498535e-01 1.200000000000000000e+01
-2.562024116516112837e+00 -6.482917666435241699e-01 -7.081289291381835938e-01 2.100000000000000000e+01
-4.514994049072266336e+01 -1.141630744934082031e+01 8.128981590270996094e-01 5.300000000000000000e+01
-2.987084150314331055e+00 -7.547391653060913086e-01 -7.112952470779418945e-01 1.400000000000000000e+01
-4.514533233642578125e+01 -1.140675926208495916e+01 2.440320968627930132e+00 3.800000000000000000e+01
-3.561485290527344194e+00 -8.992104530334472656e-01 -7.140072584152221680e-01 1.200000000000000000e+01
-4.439994335174561435e+00 -1.119369506835937944e+00 -7.252301573753356934e-01 1.200000000000000000e+01
-5.948348999023438388e+00 -1.497433423995971902e+00 -7.531525492668151855e-01 7.000000000000000000e+00
-8.976969718933105469e+00 -2.258190393447875977e+00 -8.098511695861816406e-01 1.000000000000000000e+00
-1.799746322631835938e+01 -4.520650386810302734e+00 -9.725067615509033203e-01 1.300000000000000000e+01
-2.778697586059569957e+01 -6.969295024871826172e+00 -5.000463724136352539e-01 4.000000000000000000e+00
-2.556773424148560014e+00 -6.374752521514892578e-01 -7.060583829879760742e-01 2.100000000000000000e+01
-4.517399215698242188e+01 -1.125476741790770951e+01 8.126189708709716797e-01 5.300000000000000000e+01
-2.989700555801392046e+00 -7.443076968193054199e-01 -7.112952470779418945e-01 1.300000000000000000e+01
-4.514223480224608664e+01 -1.123848819732666016e+01 2.438018083572388139e+00 3.800000000000000000e+01
-3.558887004852294922e+00 -8.853511810302734375e-01 -7.128624320030212402e-01 1.100000000000000000e+01
-4.447708606719970703e+00 -1.104816555976867898e+00 -7.258559465408325195e-01 1.100000000000000000e+01
-5.957393169403076172e+00 -1.477616429328918013e+00 -7.536399960517883301e-01 7.000000000000000000e+00
-8.942252159118652344e+00 -2.216296434402465820e+00 -8.060163259506225586e-01 3.000000000000000000e+00
