-3.616383552551269975e+00 1.791256546974181907e+00 -6.391912102699279785e-01 1.000000000000000000e+01
-4.643748283386229581e+00 2.302146673202515093e+00 -6.364017128944396973e-01 9.000000000000000000e+00
-6.445330619812011719e+00 3.196686267852783203e+00 -6.294387578964233398e-01 3.000000000000000000e+00
-1.059963798522949041e+01 5.261705875396729404e+00 -6.201810836791992188e-01 3.000000000000000000e+00
-2.173391819000244141e+00 1.083139538764954057e+00 -6.506710648536682129e-01 1.900000000000000000e+01
-2.498926639556885210e+00 1.246463418006896973e+00 -6.447097063064575195e-01 1.300000000000000000e+01
-2.960002183914185014e+00 1.477092981338500977e+00 -6.430262923240661621e-01 1.200000000000000000e+01
-3.596286058425902876e+00 1.796177983283997026e+00 -6.366882920265197754e-01 1.000000000000000000e+01
-4.639639854431152344e+00 2.319308519363402876e+00 -6.368891596794128418e-01 1.000000000000000000e+01
-6.427567005157470703e+00 3.214477300643920898e+00 -6.287415027618408203e-01 3.000000000000000000e+00
-1.055712699890137074e+01 5.284310817718505859e+00 -6.187157034873962402e-01 3.000000000000000000e+00
-2.176501750946044922e+00 1.094190359115601030e+00 -6.527416110038757324e-01 1.900000000000000000e+01
-2.487597227096558061e+00 1.251675128936768022e+00 -6.429101228713989258e-01 1.200000000000000000e+01
-2.961842536926269975e+00 1.490947246551513894e+00 -6.445527672767639160e-01 1.200000000000000000e+01
-3.584701776504517046e+00 1.806053996086121050e+00 -6.357496380805969238e-01 9.000000000000000000e+00
-4.624425411224365234e+00 2.331914663314818892e+00 -6.359142065048217773e-01 9.000000000000000000e+00
-6.450105190277099609e+00 3.253944635391234907e+00 -6.320534348487854004e-01 2.000000000000000000e+00
-1.045660400390625000e+01 5.279720306396484375e+00 -6.139007806777954102e-01 3.000000000000000000e+00
-2.167308330535889116e+00 1.099538207054137962e+00 -6.511887311935424805e-01 1.900000000000000000e+01
-2.489943265914916992e+00 1.264313340187072976e+00 -6.447097063064575195e-01 1.300000000000000000e+01
-2.933603525161743164e+00 1.490233898162842019e+00 -6.395917534828186035e-01 1.300000000000000000e+01
-3.583340883255004883e+00 1.821866154670715110e+00 -6.366882920265197754e-01 1.000000000000000000e+01
-4.605232238769531250e+00 2.343446493148804155e+00 -6.344518065452575684e-01 6.000000000000000000e+00
-6.416829109191895419e+00 3.266716718673706055e+00 -6.299617290496826172e-01 2.000000000000000000e+00
-1.041226863861083984e+01 5.305315971374511719e+00 -6.124353408813476562e-01 3.000000000000000000e+00
-2.166896343231201172e+00 1.108856916427612083e+00 -6.522240042686462402e-01 1.700000000000000000e+01
-2.494187116622924805e+00 1.277438879013061968e+00 -6.469592452049255371e-01 1.400000000000000000e+01
-2.930130958557128906e+00 1.501360297203063965e+00 -6.399733424186706543e-01 1.200000000000000000e+01
-3.571686267852783203e+00 1.831659078598022017e+00 -6.357496380805969238e-01 9.000000000000000000e+00
-4.595258235931395596e+00 2.358601093292235884e+00 -6.342080831527709961e-01 7.000000000000000000e+00
-6.412476539611816406e+00 3.292736053466796875e+00 -6.306589841842651367e-01 2.000000000000000000e+00
-1.037592315673827947e+01 5.332499980926513672e+00 -6.113886237144470215e-01 3.000000000000000000e+00
-2.144129276275635210e+00 1.106667637825011985e+00 -6.465299725532531738e-01 1.900000000000000000e+01
-6.089283752441406250e+01 3.144259834289551137e+01 1.196222901344299094e+00 3.700000000000000000e+01
-2.493175745010375977e+00 1.287926197052001953e+00 -6.478590369224548340e-01 1.400000000000000000e+01
-2.917896032333374023e+00 1.507973790168761985e+00 -6.384469270706176758e-01 1.200000000000000000e+01
-3.563516378402709961e+00 1.843207955360413042e+00 -6.354367733001708984e-01 8.000000000000000000e+00
-4.586997032165527344e+00 2.374627113342285156e+00 -6.342080831527709961e-01 7.000000000000000000e+00
-6.379713058471679688e+00 3.304104566574097124e+00 -6.285672187805175781e-01 3.000000000000000000e+00
-1.038561630249023082e+01 5.383392333984375000e+00 -6.130633950233459473e-01 3.000000000000000000e+00
-2.152248144149779829e+00 1.120389461517333984e+00 -6.501534581184387207e-01 1.900000000000000000e+01
-2.478295326232910156e+00 1.291218638420104980e+00 -6.451596021652221680e-01 1.300000000000000000e+01
-2.912614345550537109e+00 1.518149852752685991e+00 -6.384469270706176758e-01 1.200000000000000000e+01
-3.546552419662476030e+00 1.850153684616089089e+00 -6.335595846176147461e-01 6.000000000000000000e+00
-4.575160980224609375e+00 2.388786792755126953e+00 -6.337205767631530762e-01 7.000000000000000000e+00
-6.357544898986816406e+00 3.320818901062012163e+00 -6.275213360786437988e-01 2.000000000000000000e+00
-1.031366252899169922e+01 5.391852378845214844e+00 -6.099232435226440430e-01 3.000000000000000000e+00
-2.145296096801757812e+00 1.125350594520569070e+00 -6.491181850433349609e-01 1.700000000000000000e+01
-2.467324972152709961e+00 1.295374631881714089e+00 -6.433600187301635742e-01 1.400000000000000000e+01
-2.919997215270996094e+00 1.533682942390441895e+00 -6.411182284355163574e-01 1.200000000000000000e+01
-3.544219493865966797e+00 1.863124728202820046e+00 -6.341853141784667969e-01 4.000000000000000000e+00
-6.097120666503906250e+01 3.206491851806641336e+01 8.458463668823242188e+00 6.300000000000000000e+01
-4.572904109954833984e+00 2.405921220779418945e+00 -6.344518065452575684e-01 9.000000000000000000e+00
-6.336502552032470703e+00 3.335207462310791016e+00 -6.264754533767700195e-01 2.000000000000000000e+00
-1.029667282104492010e+01 5.424227237701416016e+00 -6.099232435226440430e-01 3.000000000000000000e+00
-2.141354799270629883e+00 1.132832169532776101e+00 -6.491181850433349609e-01 1.800000000000000000e+01
-6.092491912841796875e+01 3.224447250366210938e+01 1.203203797340393066e+00 3.600000000000000000e+01
-2.455899238586425781e+00 1.300331711769104004e+00 -6.415604352951049805e-01 1.400000000000000000e+01
-6.096828842163085938e+01 3.229467010498046875e+01 3.615786552429199219e+00 3.500000000000000000e+01
-2.911156177520751953e+00 1.542028427124022993e+00 -6.403549909591674805e-01 1.300000000000000000e+01
-3.546420812606811968e+00 1.880111217498779075e+00 -6.357496380805969238e-01 7.000000000000000000e+00
-4.548696041107177734e+00 2.413495063781737837e+00 -6.322581768035888672e-01 1.000000000000000000e+01
-6.367057800292968750e+00 3.379724979400635210e+00 -6.306589841842651367e-01 2.000000000000000000e+00
-1.027767562866210938e+01 5.460136413574218750e+00 -6.099232435226440430e-01 3.000000000000000000e+00
-2.137188434600830078e+00 1.140673041343688965e+00 -6.491181850433349609e-01 1.900000000000000000e+01
-2.461430072784423828e+00 1.314833402633666992e+00 -6.442598104476928711e-01 1.400000000000000000e+01
-2.888169527053833008e+00 1.543434739112854004e+00 -6.365388035774230957e-01 1.400000000000000000e+01
-3.548215389251708984e+00 1.897755146026611106e+00 -6.373140215873718262e-01 8.000000000000000000e+00
-4.548570156097412109e+00 2.434834957122803178e+00 -6.334768533706665039e-01 1.200000000000000000e+01
-6.312474250793457031e+00 3.380464792251586914e+00 -6.264754533767700195e-01 2.000000000000000000e+00
-1.025759410858153942e+01 5.497768878936767578e+00 -6.099232435226440430e-01 3.000000000000000000e+00
-2.126389265060424805e+00 1.144464015960692915e+00 -6.470476388931274414e-01 2.000000000000000000e+01
-2.461972475051879883e+00 1.326189994812011941e+00 -6.456094980239868164e-01 1.500000000000000000e+01
-2.893134117126464844e+00 1.559095144271851030e+00 -6.388285160064697266e-01 1.400000000000000000e+01
-3.529398918151855025e+00 1.903565168380737083e+00 -6.351239085197448730e-01 9.000000000000000000e+00
-4.538296222686767578e+00 2.449754714965819868e+00 -6.332331299781799316e-01 1.000000000000000000e+01
-6.302388668060302734e+00 3.403425455093383789e+00 -6.266497969627380371e-01 3.000000000000000000e+00
-2.122582435607910156e+00 1.151509046554564986e+00 -6.470476388931274414e-01 1.900000000000000000e+01
-2.450710773468018022e+00 1.330627441406250000e+00 -6.438099145889282227e-01 1.500000000000000000e+01
-2.881047248840332031e+00 1.564932227134705034e+00 -6.373020410537719727e-01 1.600000000000000000e+01
-3.519596099853516069e+00 1.913371562957763894e+00 -6.344981789588928223e-01 9.000000000000000000e+00
-4.530147552490234375e+00 2.464790821075439009e+00 -6.332331299781799316e-01 1.200000000000000000e+01
-6.278221607208251953e+00 3.418734312057495117e+00 -6.254296302795410156e-01 2.000000000000000000e+00
-1.021993541717528942e+01 5.567462444305419922e+00 -6.099232435226440430e-01 3.000000000000000000e+00
-2.123431682586669922e+00 1.162063241004944070e+00 -6.486005187034606934e-01 1.900000000000000000e+01
-2.437504529953002930e+00 1.334494709968566895e+00 -6.415604352951049805e-01 1.400000000000000000e+01
-2.883900880813599077e+00 1.580198287963866965e+00 -6.392101049423217773e-01 1.500000000000000000e+01
-3.502167463302611861e+00 1.920559763908386008e+00 -6.326209902763366699e-01 9.000000000000000000e+00
-4.521516323089599609e+00 2.480588912963867188e+00 -6.332331299781799316e-01 1.000000000000000000e+01
-6.259263992309570312e+00 3.436792850494385210e+00 -6.247323751449584961e-01 2.000000000000000000e+00
-1.019946098327637074e+01 5.604883193969726562e+00 -6.099232435226440430e-01 3.000000000000000000e+00
-2.122745275497436968e+00 1.171334981918334961e+00 -6.496357917785644531e-01 2.100000000000000000e+01
-2.427479267120360884e+00 1.340593338012695090e+00 -6.402106881141662598e-01 1.300000000000000000e+01
-2.864619970321654829e+00 1.582660079002379927e+00 -6.361572146415710449e-01 1.400000000000000000e+01
-3.502357006072998047e+00 1.936596393585205078e+00 -6.338724493980407715e-01 9.000000000000000000e+00
-4.491551876068115234e+00 2.485610246658325195e+00 -6.303082704544067383e-01 1.000000000000000000e+01
-6.246625423431395596e+00 3.459711313247681108e+00 -6.247323751449584961e-01 2.000000000000000000e+00
-1.009248352050781072e+01 5.592052459716796875e+00 -6.046896576881408691e-01 3.000000000000000000e+00
-2.118437767028809038e+00 1.179107427597045898e+00 -6.496357917785644531e-01 2.200000000000000000e+01
-2.431297779083251953e+00 1.353798866271973100e+00 -6.424602270126342773e-01 1.400000000000000000e+01
-2.851940155029296875e+00 1.589326024055480957e+00 -6.346307396888732910e-01 1.500000000000000000e+01
-3.505586624145507812e+00 1.955193400382996050e+00 -6.357496380805969238e-01 9.000000000000000000e+00
-4.493248939514160156e+00 2.507076978683472124e+00 -6.317706704139709473e-01 1.000000000000000000e+01
-6.225813388824462891e+00 3.476637840270996094e+00 -6.238608360290527344e-01 3.000000000000000000e+00
-1.009632778167724965e+01 5.642646789550781250e+00 -6.061550378799438477e-01 3.000000000000000000e+00
-2.103133678436278853e+00 1.178776025772094949e+00 -6.460123658180236816e-01 1.800000000000000000e+01
-2.428732395172119141e+00 1.362383723258971946e+00 -6.429101228713989258e-01 1.300000000000000000e+01
-2.857484579086304155e+00 1.603545546531677024e+00 -6.369204521179199219e-01 1.300000000000000000e+01
-3.492880582809447798e+00 1.961716771125793013e+00 -6.344981789588928223e-01 9.000000000000000000e+00
-4.481889724731445312e+00 2.519235134124755859e+00 -6.312832236289978027e-01 1.000000000000000000e+01
-6.200968742370604581e+00 3.488364934921265093e+00 -6.224663257598876953e-01 3.000000000000000000e+00
-1.003080558776854936e+01 5.645151138305664062e+00 -6.032242178916931152e-01 3.000000000000000000e+00
-2.095435619354248047e+00 1.184575080871582031e+00 -6.449770331382751465e-01 1.900000000000000000e+01
-2.420569419860839844e+00 1.368934631347656028e+00 -6.420103311538696289e-01 1.200000000000000000e+01
-2.848170995712279829e+00 1.612073898315429910e+00 -6.361572146415710449e-01 1.300000000000000000e+01
-3.470198154449462891e+00 1.965743064880371094e+00 -6.316823959350585938e-01 1.000000000000000000e+01
-4.473068714141845703e+00 2.534864425659180132e+00 -6.312832236289978027e-01 1.000000000000000000e+01
-6.178355693817138672e+00 3.504091501235961914e+00 -6.214204430580139160e-01 3.000000000000000000e+00
-9.947517395019531250e+00 5.646384716033936435e+00 -5.994560718536376953e-01 3.000000000000000000e+00
-2.101149320602416992e+00 1.197988390922545943e+00 -6.480829119682312012e-01 1.900000000000000000e+01
-2.413602828979492188e+00 1.377253055572509988e+00 -6.415604352951049805e-01 1.300000000000000000e+01
-2.837128162384033203e+00 1.619582176208496094e+00 -6.350123286247253418e-01 1.200000000000000000e+01
-3.459539651870727983e+00 1.976488947868346946e+00 -6.310566067695617676e-01 1.000000000000000000e+01
-4.452962875366210938e+00 2.546109199523925781e+00 -6.298207640647888184e-01 1.000000000000000000e+01
-6.173501968383789062e+00 3.532736539840697798e+00 -6.222919821739196777e-01 3.000000000000000000e+00
-9.926755905151367188e+00 5.682806015014648438e+00 -5.994560718536376953e-01 3.000000000000000000e+00
-2.095069646835327148e+00 1.204718470573425071e+00 -6.475652456283569336e-01 1.900000000000000000e+01
-2.400334596633911133e+00 1.380811095237731934e+00 -6.393108963966369629e-01 1.300000000000000000e+01
-2.836277484893798828e+00 1.632908582687377930e+00 -6.361572146415710449e-01 1.200000000000000000e+01
-3.455695390701293945e+00 1.991127848625183105e+00 -6.316823959350585938e-01 1.000000000000000000e+01
-4.423409938812255859e+00 2.549741268157958984e+00 -6.268959045410156250e-01 1.000000000000000000e+01
-6.140422821044921875e+00 3.542317628860474077e+00 -6.202002763748168945e-01 2.000000000000000000e+00
-9.905860900878906250e+00 5.719151496887207031e+00 -5.994560718536376953e-01 3.000000000000000000e+00
-2.078111171722412109e+00 1.203185558319092019e+00 -6.434241533279418945e-01 1.600000000000000000e+01
-2.401043176651000977e+00 1.391276240348815918e+00 -6.406605839729309082e-01 1.300000000000000000e+01
-2.816133499145507812e+00 1.632455468177794966e+00 -6.327226161956787109e-01 1.100000000000000000e+01
-3.453189849853516069e+00 2.003354787826538086e+00 -6.323081254959106445e-01 1.000000000000000000e+01
-4.415378093719482422e+00 2.563625097274779829e+00 -6.268959045410156250e-01 1.000000000000000000e+01
-6.094810962677001953e+00 3.541570663452147993e+00 -6.167140603065490723e-01 2.000000000000000000e+00
-9.854313850402832031e+00 5.728442192077636719e+00 -5.973625779151916504e-01 3.000000000000000000e+00
-2.078903913497924805e+00 1.213353633880615012e+00 -6.449770331382751465e-01 1.900000000000000000e+01
-2.394489288330078125e+00 1.398666024208069070e+00 -6.402106881141662598e-01 1.300000000000000000e+01
-2.820300579071044922e+00 1.648710966110229048e+00 -6.350123286247253418e-01 1.100000000000000000e+01
-3.444118976593018022e+00 2.015000343322753906e+00 -6.319952607154846191e-01 1.100000000000000000e+01
-3.611665725708007812e+01 2.113024711608887074e+01 5.137767791748046875e+00 2.700000000000000000e+01
-4.406402587890625000e+00 2.579022169113159180e+00 -6.268959045410156250e-01 1.000000000000000000e+01
-6.080691814422607422e+00 3.561816930770874023e+00 -6.165397167205810547e-01 3.000000000000000000e+00
-9.781561851501464844e+00 5.734219074249267578e+00 -5.942224264144897461e-01 3.000000000000000000e+00
-2.069235563278197798e+00 1.218386530876159890e+00 -6.434241533279418945e-01 1.900000000000000000e+01
-2.389101266860961914e+00 1.407849907875061035e+00 -6.402106881141662598e-01 1.200000000000000000e+01
-2.821003913879394975e+00 1.663024902343750000e+00 -6.365388035774230957e-01 1.300000000000000000e+01
-3.426502466201781782e+00 2.021587610244750977e+00 -6.301180124282836914e-01 1.100000000000000000e+01
-3.592926788330078125e+01 2.120621109008789062e+01 5.122655868530273438e+00 2.700000000000000000e+01
-4.403304576873779297e+00 2.599959611892700195e+00 -6.278708577156066895e-01 1.000000000000000000e+01
-6.085838794708251953e+00 3.596288442611693892e+00 -6.184571385383605957e-01 2.000000000000000000e+00
-9.760478973388671875e+00 5.770031929016113281e+00 -5.942224264144897461e-01 3.000000000000000000e+00
-2.071400403976439986e+00 1.229907631874084029e+00 -6.454946994781494141e-01 1.900000000000000000e+01
-2.377470493316649947e+00 1.412199974060059038e+00 -6.384111046791076660e-01 1.300000000000000000e+01
-2.804764032363892046e+00 1.667333960533142090e+00 -6.342490911483764648e-01 1.300000000000000000e+01
-3.417372226715087891e+00 2.033122777938843218e+00 -6.298051476478576660e-01 1.000000000000000000e+01
-4.377143859863281250e+00 2.605161428451538086e+00 -6.254334449768066406e-01 1.000000000000000000e+01
-6.056131362915039062e+00 3.607314109802246094e+00 -6.167140603065490723e-01 2.000000000000000000e+00
-9.677504539489746094e+00 5.768950462341308594e+00 -5.904542803764343262e-01 3.000000000000000000e+00
-2.070842266082764116e+00 1.238391995429992898e+00 -6.465299725532531738e-01 1.900000000000000000e+01
-2.377790927886962891e+00 1.423078536987304910e+00 -6.397607922554016113e-01 1.400000000000000000e+01
-2.796143293380736861e+00 1.674120187759398970e+00 -6.334858536720275879e-01 1.200000000000000000e+01
-3.409273624420166016e+00 2.042833566665648970e+00 -6.294922828674316406e-01 1.100000000000000000e+01
-3.382947540283203125e+01 2.027861404418944957e+01 4.842844009399414062e+00 2.000000000000000000e+01
-4.366778373718261719e+00 2.618641376495360884e+00 -6.251897215843200684e-01 9.000000000000000000e+00
-6.040719032287597656e+00 3.625326633453369141e+00 -6.163654327392578125e-01 3.000000000000000000e+00
-9.635360717773437500e+00 5.784932136535645419e+00 -5.889888405799865723e-01 3.000000000000000000e+00
-2.066289424896239790e+00 1.245973706245421919e+00 -6.465299725532531738e-01 1.900000000000000000e+01
-2.379483461380004883e+00 1.435396194458008035e+00 -6.415604352951049805e-01 1.400000000000000000e+01
-2.786627054214477983e+00 1.682327985763550027e+00 -6.327226161956787109e-01 1.200000000000000000e+01
-3.411907911300659180e+00 2.061444520950316939e+00 -6.313694715499877930e-01 1.100000000000000000e+01
-3.344245910644531250e+01 2.020563697814941051e+01 4.797508716583251953e+00 2.000000000000000000e+01
-4.352514743804931641e+00 2.630787849426269975e+00 -6.244584918022155762e-01 1.000000000000000000e+01
-6.026322364807128906e+00 3.645359277725220171e+00 -6.161910891532897949e-01 3.000000000000000000e+00
-9.586755752563476562e+00 5.803658962249755859e+00 -5.873141288757324219e-01 3.000000000000000000e+00
-2.045852899551392046e+00 1.242431282997130904e+00 -6.413536071777343750e-01 1.900000000000000000e+01
-6.095903015136718750e+01 3.703453445434570312e+01 1.245019793510437012e+00 2.800000000000000000e+01
-2.366384029388428178e+00 1.438218355178833008e+00 -6.393108963966369629e-01 1.300000000000000000e+01
-2.784683227539062944e+00 1.693113923072814941e+00 -6.334858536720275879e-01 1.200000000000000000e+01
-3.393602132797241211e+00 2.064965248107910156e+00 -6.291794180870056152e-01 1.000000000000000000e+01
-3.333118438720703125e+01 2.028958892822265980e+01 4.791171550750732422e+00 2.000000000000000000e+01
-4.347157478332520419e+00 2.647271871566772017e+00 -6.249459981918334961e-01 1.000000000000000000e+01
-6.014201164245604581e+00 3.665323257446289062e+00 -6.161910891532897949e-01 3.000000000000000000e+00
-9.595760345458984375e+00 5.850383281707763672e+00 -5.889888405799865723e-01 3.000000000000000000e+00
-2.052818059921265093e+00 1.256983041763306108e+00 -6.449770331382751465e-01 2.000000000000000000e+01
-2.361349344253540039e+00 1.446469902992248979e+00 -6.393108963966369629e-01 1.200000000000000000e+01
-2.783480167388916016e+00 1.706387281417846902e+00 -6.346307396888732910e-01 1.200000000000000000e+01
-3.369173526763916016e+00 2.067059516906737837e+00 -6.260507106781005859e-01 1.000000000000000000e+01
-4.331122875213623047e+00 2.658276557922362837e+00 -6.239710450172424316e-01 1.000000000000000000e+01
-5.969113826751708984e+00 3.666481256484984907e+00 -6.128791570663452148e-01 3.000000000000000000e+00
-9.468761444091796875e+00 5.820665836334229404e+00 -5.824992060661315918e-01 3.000000000000000000e+00
-2.046773910522460938e+00 1.263126492500304954e+00 -6.444594264030456543e-01 1.900000000000000000e+01
-2.346083879470825195e+00 1.448970913887023926e+00 -6.366114616394042969e-01 1.200000000000000000e+01
-2.775836706161499023e+00 1.715061068534851074e+00 -6.342490911483764648e-01 1.200000000000000000e+01
-3.377058744430541992e+00 2.088157415390015093e+00 -6.288665533065795898e-01 1.100000000000000000e+01
-3.399885940551757812e+01 2.103092765808105113e+01 4.908653259277343750e+00 2.200000000000000000e+01
-4.312910556793212891e+00 2.668910026550292969e+00 -6.227523684501647949e-01 9.000000000000000000e+00
-3.487153244018554688e+01 2.158757781982421875e+01 6.495784759521484375e+00 1.400000000000000000e+01
-5.953941345214843750e+00 3.687285423278809038e+00 -6.127048730850219727e-01 3.000000000000000000e+00
-9.485737800598144531e+00 5.876823902130126953e+00 -5.848019719123840332e-01 3.000000000000000000e+00
-2.050331830978393999e+00 1.275722742080688032e+00 -6.470476388931274414e-01 2.000000000000000000e+01
-2.341011762619018999e+00 1.457151412963866965e+00 -6.366114616394042969e-01 1.200000000000000000e+01
-2.759533882141112837e+00 1.718995213508605957e+00 -6.319593787193298340e-01 1.200000000000000000e+01
-3.361001014709473100e+00 2.095295667648314986e+00 -6.273022294044494629e-01 1.000000000000000000e+01
-4.278302669525145596e+00 2.668191671371459961e+00 -6.190962791442871094e-01 1.000000000000000000e+01
-5.949485301971436435e+00 3.713320732116699219e+00 -6.135764122009277344e-01 3.000000000000000000e+00
-9.430255889892578125e+00 5.890389442443847656e+00 -5.827085375785827637e-01 3.000000000000000000e+00
-2.044229507446289062e+00 1.281845688819885032e+00 -6.465299725532531738e-01 2.100000000000000000e+01
-2.334004640579224077e+00 1.464686036109924094e+00 -6.361615657806396484e-01 1.200000000000000000e+01
-2.750190973281859907e+00 1.726529598236083984e+00 -6.311961412429809570e-01 1.200000000000000000e+01
-3.353666543960570845e+00 2.107015132904053178e+00 -6.273022294044494629e-01 1.100000000000000000e+01
-6.101423645019531250e+01 3.834839630126953125e+01 8.848445892333984375e+00 6.300000000000000000e+01
-4.281938552856445312e+00 2.692307710647583008e+00 -6.210461854934692383e-01 1.000000000000000000e+01
-3.443525314331054688e+01 2.165986251831055043e+01 6.443222522735595703e+00 1.400000000000000000e+01
-5.922344684600830078e+00 3.726613044738769975e+00 -6.121819615364074707e-01 5.000000000000000000e+00
-9.375831604003906250e+00 5.901991367340087891e+00 -5.806151032447814941e-01 3.000000000000000000e+00
-3.295547485351563211e+01 2.075317192077637074e+01 8.991293907165527344e+00 1.200000000000000000e+01
-2.029720067977904829e+00 1.283135771751404031e+00 -6.434241533279418945e-01 2.100000000000000000e+01
-2.337112665176392046e+00 1.478032350540160911e+00 -6.384111046791076660e-01 1.300000000000000000e+01
-3.352038955688477273e+01 2.120709037780762074e+01 2.078784227371215820e+00 2.200000000000000000e+01
-2.748821258544921875e+00 1.739747762680053933e+00 -6.323410272598266602e-01 1.300000000000000000e+01
-3.342583894729613814e+00 2.117178678512572798e+00 -6.266764402389526367e-01 1.000000000000000000e+01
-4.274191379547119141e+00 2.708300352096558061e+00 -6.212899088859558105e-01 1.000000000000000000e+01
-3.457966613769531250e+01 2.191953468322753906e+01 6.484521389007568359e+00 1.400000000000000000e+01
-5.905934810638427734e+00 3.745129108428955078e+00 -6.118333339691162109e-01 2.000000000000000000e+00
-9.364254951477050781e+00 5.942737102508544922e+00 -5.812431573867797852e-01 3.000000000000000000e+00
-2.024274110794066939e+00 1.288115382194519043e+00 -6.429064869880676270e-01 1.900000000000000000e+01
-2.325882911682128906e+00 1.481180191040039062e+00 -6.366114616394042969e-01 1.300000000000000000e+01
-2.748614549636840820e+00 1.751060605049133079e+00 -6.334858536720275879e-01 1.200000000000000000e+01
-3.322962284088135210e+00 2.118591547012329102e+00 -6.241735219955444336e-01 1.100000000000000000e+01
-4.267335414886474609e+00 2.722782611846923828e+00 -6.215336322784423828e-01 1.000000000000000000e+01
-5.877347946166992188e+00 3.752941846847534180e+00 -6.100901961326599121e-01 2.000000000000000000e+00
-9.323017120361328125e+00 5.955442428588867188e+00 -5.797777175903320312e-01 3.000000000000000000e+00
-3.275143051147460938e+01 2.092930793762207031e+01 8.973297119140625000e+00 1.200000000000000000e+01
-2.022791624069213867e+00 1.297612190246582031e+00 -6.439417600631713867e-01 1.900000000000000000e+01
-2.317418336868286133e+00 1.487185001373291016e+00 -6.357116699218750000e-01 1.200000000000000000e+01
-2.747133970260620117e+00 1.764305830001831055e+00 -6.346307396888732910e-01 1.300000000000000000e+01
-3.321821689605712891e+00 2.135028600692749023e+00 -6.254249811172485352e-01 1.000000000000000000e+01
-3.451213073730468750e+01 2.218192100524901988e+01 5.037347316741943359e+00 2.500000000000000000e+01
-4.247786521911621094e+00 2.731220245361328125e+00 -6.200712323188781738e-01 1.000000000000000000e+01
-3.432720184326171875e+01 2.207999992370605113e+01 6.464498043060302734e+00 1.400000000000000000e+01
-5.901072502136229581e+00 3.797153472900391069e+00 -6.139250397682189941e-01 3.000000000000000000e+00
-9.280976295471191406e+00 5.976596832275390625e+00 -5.785216689109802246e-01 3.000000000000000000e+00
-3.268432998657227273e+01 2.105554008483887074e+01 8.975996971130371094e+00 1.200000000000000000e+01
-2.015232324600220171e+00 1.302215933799744096e+00 -6.429064869880676270e-01 1.800000000000000000e+01
-2.308940172195435014e+00 1.493148803710937944e+00 -6.348118782043457031e-01 1.300000000000000000e+01
-2.731377840042113814e+00 1.767007589340209961e+00 -6.323410272598266602e-01 1.200000000000000000e+01
-3.308090686798096147e+00 2.141738176345825195e+00 -6.241735219955444336e-01 1.000000000000000000e+01
-4.231563091278076172e+00 2.741713523864746094e+00 -6.190962791442871094e-01 1.000000000000000000e+01
-5.871064662933349609e+00 3.806889295578002930e+00 -6.121819615364074707e-01 2.000000000000000000e+00
-3.301128387451171875e+01 2.140502929687500000e+01 7.647624492645263672e+00 6.300000000000000000e+01
-3.273202514648438211e+01 2.124018669128417969e+01 9.008389472961425781e+00 1.200000000000000000e+01
-2.013683319091796875e+00 1.311702251434325950e+00 -6.439417600631713867e-01 1.700000000000000000e+01
-2.306979417800902876e+00 1.503327250480652078e+00 -6.357116699218750000e-01 1.300000000000000000e+01
-3.306127166748046875e+01 2.155237197875976918e+01 2.068316936492919922e+00 2.200000000000000000e+01
-2.723238706588745117e+00 1.775934338569640891e+00 -6.319593787193298340e-01 1.200000000000000000e+01
-3.296910285949707031e+00 2.151689529418944868e+00 -6.235477924346923828e-01 1.000000000000000000e+01
-3.477202606201171875e+01 2.269355201721191051e+01 5.098282337188720703e+00 2.600000000000000000e+01
-4.225291252136229581e+00 2.758638143539429155e+00 -6.195837259292602539e-01 1.000000000000000000e+01
-5.837725639343261719e+00 3.814282417297362837e+00 -6.100901961326599121e-01 2.000000000000000000e+00
-3.270940399169921875e+01 2.139628219604491832e+01 9.023686408996582031e+00 1.200000000000000000e+01
-1.997787117958069070e+00 1.311302781105041948e+00 -6.403183341026306152e-01 1.900000000000000000e+01
-2.306340217590332031e+00 1.514982342720031960e+00 -6.370613574981689453e-01 1.400000000000000000e+01
-2.713741540908813032e+00 1.783272981643676980e+00 -6.311961412429809570e-01 1.300000000000000000e+01
-3.292680263519287109e+00 2.165355443954468218e+00 -6.241735219955444336e-01 1.000000000000000000e+01
-4.205203056335449219e+00 2.767558097839355025e+00 -6.181213259696960449e-01 1.000000000000000000e+01
-5.824375629425048828e+00 3.834636688232421875e+00 -6.100901961326599121e-01 2.000000000000000000e+00
-9.217881202697753906e+00 6.073457717895507812e+00 -5.785216689109802246e-01 3.000000000000000000e+00
-3.238720321655272727e+01 2.134731483459473012e+01 8.955301284790039062e+00 1.200000000000000000e+01
-1.994808912277221902e+00 1.319334149360656960e+00 -6.408359408378601074e-01 1.900000000000000000e+01
-2.297787904739379883e+00 1.520872592926024947e+00 -6.361615657806396484e-01 1.300000000000000000e+01
-2.715684890747069868e+00 1.798154234886168990e+00 -6.331042647361755371e-01 1.200000000000000000e+01
-3.276868343353271040e+00 2.171380043029785156e+00 -6.226091980934143066e-01 9.000000000000000000e+00
-4.198825359344482422e+00 2.784414529800415039e+00 -6.186087727546691895e-01 1.000000000000000000e+01
-5.784390449523925781e+00 3.837321519851685014e+00 -6.073012351989746094e-01 3.000000000000000000e+00
-9.196624755859375000e+00 6.105597019195556641e+00 -5.785216689109802246e-01 3.000000000000000000e+00
-3.234820175170897727e+01 2.148395729064941051e+01 8.965199470520019531e+00 1.200000000000000000e+01
-1.995478153228759988e+00 1.328806757926940918e+00 -6.423888802528381348e-01 1.900000000000000000e+01
-2.286511898040771040e+00 1.523761034011841042e+00 -6.343619823455810547e-01 1.400000000000000000e+01
-2.708388805389403853e+00 1.805588006973267046e+00 -6.327226161956787109e-01 1.300000000000000000e+01
-3.270030498504639116e+00 2.181663990020751953e+00 -6.226091980934143066e-01 9.000000000000000000e+00
-4.186755657196044922e+00 2.795387029647827148e+00 -6.181213259696960449e-01 1.000000000000000000e+01
-5.782247543334960938e+00 3.862114667892456055e+00 -6.083470582962036133e-01 2.000000000000000000e+00
-9.177398681640625000e+00 6.134459018707275391e+00 -5.785216689109802246e-01 3.000000000000000000e+00
-1.998848676681518999e+00 1.341145992279052956e+00 -6.449770331382751465e-01 1.900000000000000000e+01
-2.281179189682006836e+00 1.531733155250549094e+00 -6.343619823455810547e-01 1.400000000000000000e+01
-2.698810338973999023e+00 1.812841534614562988e+00 -6.319593787193298340e-01 1.300000000000000000e+01
-3.259116411209106001e+00 2.190861225128173828e+00 -6.219834089279174805e-01 9.000000000000000000e+00
-4.168736934661865234e+00 2.804444313049315962e+00 -6.169025897979736328e-01 1.000000000000000000e+01
-5.778648376464843750e+00 3.888949155807495117e+00 -6.093929409980773926e-01 3.000000000000000000e+00
-9.155929565429687500e+00 6.166456699371337891e+00 -5.785216689109802246e-01 3.000000000000000000e+00
-1.989353656768799050e+00 1.344869256019592063e+00 -6.434241533279418945e-01 1.900000000000000000e+01
-2.279046535491942915e+00 1.541870594024657981e+00 -6.352617740631103516e-01 1.400000000000000000e+01
-2.684336423873900923e+00 1.816749215126038042e+00 -6.300513148307800293e-01 1.300000000000000000e+01
-3.257991313934326172e+00 2.206655263900756836e+00 -6.232349276542663574e-01 9.000000000000000000e+00
-4.158922195434570312e+00 2.818978786468505859e+00 -6.169025897979736328e-01 1.000000000000000000e+01
-3.316740417480468750e+01 2.248135566711426137e+01 6.346233367919921875e+00 1.400000000000000000e+01
-5.748548030853270596e+00 3.897915124893188032e+00 -6.076498627662658691e-01 2.000000000000000000e+00
-9.088073730468750000e+00 6.166977882385253906e+00 -5.755908489227294922e-01 3.000000000000000000e+00
-1.975067138671875000e+00 1.345279932022094949e+00 -6.403183341026306152e-01 1.600000000000000000e+01
-2.276870965957642046e+00 1.552011847496032937e+00 -6.361615657806396484e-01 1.400000000000000000e+01
-2.679600477218627930e+00 1.827214241027832031e+00 -6.304329037666320801e-01 1.300000000000000000e+01
-3.240478754043579102e+00 2.211333513259888139e+00 -6.213576793670654297e-01 9.000000000000000000e+00
-3.313246917724608664e+01 2.261838912963866832e+01 4.925714969635009766e+00 2.200000000000000000e+01
-4.153974533081054688e+00 2.836837530136107954e+00 -6.176338195800781250e-01 9.000000000000000000e+00
-3.300975036621093750e+01 2.255151176452637074e+01 6.331841468811035156e+00 1.400000000000000000e+01
-5.725035667419433594e+00 3.911214113235474077e+00 -6.066039800643920898e-01 2.000000000000000000e+00
-9.046706199645996094e+00 6.185136795043945312e+00 -5.743348002433776855e-01 3.000000000000000000e+00
-3.242269515991210938e+01 2.217535781860351918e+01 9.068676948547363281e+00 1.200000000000000000e+01
-1.962394952774048074e+00 1.346700549125670943e+00 -6.377301216125488281e-01 2.000000000000000000e+01
-2.271439552307128906e+00 1.559950113296509011e+00 -6.361615657806396484e-01 1.300000000000000000e+01
-2.678060531616210938e+00 1.839891791343688965e+00 -6.315777897834777832e-01 1.200000000000000000e+01
-3.221345663070679155e+00 2.214797496795653853e+00 -6.191676259040832520e-01 1.000000000000000000e+01
-3.302060317993164062e+01 2.271140670776366832e+01 4.920840263366699219e+00 2.200000000000000000e+01
-4.137505531311035156e+00 2.846819400787353960e+00 -6.166588664054870605e-01 9.000000000000000000e+00
-3.297710037231445312e+01 2.268996429443359020e+01 6.339975833892822266e+00 1.400000000000000000e+01
-5.711348056793212891e+00 3.931174516677856001e+00 -6.066039800643920898e-01 3.000000000000000000e+00
-9.008613586425781250e+00 6.205348014831542969e+00 -5.732880830764770508e-01 3.000000000000000000e+00
-3.245100021362304688e+01 2.236137771606444957e+01 9.098370552062988281e+00 1.200000000000000000e+01
-1.973572373390197976e+00 1.364528894424438032e+00 -6.429064869880676270e-01 2.000000000000000000e+01
-2.256365299224853960e+00 1.561216473579406960e+00 -6.334621906280517578e-01 1.400000000000000000e+01
-2.670007467269897017e+00 1.848111391067505105e+00 -6.311961412429809570e-01 1.300000000000000000e+01
-3.215218782424927202e+00 2.227153301239014116e+00 -6.194804906845092773e-01 9.000000000000000000e+00
-3.299007415771483664e+01 2.286045074462890980e+01 4.928152561187744141e+00 2.200000000000000000e+01
-4.124279975891113281e+00 2.858982801437377930e+00 -6.161714196205139160e-01 1.000000000000000000e+01
-3.362500381469727273e+01 2.330911254882812855e+01 6.480141162872313565e+00 1.400000000000000000e+01
-5.691041946411132812e+00 3.946545362472534180e+00 -6.059067249298095703e-01 3.000000000000000000e+00
-3.329119873046875000e+01 2.309492492675780895e+01 7.875832080841063565e+00 6.300000000000000000e+01
-8.937672615051269531e+00 6.202594757080078125e+00 -5.701479315757751465e-01 3.000000000000000000e+00
-3.223187637329102273e+01 2.237671852111816051e+01 9.058778762817382812e+00 1.200000000000000000e+01
-1.978308439254760964e+00 1.378034830093384011e+00 -6.460123658180236816e-01 1.900000000000000000e+01
-3.442581558227539062e+01 2.398899459838866832e+01 7.324076890945434570e-01 4.000000000000000000e+01
-2.250901937484741211e+00 1.569083213806151900e+00 -6.334621906280517578e-01 1.400000000000000000e+01
-2.663540124893188032e+00 1.857420206069946067e+00 -6.311961412429809570e-01 1.300000000000000000e+01
-3.213904619216918945e+00 2.242884874343872070e+00 -6.207319498062133789e-01 9.000000000000000000e+00
-3.294913864135742188e+01 2.300274085998535156e+01 4.934002399444580078e+00 2.200000000000000000e+01
-4.117530345916748047e+00 2.875635147094727007e+00 -6.166588664054870605e-01 1.000000000000000000e+01
-3.362440872192382812e+01 2.348289680480957031e+01 6.495784759521484375e+00 1.400000000000000000e+01
-5.683764457702636719e+00 3.970951080322266069e+00 -6.066039800643920898e-01 3.000000000000000000e+00
-8.942156791687011719e+00 6.252066135406494141e+00 -5.718226432800292969e-01 3.000000000000000000e+00
-3.215357208251953125e+01 2.248909187316894887e+01 9.058778762817382812e+00 1.200000000000000000e+01
-1.962416887283324973e+00 1.377163887023926003e+00 -6.423888802528381348e-01 1.900000000000000000e+01
-2.248600721359252930e+00 1.579170703887939009e+00 -6.343619823455810547e-01 1.400000000000000000e+01
-2.639369487762451172e+00 1.854291796684264915e+00 -6.269983649253845215e-01 1.200000000000000000e+01
-3.202824115753173828e+00 2.251817703247069868e+00 -6.201062202453613281e-01 9.000000000000000000e+00
-3.420657730102539062e+01 2.405862617492676137e+01 5.134842872619628906e+00 2.700000000000000000e+01
-4.097726345062255859e+00 2.883136749267578125e+00 -6.151964664459228516e-01 1.000000000000000000e+01
-5.669868946075438565e+00 3.990767002105712891e+00 -6.066039800643920898e-01 2.000000000000000000e+00
-8.903949737548828125e+00 6.271740913391113281e+00 -5.707759261131286621e-01 3.000000000000000000e+00
-3.304659652709960938e+01 2.328590583801269887e+01 9.333219528198242188e+00 1.200000000000000000e+01
-1.940006494522094949e+00 1.372076749801635964e+00 -6.366948485374450684e-01 1.900000000000000000e+01
-2.249160051345825195e+00 1.591904878616333008e+00 -6.361615657806396484e-01 1.300000000000000000e+01
-2.634157657623291016e+00 1.865087628364562988e+00 -6.273799538612365723e-01 9.000000000000000000e+00
-3.197772741317749023e+00 2.265825510025023970e+00 -6.207319498062133789e-01 9.000000000000000000e+00
-4.090370178222656250e+00 2.900432825088500977e+00 -6.156839132308959961e-01 9.000000000000000000e+00
-3.285607528686522727e+01 2.329785346984862926e+01 6.379397392272949219e+00 1.400000000000000000e+01
-5.619452476501464844e+00 3.986160993576049805e+00 -6.027691364288330078e-01 2.000000000000000000e+00
-8.838558197021484375e+00 6.274273872375488281e+00 -5.680544972419738770e-01 2.000000000000000000e+00
-3.298327255249022727e+01 2.342266845703125000e+01 9.339517593383789062e+00 1.200000000000000000e+01
-1.944645285606384055e+00 1.385566234588623047e+00 -6.398006677627563477e-01 1.800000000000000000e+01
-2.238829612731934038e+00 1.596352100372314009e+00 -6.348118782043457031e-01 1.300000000000000000e+01
-2.630827903747559038e+00 1.876551270484924094e+00 -6.281431913375854492e-01 8.000000000000000000e+00
-3.176981687545775923e+00 2.267792701721190962e+00 -6.182290315628051758e-01 9.000000000000000000e+00
-4.080220699310302734e+00 2.914693117141724077e+00 -6.156839132308959961e-01 9.000000000000000000e+00
-3.288618087768554688e+01 2.350081253051758168e+01 6.401924133300781250e+00 1.400000000000000000e+01
-5.611988067626953125e+00 4.010385990142822266e+00 -6.034663915634155273e-01 2.000000000000000000e+00
-8.774364471435546875e+00 6.274881362915039062e+00 -5.653330087661743164e-01 2.000000000000000000e+00
-3.286010360717772727e+01 2.350817871093750000e+01 9.327820777893066406e+00 1.200000000000000000e+01
-1.944505095481873003e+00 1.395725369453429954e+00 -6.413536071777343750e-01 1.900000000000000000e+01
-3.408325195312500000e+01 2.447326469421387074e+01 7.324076890945434570e-01 4.000000000000000000e+01
-2.225329875946044922e+00 1.598472952842711958e+00 -6.325623393058776855e-01 1.300000000000000000e+01
-2.638610363006591797e+00 1.896033883094788042e+00 -6.315777897834777832e-01 8.000000000000000000e+00
-3.172253847122191939e+00 2.281175136566162109e+00 -6.188547611236572266e-01 9.000000000000000000e+00
-3.306220245361328125e+01 2.378386116027832031e+01 5.000786781311035156e+00 2.400000000000000000e+01
-4.063576698303222656e+00 2.924279928207397017e+00 -6.147089600563049316e-01 9.000000000000000000e+00
-5.591486930847167969e+00 4.025294780731201172e+00 -6.027691364288330078e-01 2.000000000000000000e+00
-8.713515281677246094e+00 6.277451992034912109e+00 -5.628208518028259277e-01 2.000000000000000000e+00
-3.267982482910156250e+01 2.355209732055664062e+01 9.299926757812500000e+00 1.200000000000000000e+01
-1.942752242088318093e+00 1.404768466949462891e+00 -6.423888802528381348e-01 1.900000000000000000e+01
-2.221315383911132812e+00 1.607373476028441939e+00 -6.330122947692871094e-01 1.400000000000000000e+01
-2.636746883392333984e+00 1.908686399459839089e+00 -6.327226161956787109e-01 8.000000000000000000e+00
-3.159472465515137163e+00 2.288757801055908203e+00 -6.179161071777343750e-01 8.000000000000000000e+00
-3.338082885742188211e+01 2.419033622741698863e+01 5.061721324920654297e+00 2.500000000000000000e+01
-4.045308113098145419e+00 2.932621002197266069e+00 -6.134902834892272949e-01 1.000000000000000000e+01
-5.583853721618652344e+00 4.049467086791992188e+00 -6.034663915634155273e-01 2.000000000000000000e+00
-8.672152519226074219e+00 6.293752670288085938e+00 -5.615648031234741211e-01 2.000000000000000000e+00
-1.931836366653441939e+00 1.406654477119446023e+00 -6.403183341026306152e-01 1.600000000000000000e+01
-2.214397907257080078e+00 1.613583087921143022e+00 -6.325623393058776855e-01 1.300000000000000000e+01
-2.609778642654418945e+00 1.902385711669922097e+00 -6.277616024017333984e-01 9.000000000000000000e+00
-3.156652927398682085e+00 2.302715063095093218e+00 -6.188547611236572266e-01 9.000000000000000000e+00
-3.305989837646483664e+01 2.412537384033203125e+01 5.025160312652587891e+00 2.500000000000000000e+01
-4.037164688110351562e+00 2.947190046310424805e+00 -6.137340068817138672e-01 9.000000000000000000e+00
-3.296569824218750000e+01 2.406545066833496094e+01 6.464498043060302734e+00 1.400000000000000000e+01
-5.557522296905517578e+00 4.058561325073242188e+00 -6.020718812942504883e-01 2.000000000000000000e+00
-8.638333320617675781e+00 6.313047885894775391e+00 -5.607274174690246582e-01 2.000000000000000000e+00
-1.916010260581969993e+00 1.405391097068787065e+00 -6.366948485374450684e-01 1.700000000000000000e+01
-2.219748735427856001e+00 1.629374861717223899e+00 -6.357116699218750000e-01 1.300000000000000000e+01
-2.622111558914185014e+00 1.925427794456481934e+00 -6.323410272598266602e-01 1.100000000000000000e+01
-3.143820524215697798e+00 2.310210466384888139e+00 -6.179161071777343750e-01 9.000000000000000000e+00
-3.297548294067382812e+01 2.424062728881835938e+01 5.025160312652587891e+00 2.500000000000000000e+01
-4.023653984069824219e+00 2.958912372589110884e+00 -6.132465600967407227e-01 9.000000000000000000e+00
-5.504804134368895596e+00 4.049600124359130859e+00 -5.978884100914001465e-01 2.000000000000000000e+00
-8.600160598754882812e+00 6.331322193145751953e+00 -5.596807003021240234e-01 2.000000000000000000e+00
-1.917307853698730025e+00 1.416662812232970969e+00 -6.387653946876525879e-01 1.800000000000000000e+01
-3.454662704467772727e+01 2.553517913818359020e+01 7.498601078987121582e-01 4.300000000000000000e+01
-2.212480545043944868e+00 1.635954737663269043e+00 -6.352617740631103516e-01 1.500000000000000000e+01
-2.609061002731322798e+00 1.929898977279663086e+00 -6.308145523071289062e-01 1.100000000000000000e+01
-3.132561683654785156e+00 2.318819999694824219e+00 -6.172903776168823242e-01 9.000000000000000000e+00
-3.317782592773438211e+01 2.456822586059569957e+01 5.069033622741699219e+00 2.600000000000000000e+01
-4.013300895690917969e+00 2.972939491271973100e+00 -6.132465600967407227e-01 9.000000000000000000e+00
-5.508243083953857422e+00 4.081839561462402344e+00 -5.998058319091796875e-01 3.000000000000000000e+00
-8.565173149108886719e+00 6.351786136627197266e+00 -5.588433146476745605e-01 2.000000000000000000e+00
-1.917000174522399902e+00 1.426807165145874023e+00 -6.403183341026306152e-01 1.600000000000000000e+01
-2.189565181732178178e+00 1.630862951278686968e+00 -6.303128600120544434e-01 1.400000000000000000e+01
-2.610179901123046875e+00 1.944859623908997026e+00 -6.327226161956787109e-01 1.100000000000000000e+01
-3.126032114028931108e+00 2.330921173095703125e+00 -6.176032423973083496e-01 9.000000000000000000e+00
-3.996534824371337891e+00 2.982181787490845171e+00 -6.122716069221496582e-01 9.000000000000000000e+00
-5.498751163482666016e+00 4.104617595672607422e+00 -6.003287434577941895e-01 2.000000000000000000e+00
-8.523747444152832031e+00 6.367301940917968750e+00 -5.575872659683227539e-01 2.000000000000000000e+00
-1.915349960327147993e+00 1.435473442077636941e+00 -6.413536071777343750e-01 1.900000000000000000e+01
-2.190381050109862837e+00 1.642791867256164995e+00 -6.321124434471130371e-01 1.300000000000000000e+01
-2.588012218475341797e+00 1.941722273826598899e+00 -6.289064288139343262e-01 1.300000000000000000e+01
-3.119864940643310991e+00 2.342460870742797852e+00 -6.179161071777343750e-01 8.000000000000000000e+00
-3.983449697494506836e+00 2.993033409118651900e+00 -6.117841005325317383e-01 9.000000000000000000e+00
-5.462812423706054688e+00 4.106070041656494141e+00 -5.978884100914001465e-01 3.000000000000000000e+00
-8.502586364746093750e+00 6.395532608032226562e+00 -5.575872659683227539e-01 2.000000000000000000e+00
-3.205084991455078125e+01 2.411698341369628906e+01 9.260334968566894531e+00 1.200000000000000000e+01
-1.902618408203125000e+00 1.436330676078795943e+00 -6.387653946876525879e-01 1.900000000000000000e+01
-2.190852880477904829e+00 1.655126452445984109e+00 -6.339120864868164062e-01 1.300000000000000000e+01
-2.581218481063843218e+00 1.950744271278380904e+00 -6.289064288139343262e-01 1.100000000000000000e+01
-3.117971181869506836e+00 2.358103275299071822e+00 -6.191676259040832520e-01 8.000000000000000000e+00
-3.220436477661132812e+01 2.436480712890625000e+01 4.958375930786132812e+00 2.300000000000000000e+01
-3.976143360137939009e+00 3.009315967559814009e+00 -6.122716069221496582e-01 9.000000000000000000e+00
-5.457976818084716797e+00 4.132329940795898438e+00 -5.989342927932739258e-01 5.000000000000000000e+00
-8.438819885253906250e+00 6.393813133239746094e+00 -5.548658370971679688e-01 2.000000000000000000e+00
-1.888366580009460005e+00 1.435947299003601074e+00 -6.356595754623413086e-01 2.000000000000000000e+01
-2.188163518905640093e+00 1.665124058723449929e+00 -6.348118782043457031e-01 1.300000000000000000e+01
-2.580641984939575195e+00 1.964499235153198020e+00 -6.304329037666320801e-01 1.200000000000000000e+01
-3.100292921066284180e+00 2.361790180206298828e+00 -6.172903776168823242e-01 8.000000000000000000e+00
-3.223595809936522727e+01 2.456611251831055043e+01 4.976412773132324219e+00 2.300000000000000000e+01
-3.968772172927856001e+00 3.025583982467650923e+00 -6.127590537071228027e-01 9.000000000000000000e+00
-5.430845260620117188e+00 4.141690731048583984e+00 -5.975397825241088867e-01 4.000000000000000000e+00
-8.248152732849121094e+00 6.294791221618652344e+00 -5.437706112861633301e-01 1.800000000000000000e+01
-1.889477372169495073e+00 1.447229027748107910e+00 -6.377301216125488281e-01 2.000000000000000000e+01
-2.180791139602661133e+00 1.671566486358643022e+00 -6.343619823455810547e-01 1.300000000000000000e+01
-2.575326919555664062e+00 1.974689960479736106e+00 -6.308145523071289062e-01 1.300000000000000000e+01
-3.088895320892333984e+00 2.370192766189575195e+00 -6.166646480560302734e-01 8.000000000000000000e+00
-3.958186626434326172e+00 3.039419174194335938e+00 -6.127590537071228027e-01 9.000000000000000000e+00
-5.403714656829833984e+00 4.150913238525390625e+00 -5.961452722549438477e-01 5.000000000000000000e+00
-8.393977165222167969e+00 6.452570915222167969e+00 -5.548658370971679688e-01 2.000000000000000000e+00
-1.885943651199341042e+00 1.454995751380919966e+00 -6.382477879524230957e-01 2.100000000000000000e+01
-2.161060571670531782e+00 1.668450593948364036e+00 -6.303128600120544434e-01 1.400000000000000000e+01
-2.568418264389038086e+00 1.983667492866515891e+00 -6.308145523071289062e-01 1.200000000000000000e+01
-3.080603122711182085e+00 2.380960702896118164e+00 -6.166646480560302734e-01 8.000000000000000000e+00
-3.934991121292113814e+00 3.043501377105712891e+00 -6.108091473579406738e-01 9.000000000000000000e+00
-5.404950141906738281e+00 4.181942462921142578e+00 -5.978884100914001465e-01 2.000000000000000000e+00
-8.358768463134765625e+00 6.472050189971923828e+00 -5.540284514427185059e-01 2.000000000000000000e+00
-1.879327774047852007e+00 1.460384607315063032e+00 -6.377301216125488281e-01 2.000000000000000000e+01
-2.164453268051147017e+00 1.683161616325377974e+00 -6.330122947692871094e-01 1.300000000000000000e+01
-2.550631046295166016e+00 1.984182715415955034e+00 -6.281431913375854492e-01 1.200000000000000000e+01
-3.070714473724364790e+00 2.390486001968383789e+00 -6.163517832756042480e-01 9.000000000000000000e+00
-3.918079376220703125e+00 3.052338838577270952e+00 -6.098341941833496094e-01 9.000000000000000000e+00
-5.377747535705566406e+00 4.190986156463623047e+00 -5.964938998222351074e-01 4.000000000000000000e+00
-8.310927391052246094e+00 6.481536388397216797e+00 -5.523536801338195801e-01 2.000000000000000000e+00
-3.551847076416016336e+01 2.771015930175780895e+01 1.040038681030273082e+01 1.300000000000000000e+01
-1.876252293586730957e+00 1.467471718788146973e+00 -6.382477879524230957e-01 2.100000000000000000e+01
-2.156085729598999023e+00 1.687550902366637962e+00 -6.321124434471130371e-01 1.400000000000000000e+01
