2.037040710449219194e+00 1.005883574485779031e+00 -6.087424159049987793e-01 1.900000000000000000e+01
2.343560457229613814e+00 1.156224608421325906e+00 -6.033187508583068848e-01 1.600000000000000000e+01
2.699290037155150923e+00 1.331142544746398926e+00 -5.850203633308410645e-01 1.200000000000000000e+01
3.237382650375366211e+00 1.595095753669738992e+00 -5.716115236282348633e-01 1.000000000000000000e+01
4.019689083099365234e+00 1.978803873062134011e+00 -5.501182079315185547e-01 1.100000000000000000e+01
3.421485900878906250e+01 1.683579826354980113e+01 6.039621829986572266e+00 1.300000000000000000e+01
5.266529083251953125e+00 2.591453552246094194e+00 -5.135216116905212402e-01 9.000000000000000000e+00
7.569158077239990234e+00 3.721206188201903853e+00 -4.420294761657714844e-01 2.000000000000000000e+00
3.228080749511718750e+01 1.586313724517822088e+01 8.303843498229980469e+00 1.000000000000000000e+01
1.253170776367188033e+01 6.155501365661621094e+00 -2.437054067850112915e-01 2.000000000000000000e+00
3.759732055664063211e+01 1.845943832397460938e+01 1.122291183471680043e+01 1.000000000000000000e+01
2.049040079116820845e+00 1.003371000289916992e+00 -6.113305687904357910e-01 1.700000000000000000e+01
3.822435760498046875e+01 1.870937728881835938e+01 7.428442239761352539e-01 4.200000000000000000e+01
2.329876899719237837e+00 1.139882683753967063e+00 -5.988197326660156250e-01 1.500000000000000000e+01
2.707216739654541016e+00 1.323909044265747070e+00 -5.857836008071899414e-01 1.200000000000000000e+01
3.239104509353638139e+00 1.582617044448852983e+00 -5.709857940673828125e-01 1.000000000000000000e+01
4.017309665679931641e+00 1.961109042167664018e+00 -5.488995313644409180e-01 1.100000000000000000e+01
5.257187843322753906e+00 2.565237760543822798e+00 -5.117785334587097168e-01 9.000000000000000000e+00
7.574275016784667969e+00 3.692584514617919922e+00 -4.416108131408690851e-01 2.000000000000000000e+00
1.255205154418944957e+01 6.113911151885986328e+00 -2.437054067850112915e-01 2.000000000000000000e+00
3.572729873657227273e+01 1.740221786499023082e+01 1.064833354949950994e+01 9.000000000000000000e+00
2.056005954742432085e+00 9.978994727134704590e-01 -6.123658418655395508e-01 1.800000000000000000e+01
2.340855360031127930e+00 1.135144114494323953e+00 -6.006193161010742188e-01 1.600000000000000000e+01
2.717121601104735884e+00 1.317019939422606978e+00 -5.869284868240356445e-01 1.300000000000000000e+01
3.253498554229735884e+00 1.575605750083922896e+00 -5.725501179695129395e-01 1.100000000000000000e+01
3.862446212768554688e+01 1.869675064086914062e+01 5.268898963928222656e+00 3.100000000000000000e+01
4.020556926727294922e+00 1.945344805717468040e+00 -5.484120249748229980e-01 1.000000000000000000e+01
3.425753021240233664e+01 1.656811332702637074e+01 6.027107238769531250e+00 1.300000000000000000e+01
5.294808387756347656e+00 2.560750484466553178e+00 -5.145674943923950195e-01 9.000000000000000000e+00
7.587118625640869141e+00 3.666122913360596147e+00 -4.416108131408690851e-01 2.000000000000000000e+00
1.256611347198485973e+01 6.066581249237061435e+00 -2.435657829046249112e-01 2.000000000000000000e+00
3.603790283203125000e+01 1.739037513732910156e+01 1.072183799743651988e+01 9.000000000000000000e+00
2.059476852416992188e+00 9.907165765762329102e-01 -6.123658418655395508e-01 1.600000000000000000e+01
2.351829290390015093e+00 1.130342721939086914e+00 -6.024188995361328125e-01 1.600000000000000000e+01
2.707545042037963867e+00 1.300726175308227983e+00 -5.838755369186401367e-01 1.200000000000000000e+01
3.260759592056273970e+00 1.565094113349914995e+00 -5.728629827499389648e-01 1.000000000000000000e+01
3.858210372924804688e+01 1.851029205322265980e+01 5.254274845123291016e+00 3.000000000000000000e+01
4.055961608886718750e+00 1.945032358169556108e+00 -5.523118376731872559e-01 8.000000000000000000e+00
5.294731140136718750e+00 2.537946462631226030e+00 -5.136959552764892578e-01 9.000000000000000000e+00
7.614280223846436435e+00 3.646517992019652876e+00 -4.424481689929962158e-01 2.000000000000000000e+00
3.209440994262695312e+01 1.536329269409180043e+01 8.214762687683105469e+00 1.000000000000000000e+01
1.257278251647949041e+01 6.015775680541992188e+00 -2.432865500450134000e-01 2.000000000000000000e+00
3.501667785644531250e+01 1.675464248657226918e+01 1.040141963958740057e+01 1.700000000000000000e+01
2.054203510284423828e+00 9.793647527694702148e-01 -6.097776889801025391e-01 1.600000000000000000e+01
2.362797975540161133e+00 1.125478506088257058e+00 -6.042185425758361816e-01 1.500000000000000000e+01
2.717386722564696822e+00 1.293799042701720969e+00 -5.850203633308410645e-01 1.200000000000000000e+01
3.269770383834838867e+00 1.555399537086487038e+00 -5.734887719154357910e-01 1.000000000000000000e+01
4.046590328216552734e+00 1.923193573951720969e+00 -5.501182079315185547e-01 6.000000000000000000e+00
3.455078887939453125e+01 1.641331100463866832e+01 6.058393955230712891e+00 1.400000000000000000e+01
5.301758289337158203e+00 2.518594026565552202e+00 -5.135216116905212402e-01 9.000000000000000000e+00
7.637788772583007812e+00 3.625055074691772017e+00 -4.430761933326721191e-01 1.000000000000000000e+00
3.207037353515625000e+01 1.521441745758056996e+01 8.194967269897460938e+00 1.000000000000000000e+01
1.257563591003417969e+01 5.963284015655517578e+00 -2.429374903440474909e-01 2.000000000000000000e+00
3.489804458618164062e+01 1.654096412658691051e+01 1.034810352325438920e+01 8.000000000000000000e+00
2.048707008361815962e+00 9.684194326400756836e-01 -6.071894764900207520e-01 1.600000000000000000e+01
2.362993001937866211e+00 1.115972638130187988e+00 -6.033187508583068848e-01 1.600000000000000000e+01
2.726988315582274947e+00 1.287295103073119895e+00 -5.861652493476867676e-01 1.200000000000000000e+01
3.260617256164550781e+00 1.537806987762450950e+00 -5.709857940673828125e-01 1.000000000000000000e+01
3.701936340332031250e+01 1.745156860351562855e+01 5.025160312652587891e+00 2.500000000000000000e+01
4.054741382598876953e+00 1.910610198974608931e+00 -5.503619313240051270e-01 8.000000000000000000e+00
5.317291259765625000e+00 2.504394769668579102e+00 -5.142188668251037598e-01 9.000000000000000000e+00
7.646153450012207031e+00 3.598006725311278853e+00 -4.428668618202208918e-01 2.000000000000000000e+00
1.263153553009033025e+01 5.938564777374267578e+00 -2.436355948448180875e-01 2.000000000000000000e+00
3.484144592285156250e+01 1.638028717041015980e+01 1.031600952148438033e+01 8.000000000000000000e+00
2.062571525573730025e+00 9.661791324615478516e-01 -6.102952957153320312e-01 1.500000000000000000e+01
2.358048915863037109e+00 1.103587269783020020e+00 -6.010692119598388672e-01 1.400000000000000000e+01
2.733243703842163086e+00 1.278600096702575906e+00 -5.865468382835388184e-01 1.100000000000000000e+01
3.271334171295166016e+00 1.528925061225890891e+00 -5.719243884086608887e-01 1.100000000000000000e+01
4.073976516723632812e+00 1.902323961257935014e+00 -5.520681142807006836e-01 1.100000000000000000e+01
3.487651062011718750e+01 1.627800750732421875e+01 6.095938205718994141e+00 1.400000000000000000e+01
5.326000690460205078e+00 2.485818624496459961e+00 -5.142188668251037598e-01 9.000000000000000000e+00
3.351952362060546875e+01 1.563753318786620916e+01 7.189682960510253906e+00 6.100000000000000000e+01
7.662286281585693359e+00 3.572982788085937944e+00 -4.430761933326721191e-01 2.000000000000000000e+00
3.207781219482421875e+01 1.495131397247313920e+01 8.170672416687011719e+00 1.000000000000000000e+01
1.264131259918213068e+01 5.889369487762451172e+00 -2.434261590242385864e-01 5.000000000000000000e+00
3.499932098388671875e+01 1.629814529418944957e+01 1.034499740600585938e+01 8.000000000000000000e+00
2.071188449859619141e+00 9.614136815071105957e-01 -6.118482351303100586e-01 1.600000000000000000e+01
2.356583118438721147e+00 1.092889785766602007e+00 -5.997195243835449219e-01 1.200000000000000000e+01
2.727002859115601030e+00 1.264097571372986062e+00 -5.842571258544921875e-01 1.100000000000000000e+01
3.276651144027709961e+00 1.517496705055237038e+00 -5.719243884086608887e-01 1.100000000000000000e+01
4.080592155456542969e+00 1.888091564178467019e+00 -5.520681142807006836e-01 1.100000000000000000e+01
5.341878890991210938e+00 2.470557689666748047e+00 -5.149161219596862793e-01 9.000000000000000000e+00
3.357390213012695312e+01 1.552043247222900035e+01 7.189682960510253906e+00 6.100000000000000000e+01
7.681963920593261719e+00 3.549565792083739790e+00 -4.434948861598969061e-01 1.000000000000000000e+00
3.217226791381835938e+01 1.485886096954346058e+01 8.181469917297363281e+00 2.100000000000000000e+01
1.267994880676270064e+01 5.853588581085205078e+00 -2.437752187252044955e-01 5.000000000000000000e+00
3.491636276245117188e+01 1.611883735656737926e+01 1.030462169647216975e+01 8.000000000000000000e+00
2.076286792755126953e+00 9.549852609634399414e-01 -6.123658418655395508e-01 1.600000000000000000e+01
2.371008157730102983e+00 1.089539289474487083e+00 -6.024188995361328125e-01 1.200000000000000000e+01
2.738535165786743164e+00 1.257848620414734109e+00 -5.857836008071899414e-01 1.100000000000000000e+01
3.294495820999145952e+00 1.511816978454590066e+00 -5.741145014762878418e-01 1.000000000000000000e+01
4.096180438995361328e+00 1.877972722053528054e+00 -5.532867908477783203e-01 1.200000000000000000e+01
5.350470066070556641e+00 2.451895952224731001e+00 -5.149161219596862793e-01 9.000000000000000000e+00
3.349579238891602273e+01 1.534264278411865057e+01 7.161443233489990234e+00 6.100000000000000000e+01
7.690675735473632812e+00 3.521066188812255859e+00 -4.432855546474456787e-01 2.000000000000000000e+00
3.233734512329102273e+01 1.479836654663085938e+01 8.210263252258300781e+00 1.000000000000000000e+01
1.273303699493408025e+01 5.824264049530029297e+00 -2.444034963846206943e-01 5.000000000000000000e+00
2.074333906173706055e+00 9.453284740447998047e-01 -6.108129620552062988e-01 1.900000000000000000e+01
3.836481475830078125e+01 1.747576713562012074e+01 7.358632683753967285e-01 4.000000000000000000e+01
2.392532587051392046e+00 1.089331388473510964e+00 -6.069179177284240723e-01 1.300000000000000000e+01
2.742909193038939986e+00 1.248281717300415039e+00 -5.857836008071899414e-01 1.100000000000000000e+01
3.296156406402587891e+00 1.498672604560852051e+00 -5.734887719154357910e-01 1.000000000000000000e+01
3.744013977050781250e+01 1.701512718200683949e+01 5.049534320831298828e+00 2.500000000000000000e+01
4.109940052032470703e+00 1.866946935653686968e+00 -5.542617440223693848e-01 1.200000000000000000e+01
5.360810279846191406e+00 2.434028148651123047e+00 -5.150904655456542969e-01 8.000000000000000000e+00
3.368143844604492188e+01 1.528566646575927912e+01 7.189682960510253906e+00 6.100000000000000000e+01
7.695643901824951172e+00 3.490898847579956055e+00 -4.428668618202208918e-01 2.000000000000000000e+00
1.278607463836669922e+01 5.794640064239501953e+00 -2.450317889451980868e-01 2.000000000000000000e+00
2.077621221542357954e+00 9.380819201469421387e-01 -6.108129620552062988e-01 1.600000000000000000e+01
3.842558288574218750e+01 1.734174156188964844e+01 7.358632683753967285e-01 4.000000000000000000e+01
2.376780271530150923e+00 1.072158813476562944e+00 -6.019690036773681641e-01 1.200000000000000000e+01
3.852318572998046875e+01 1.736960792541503906e+01 2.214648246765137163e+00 2.800000000000000000e+01
2.757988214492797852e+00 1.243541359901428001e+00 -5.880733132362365723e-01 1.200000000000000000e+01
3.292362213134766069e+00 1.483101129531859907e+00 -5.719243884086608887e-01 1.100000000000000000e+01
4.116431713104248047e+00 1.852589130401611106e+00 -5.542617440223693848e-01 1.200000000000000000e+01
5.365640163421630859e+00 2.413665771484375000e+00 -5.147418379783630371e-01 9.000000000000000000e+00
7.744217395782470703e+00 3.480389356613159180e+00 -4.449602961540222168e-01 2.000000000000000000e+00
1.283541202545166016e+01 5.763078212738037109e+00 -2.455902695655823031e-01 2.000000000000000000e+00
3.439509201049804688e+01 1.543612575531006037e+01 1.010170745849609020e+01 8.000000000000000000e+00
2.089700460433959961e+00 9.347681403160095215e-01 -6.134011149406433105e-01 1.900000000000000000e+01
3.848588180541992188e+01 1.720750617980957031e+01 7.358632683753967285e-01 4.000000000000000000e+01
2.376950025558472124e+00 1.062265515327454057e+00 -6.010692119598388672e-01 1.100000000000000000e+01
2.760519504547119141e+00 1.233105897903441939e+00 -5.876917243003845215e-01 1.200000000000000000e+01
3.299323081970214844e+00 1.472404599189758079e+00 -5.722372531890869141e-01 1.100000000000000000e+01
4.130125522613525391e+00 1.841442227363585982e+00 -5.552367568016052246e-01 1.200000000000000000e+01
5.383131980895996094e+00 2.398976564407349077e+00 -5.156133770942687988e-01 9.000000000000000000e+00
7.719827175140380859e+00 3.437088489532471147e+00 -4.428668618202208918e-01 2.000000000000000000e+00
3.291071319580078125e+01 1.464591121673583984e+01 8.316440582275390625e+00 1.000000000000000000e+01
1.291757202148438033e+01 5.745871543884277344e+00 -2.467770278453826904e-01 2.000000000000000000e+00
3.458729934692382812e+01 1.538479423522949041e+01 1.014311790466308949e+01 8.000000000000000000e+00
2.096482992172241211e+00 9.290333986282348633e-01 -6.144363880157470703e-01 1.700000000000000000e+01
2.389553070068358931e+00 1.057906508445739968e+00 -6.033187508583068848e-01 1.500000000000000000e+01
2.771988391876221147e+00 1.226640224456787109e+00 -5.892181992530822754e-01 1.300000000000000000e+01
3.309862852096558061e+00 1.463275074958801047e+00 -5.731759071350097656e-01 1.100000000000000000e+01
3.463848495483397727e+01 1.530628681182860973e+01 4.649803161621093750e+00 1.900000000000000000e+01
4.122001647949218750e+00 1.820598006248473899e+00 -5.532867908477783203e-01 1.200000000000000000e+01
3.855472564697266336e+01 1.702073860168457031e+01 6.675058841705322266e+00 1.400000000000000000e+01
5.409699916839599609e+00 2.388217926025391069e+00 -5.173565149307250977e-01 9.000000000000000000e+00
7.779290676116943359e+00 3.431076049804687944e+00 -4.455883204936981201e-01 2.000000000000000000e+00
3.652437973022460938e+01 1.610155677795410156e+01 9.215344429016113281e+00 1.200000000000000000e+01
1.297414875030517933e+01 5.716872215270996094e+00 -2.474751174449920932e-01 2.000000000000000000e+00
3.529489135742188211e+01 1.555218791961669922e+01 1.033464431762694957e+01 8.000000000000000000e+00
2.089099645614624023e+00 9.170506000518798828e-01 -6.113305687904357910e-01 1.700000000000000000e+01
2.400370121002196822e+00 1.052689552307128906e+00 -6.051183342933654785e-01 1.600000000000000000e+01
2.770859003067017046e+00 1.214592099189758079e+00 -5.880733132362365723e-01 1.400000000000000000e+01
3.320378780364989790e+00 1.454089760780334029e+00 -5.741145014762878418e-01 1.000000000000000000e+01
3.476808166503906250e+01 1.521871471405028942e+01 4.660039901733398438e+00 2.000000000000000000e+01
4.144699096679688388e+00 1.813359618186950906e+00 -5.554804801940917969e-01 1.300000000000000000e+01
3.621847152709960938e+01 1.584605026245117010e+01 6.261445999145507812e+00 1.400000000000000000e+01
5.399748802185058594e+00 2.361337184906005859e+00 -5.156133770942687988e-01 9.000000000000000000e+00
7.772917747497558594e+00 3.395904302597045898e+00 -4.445416033267974854e-01 1.000000000000000000e+00
1.301968288421631037e+01 5.682748317718505859e+00 -2.479637861251831055e-01 2.000000000000000000e+00
3.534896469116210938e+01 1.542889118194580078e+01 1.033464431762694957e+01 8.000000000000000000e+00
2.092288017272949219e+00 9.097527265548706055e-01 -6.113305687904357910e-01 1.800000000000000000e+01
2.407604694366455078e+00 1.045857191085814986e+00 -6.060181260108947754e-01 1.600000000000000000e+01
2.778683423995972124e+00 1.206476449966431108e+00 -5.888365507125854492e-01 1.400000000000000000e+01
3.325434207916260210e+00 1.442490696907043013e+00 -5.741145014762878418e-01 1.000000000000000000e+01
4.163753986358642578e+00 1.804406166076659934e+00 -5.571866631507873535e-01 1.200000000000000000e+01
3.630168533325195312e+01 1.572418785095215021e+01 6.265826225280761719e+00 1.400000000000000000e+01
5.398817062377929688e+00 2.338514566421508789e+00 -5.147418379783630371e-01 9.000000000000000000e+00
7.792056560516357422e+00 3.371923923492432085e+00 -4.449602961540222168e-01 1.000000000000000000e+00
1.303209877014159979e+01 5.634092330932617188e+00 -2.478241771459578913e-01 2.000000000000000000e+00
3.694456100463867188e+01 1.596437740325927912e+01 1.078395462036132990e+01 9.000000000000000000e+00
2.093361616134643999e+00 9.024103283882141113e-01 -6.108129620552062988e-01 1.600000000000000000e+01
2.403719186782836914e+00 1.035205125808716042e+00 -6.042185425758361816e-01 1.500000000000000000e+01
2.784263372421265093e+00 1.198517203330994096e+00 -5.892181992530822754e-01 1.400000000000000000e+01
3.322690963745117188e+00 1.428914785385132058e+00 -5.728629827499389648e-01 1.000000000000000000e+01
3.639290237426757812e+01 1.564314937591552912e+01 4.863805294036865234e+00 2.100000000000000000e+01
4.165754318237304688e+00 1.789749264717102051e+00 -5.566991567611694336e-01 1.200000000000000000e+01
3.641624832153320312e+01 1.563812637329101918e+01 6.277089118957520419e+00 1.400000000000000000e+01
5.429936408996582031e+00 2.331762313842772993e+00 -5.170078873634338379e-01 9.000000000000000000e+00
7.813623905181884766e+00 3.352152585983275923e+00 -4.455883204936981201e-01 1.000000000000000000e+00
1.312325382232666016e+01 5.624633789062500000e+00 -2.492203712463378906e-01 2.000000000000000000e+00
3.505455017089843750e+01 1.502439880371093928e+01 1.021921157836914062e+01 8.000000000000000000e+00
2.107159137725830078e+00 8.996490240097045898e-01 -6.139187812805175781e-01 1.900000000000000000e+01
2.392978191375731978e+00 1.020691752433777078e+00 -6.006193161010742188e-01 1.500000000000000000e+01
2.802877902984619141e+00 1.194950580596924050e+00 -5.922711491584777832e-01 1.500000000000000000e+01
3.329475879669189009e+00 1.418081760406493919e+00 -5.731759071350097656e-01 1.100000000000000000e+01
3.783905792236328125e+01 1.610851287841796875e+01 5.049534320831298828e+00 2.500000000000000000e+01
4.173802852630615234e+00 1.775974392890929954e+00 -5.569428801536560059e-01 1.300000000000000000e+01
5.456377506256104404e+00 2.320591688156127930e+00 -5.187509655952453613e-01 9.000000000000000000e+00
7.843659877777099609e+00 3.332667827606201172e+00 -4.466350376605988104e-01 2.000000000000000000e+00
1.312440013885498047e+01 5.570977210998535156e+00 -2.488713115453720093e-01 2.000000000000000000e+00
3.523481750488281250e+01 1.495629215240479049e+01 1.025648117065430043e+01 8.000000000000000000e+00
2.115624666213988814e+00 8.945451974868774414e-01 -6.154716610908508301e-01 1.500000000000000000e+01
2.410887718200684038e+00 1.018398880958556907e+00 -6.042185425758361816e-01 1.500000000000000000e+01
3.709402847290039062e+01 1.566150188446044922e+01 2.110185861587523970e+00 2.300000000000000000e+01
2.792562723159790039e+00 1.179050326347351074e+00 -5.892181992530822754e-01 1.400000000000000000e+01
3.336225748062133789e+00 1.407218813896178977e+00 -5.734887719154357910e-01 1.000000000000000000e+01
4.170830249786376953e+00 1.757539987564086914e+00 -5.557242035865783691e-01 1.200000000000000000e+01
5.484642505645751953e+00 2.310038328170775923e+00 -5.206683874130249023e-01 9.000000000000000000e+00
7.855245113372802734e+00 3.305268049240111861e+00 -4.466350376605988104e-01 2.000000000000000000e+00
1.321750450134276988e+01 5.556127071380615234e+00 -2.502675056457520086e-01 2.000000000000000000e+00
3.521815490722656250e+01 1.479711723327637074e+01 1.023577594757080078e+01 8.000000000000000000e+00
2.109824419021606001e+00 8.834241628646850586e-01 -6.128835082054138184e-01 1.600000000000000000e+01
2.419821262359619141e+00 1.012233138084412065e+00 -6.055682301521301270e-01 1.400000000000000000e+01
2.803906440734862837e+00 1.172324538230895996e+00 -5.907446742057800293e-01 1.300000000000000000e+01
3.355699539184569868e+00 1.401655435562134011e+00 -5.759916901588439941e-01 1.100000000000000000e+01
3.637153244018554688e+01 1.518471527099609020e+01 4.839431762695313388e+00 2.000000000000000000e+01
4.184267520904541016e+00 1.746028184890747070e+00 -5.566991567611694336e-01 1.200000000000000000e+01
5.483478546142578125e+00 2.287044525146483931e+00 -5.197968482971191406e-01 9.000000000000000000e+00
3.486482620239257812e+01 1.453425025939941051e+01 7.342329978942871094e+00 6.200000000000000000e+01
7.866734981536865234e+00 3.277827978134154829e+00 -4.466350376605988104e-01 1.000000000000000000e+00
3.313155746459960938e+01 1.379812145233153942e+01 8.285846710205078125e+00 1.000000000000000000e+01
1.327374076843262074e+01 5.525325298309326172e+00 -2.509655952453612726e-01 2.000000000000000000e+00
3.752410888671875000e+01 1.561209487915039062e+01 1.089006996154784979e+01 1.000000000000000000e+01
2.107694149017333984e+00 8.734665513038635254e-01 -6.113305687904357910e-01 1.500000000000000000e+01
2.425315618515015093e+00 1.004102706909179910e+00 -6.060181260108947754e-01 1.600000000000000000e+01
2.808184385299683061e+00 1.162039875984191895e+00 -5.907446742057800293e-01 1.300000000000000000e+01
3.357163190841674805e+00 1.387837529182434082e+00 -5.753659605979919434e-01 1.100000000000000000e+01
3.645262908935546875e+01 1.506191825866699041e+01 4.842844009399414062e+00 2.000000000000000000e+01
4.197978019714354581e+00 1.733711361885071023e+00 -5.576741099357604980e-01 1.100000000000000000e+01
3.549904251098632812e+01 1.466065120697020951e+01 6.083110809326171875e+00 1.400000000000000000e+01
5.467882156372070312e+00 2.257048606872559038e+00 -5.175307989120483398e-01 9.000000000000000000e+00
7.871310234069824219e+00 3.245927333831787109e+00 -4.462163746356964111e-01 2.000000000000000000e+00
3.307740783691406250e+01 1.363352394104004084e+01 8.259753227233886719e+00 1.000000000000000000e+01
1.334937095642090021e+01 5.499488353729248047e+00 -2.520127594470977783e-01 2.000000000000000000e+00
3.760608673095703125e+01 1.548475456237792969e+01 1.089731693267822088e+01 1.000000000000000000e+01
2.107155799865723100e+00 8.646372556686401367e-01 -6.102952957153320312e-01 1.500000000000000000e+01
3.863642501831054688e+01 1.584595203399658025e+01 7.289171814918518066e-01 3.900000000000000000e+01
2.428805828094481978e+00 9.956306815147399902e-01 -6.060181260108947754e-01 1.500000000000000000e+01
2.821307182312012163e+00 1.155952095985413042e+00 -5.926527380943298340e-01 1.300000000000000000e+01
3.358330965042113814e+00 1.374613761901855025e+00 -5.747402310371398926e-01 1.000000000000000000e+01
4.211353778839111328e+00 1.722052454948425071e+00 -5.586490631103515625e-01 1.100000000000000000e+01
5.477571964263916016e+00 2.238702058792113814e+00 -5.177050828933715820e-01 9.000000000000000000e+00
7.875196456909179688e+00 3.215411663055419922e+00 -4.457976818084716797e-01 2.000000000000000000e+00
3.342430877685546875e+01 1.364020729064941051e+01 8.334436416625976562e+00 1.000000000000000000e+01
1.333145523071289062e+01 5.437751770019531250e+00 -2.513146400451660156e-01 2.000000000000000000e+00
3.761697387695313211e+01 1.533588790893555043e+01 1.088489341735840021e+01 1.000000000000000000e+01
2.124328851699829102e+00 8.634644150733947754e-01 -6.144363880157470703e-01 1.500000000000000000e+01
2.424871921539307085e+00 9.846383333206176758e-01 -6.042185425758361816e-01 1.500000000000000000e+01
2.830582141876221147e+00 1.148804783821105957e+00 -5.937975645065307617e-01 1.300000000000000000e+01
3.353717803955078125e+00 1.359758496284485085e+00 -5.731759071350097656e-01 1.100000000000000000e+01
4.213361740112304688e+00 1.706587195396422896e+00 -5.581616163253784180e-01 1.100000000000000000e+01
5.496046543121337891e+00 2.225011348724364790e+00 -5.187509655952453613e-01 9.000000000000000000e+00
7.900628089904785156e+00 3.195269584655762163e+00 -4.466350376605988104e-01 2.000000000000000000e+00
1.340132808685302912e+01 5.414488315582275391e+00 -2.522919774055480957e-01 2.000000000000000000e+00
3.763631057739257812e+01 1.520605564117431996e+01 1.087661170959473012e+01 1.000000000000000000e+01
2.129122257232666016e+00 8.567650318145751953e-01 -6.149540543556213379e-01 1.600000000000000000e+01
2.424677848815917969e+00 9.747142195701599121e-01 -6.033187508583068848e-01 1.500000000000000000e+01
2.829109907150268999e+00 1.136721372604369895e+00 -5.926527380943298340e-01 1.300000000000000000e+01
3.373109340667725053e+00 1.353930115699768066e+00 -5.756788253784179688e-01 1.100000000000000000e+01
4.224820613861083984e+00 1.694085836410522017e+00 -5.588927865028381348e-01 1.100000000000000000e+01
5.516725540161132812e+00 2.211001396179199219e+00 -5.199711322784423828e-01 9.000000000000000000e+00
7.915441989898681641e+00 3.169156312942504883e+00 -4.468443989753723145e-01 2.000000000000000000e+00
1.342014694213867010e+01 5.367675781250000000e+00 -2.522919774055480957e-01 2.000000000000000000e+00
3.757698440551757812e+01 1.502211475372313920e+01 1.084348297119140980e+01 9.000000000000000000e+00
2.121184110641479048e+00 8.454084992408752441e-01 -6.118482351303100586e-01 1.600000000000000000e+01
2.435138940811156782e+00 9.695518016815185547e-01 -6.051183342933654785e-01 1.500000000000000000e+01
2.831039905548096147e+00 1.126607537269592063e+00 -5.922711491584777832e-01 1.600000000000000000e+01
3.379416227340697798e+00 1.343466758728026900e+00 -5.759916901588439941e-01 1.000000000000000000e+01
4.024795913696289062e+01 1.599220180511474965e+01 5.317646980285645419e+00 3.200000000000000000e+01
4.232259750366210938e+00 1.680799126625061035e+00 -5.591365694999694824e-01 1.100000000000000000e+01
5.529582500457763672e+00 2.194900512695312944e+00 -5.204941034317016602e-01 9.000000000000000000e+00
7.918481349945068359e+00 3.139945507049560991e+00 -4.464257061481475830e-01 2.000000000000000000e+00
3.649553298950195312e+01 1.446434211730957031e+01 9.063278198242187500e+00 1.200000000000000000e+01
1.355313968658447088e+01 5.368803977966308594e+00 -2.544560730457305908e-01 2.000000000000000000e+00
3.763476943969727273e+01 1.490825748443604049e+01 1.084658813476563033e+01 9.000000000000000000e+00
2.124122142791748047e+00 8.379990458488464355e-01 -6.118482351303100586e-01 1.600000000000000000e+01
2.451199531555175781e+00 9.660474061965942383e-01 -6.082676649093627930e-01 1.700000000000000000e+01
2.845915079116820845e+00 1.121035695075988992e+00 -5.945608019828796387e-01 1.600000000000000000e+01
3.396952629089355025e+00 1.336725592613219993e+00 -5.781818032264709473e-01 1.100000000000000000e+01
4.245491027832031250e+00 1.668920516967772993e+00 -5.601115226745605469e-01 1.100000000000000000e+01
5.542773723602294922e+00 2.177771091461182085e+00 -5.210170149803161621e-01 9.000000000000000000e+00
7.962858676910400391e+00 3.125420808792113814e+00 -4.483098089694976807e-01 1.000000000000000000e+00
1.356435108184813920e+01 5.318542003631591797e+00 -2.543164789676666260e-01 2.000000000000000000e+00
3.752368164062500000e+01 1.470536994934082031e+01 1.079896545410156072e+01 9.000000000000000000e+00
2.130778789520264116e+00 8.316128849983215332e-01 -6.128835082054138184e-01 1.600000000000000000e+01
2.445645570755004883e+00 9.535173773765563965e-01 -6.060181260108947754e-01 1.500000000000000000e+01
2.842687606811522993e+00 1.107746124267577903e+00 -5.930343866348266602e-01 1.400000000000000000e+01
3.392624855041503906e+00 1.320683240890502930e+00 -5.766174197196960449e-01 1.000000000000000000e+01
4.264530181884765625e+00 1.658385157585144043e+00 -5.618176460266113281e-01 1.100000000000000000e+01
5.547004222869873047e+00 2.155997514724731001e+00 -5.206683874130249023e-01 8.000000000000000000e+00
7.992878913879395419e+00 3.103443622589110884e+00 -4.493565261363983154e-01 1.000000000000000000e+00
3.576240539550781250e+01 1.387850379943848012e+01 8.856323242187500000e+00 1.200000000000000000e+01
1.358375358581542969e+01 5.268790721893311435e+00 -2.543164789676666260e-01 2.000000000000000000e+00
3.762881851196289062e+01 1.459525585174561080e+01 1.081449508666992010e+01 9.000000000000000000e+00
2.139074802398682085e+00 8.262582421302795410e-01 -6.144363880157470703e-01 1.600000000000000000e+01
2.450777292251586914e+00 9.456762075424194336e-01 -6.064680218696594238e-01 1.200000000000000000e+01
2.853863954544066939e+00 1.100642323493957964e+00 -5.945608019828796387e-01 1.400000000000000000e+01
3.386154413223267046e+00 1.304571747779845969e+00 -5.747402310371398926e-01 1.100000000000000000e+01
4.253619670867919922e+00 1.637071967124938965e+00 -5.596240162849426270e-01 1.100000000000000000e+01
5.554496288299561435e+00 2.136621713638306108e+00 -5.206683874130249023e-01 9.000000000000000000e+00
7.966376304626464844e+00 3.061196327209473100e+00 -4.472630918025969904e-01 2.000000000000000000e+00
3.561415863037108664e+01 1.367812728881835938e+01 8.807733535766601562e+00 1.200000000000000000e+01
1.364313316345215021e+01 5.237108230590820312e+00 -2.550843656063079834e-01 2.000000000000000000e+00
3.728886032104492188e+01 1.430638599395751953e+01 1.070164966583251953e+01 9.000000000000000000e+00
2.138051509857178178e+00 8.181532621383666992e-01 -6.134011149406433105e-01 1.600000000000000000e+01
2.446455001831055132e+00 9.351889491081237793e-01 -6.046684384346008301e-01 1.300000000000000000e+01
2.860975742340087891e+00 1.093072533607482910e+00 -5.953240394592285156e-01 1.400000000000000000e+01
3.405000448226929155e+00 1.299562335014343040e+00 -5.772431492805480957e-01 1.100000000000000000e+01
3.583151245117188211e+01 1.366839504241943004e+01 4.708787918090820312e+00 2.000000000000000000e+01
4.258741855621337891e+00 1.623700737953186035e+00 -5.596240162849426270e-01 1.100000000000000000e+01
5.568628311157226562e+00 2.121999025344849077e+00 -5.213656425476074219e-01 9.000000000000000000e+00
7.983420372009277344e+00 3.038996219635010210e+00 -4.476817548274993896e-01 2.000000000000000000e+00
1.364082717895507990e+01 5.187113761901854581e+00 -2.547353208065032959e-01 2.000000000000000000e+00
3.744670867919921875e+01 1.423962974548340021e+01 1.073477840423583984e+01 9.000000000000000000e+00
2.139087677001953125e+00 8.100009560585021973e-01 -6.128835082054138184e-01 1.500000000000000000e+01
2.460640668869018999e+00 9.307802915573120117e-01 -6.073678731918334961e-01 1.400000000000000000e+01
3.766292953491210938e+01 1.423914718627930043e+01 2.110185861587523970e+00 2.300000000000000000e+01
2.851918935775756836e+00 1.078219294548034890e+00 -5.926527380943298340e-01 1.300000000000000000e+01
3.418756008148192915e+00 1.291158318519592063e+00 -5.788075327873229980e-01 1.100000000000000000e+01
4.268098354339599609e+00 1.610226511955261008e+00 -5.601115226745605469e-01 1.100000000000000000e+01
5.570408821105957031e+00 2.100439071655272993e+00 -5.208427309989929199e-01 9.000000000000000000e+00
8.005193710327148438e+00 3.015334606170653853e+00 -4.483098089694976807e-01 1.000000000000000000e+00
3.553630447387695312e+01 1.337845897674561080e+01 8.766342163085937500e+00 1.100000000000000000e+01
1.370002555847167969e+01 5.154959678649902344e+00 -2.555032372474669855e-01 2.000000000000000000e+00
3.727081298828125000e+01 1.401660251617431996e+01 1.066955661773681996e+01 9.000000000000000000e+00
2.140233039855957031e+00 8.014778494834899902e-01 -6.123658418655395508e-01 1.800000000000000000e+01
2.473161697387694868e+00 9.251692891120910645e-01 -6.096173524856567383e-01 1.600000000000000000e+01
2.863207340240478960e+00 1.070509433746337891e+00 -5.941792130470275879e-01 1.300000000000000000e+01
3.429016828536986861e+00 1.280692815780640093e+00 -5.797461271286010742e-01 1.000000000000000000e+01
4.281410694122313565e+00 1.597347974777221902e+00 -5.610864758491516113e-01 1.100000000000000000e+01
5.563135147094726562e+00 2.074439525604248047e+00 -5.194482207298278809e-01 9.000000000000000000e+00
8.038651466369628906e+00 2.994339942932128906e+00 -4.495658576488494873e-01 1.000000000000000000e+00
3.558510208129882812e+01 1.324812221527099965e+01 8.766342163085937500e+00 1.100000000000000000e+01
1.378254890441895064e+01 5.128422260284423828e+00 -2.566899955272675116e-01 2.000000000000000000e+00
3.731951522827147727e+01 1.388641738891601918e+01 1.066955661773681996e+01 9.000000000000000000e+00
2.141206026077270952e+00 7.933309674263000488e-01 -6.118482351303100586e-01 1.500000000000000000e+01
2.474548339843750000e+00 9.158542752265930176e-01 -6.091674566268920898e-01 1.600000000000000000e+01
2.872450590133666992e+00 1.062551736831665039e+00 -5.953240394592285156e-01 1.300000000000000000e+01
3.427907705307006836e+00 1.266661405563354048e+00 -5.788075327873229980e-01 9.000000000000000000e+00
4.294409275054931641e+00 1.585142850875854048e+00 -5.620614290237426758e-01 1.100000000000000000e+01
5.603989124298095703e+00 2.067420721054077148e+00 -5.225858092308044434e-01 9.000000000000000000e+00
8.052803039550781250e+00 2.967642784118651900e+00 -4.497752189636229914e-01 2.000000000000000000e+00
3.572256088256835938e+01 1.315750217437743963e+01 8.788837432861328125e+00 1.100000000000000000e+01
1.380036640167235973e+01 5.080281257629395419e+00 -2.566899955272675116e-01 2.000000000000000000e+00
3.727950668334960938e+01 1.371618843078612926e+01 1.064367485046387074e+01 9.000000000000000000e+00
2.151080131530762163e+00 7.888867855072021484e-01 -6.139187812805175781e-01 1.600000000000000000e+01
2.457443952560424805e+00 9.002695679664611816e-01 -6.042185425758361816e-01 1.500000000000000000e+01
3.762242507934570312e+01 1.377529811859131037e+01 2.099718570709228960e+00 2.300000000000000000e+01
2.894394159317017046e+00 1.059770703315735085e+00 -5.991402268409729004e-01 1.300000000000000000e+01
3.428378820419311968e+00 1.253929972648621050e+00 -5.781818032264709473e-01 1.100000000000000000e+01
4.290319919586181641e+00 1.567487239837646040e+00 -5.608426928520202637e-01 1.100000000000000000e+01
5.599584579467773438e+00 2.044725418090819868e+00 -5.215399861335754395e-01 9.000000000000000000e+00
8.073857307434082031e+00 2.945028781890869141e+00 -4.504032433032990057e-01 2.000000000000000000e+00
1.381713771820068004e+01 5.034489631652832031e+00 -2.566899955272675116e-01 2.000000000000000000e+00
3.719354248046875000e+01 1.355204677581786932e+01 1.060692214965819957e+01 9.000000000000000000e+00
2.159268856048583984e+00 7.833498120307922363e-01 -6.154716610908508301e-01 1.500000000000000000e+01
2.467900037765502930e+00 8.943418264389038086e-01 -6.060181260108947754e-01 1.500000000000000000e+01
2.887000322341918945e+00 1.045649409294127974e+00 -5.968505144119262695e-01 1.300000000000000000e+01
3.449452877044678178e+00 1.248003602027893066e+00 -5.809975862503051758e-01 1.000000000000000000e+01
4.295764923095703125e+00 1.552501797676085982e+00 -5.608426928520202637e-01 1.100000000000000000e+01
5.617931365966796875e+00 2.029227972030640093e+00 -5.225858092308044434e-01 9.000000000000000000e+00
8.069059371948242188e+00 2.911405086517333984e+00 -4.495658576488494873e-01 1.000000000000000000e+00
1.389482688903808949e+01 5.007925033569335938e+00 -2.578069567680358887e-01 2.000000000000000000e+00
3.698254776000977273e+01 1.332912063598632990e+01 1.053341770172118963e+01 9.000000000000000000e+00
2.160171747207642046e+00 7.751553058624267578e-01 -6.149540543556213379e-01 1.500000000000000000e+01
2.480179071426392046e+00 8.890095353126525879e-01 -6.082676649093627930e-01 1.400000000000000000e+01
2.870302200317382812e+00 1.028282165527343972e+00 -5.926527380943298340e-01 1.200000000000000000e+01
3.455647945404053178e+00 1.236620664596558061e+00 -5.813104510307312012e-01 1.000000000000000000e+01
4.306766033172607422e+00 1.539501786231995073e+00 -5.615739226341247559e-01 1.200000000000000000e+01
5.606218338012695312e+00 2.002902269363402876e+00 -5.208427309989929199e-01 9.000000000000000000e+00
8.109269142150878906e+00 2.893961668014525923e+00 -4.512406289577484131e-01 1.000000000000000000e+00
3.665642547607421875e+01 1.307439613342284979e+01 8.984994888305664062e+00 1.200000000000000000e+01
1.390468883514403942e+01 4.956706523895263672e+00 -2.576673328876494806e-01 2.000000000000000000e+00
2.153761386871337891e+00 7.643795013427734375e-01 -6.123658418655395508e-01 1.500000000000000000e+01
2.490614175796508789e+00 8.829512596130371094e-01 -6.100672483444213867e-01 1.400000000000000000e+01
2.899781465530395952e+00 1.027436137199402078e+00 -5.979954004287719727e-01 1.300000000000000000e+01
3.463667869567871094e+00 1.225868821144104004e+00 -5.819361805915832520e-01 9.000000000000000000e+00
4.319600105285645419e+00 1.527105689048767090e+00 -5.625488758087158203e-01 1.100000000000000000e+01
5.620689868927001953e+00 1.985975623130797896e+00 -5.215399861335754395e-01 9.000000000000000000e+00
8.126855850219726562e+00 2.868296384811400923e+00 -4.516592919826508123e-01 1.000000000000000000e+00
3.667243576049804688e+01 1.293598937988281072e+01 8.977796554565429688e+00 1.200000000000000000e+01
1.392945003509520951e+01 4.910799503326416016e+00 -2.578069567680358887e-01 2.000000000000000000e+00
2.158239364624022993e+00 7.574965953826904297e-01 -6.128835082054138184e-01 1.500000000000000000e+01
2.488164186477661133e+00 8.723178505897521973e-01 -6.087175607681274414e-01 1.500000000000000000e+01
2.897791862487792969e+00 1.015360116958617942e+00 -5.968505144119262695e-01 1.300000000000000000e+01
3.453010082244873047e+00 1.208550453186034934e+00 -5.794332623481750488e-01 9.000000000000000000e+00
4.334273338317871094e+00 1.515293717384337935e+00 -5.637676119804382324e-01 1.100000000000000000e+01
5.646396636962890625e+00 1.972915649414062944e+00 -5.232830643653869629e-01 6.000000000000000000e+00
8.140589714050292969e+00 2.841227293014525923e+00 -4.518686532974243164e-01 1.000000000000000000e+00
3.652232360839843750e+01 1.273986530303955078e+01 8.930107116699218750e+00 1.200000000000000000e+01
1.395405960083007990e+01 4.864779949188232422e+00 -2.579465806484221857e-01 2.000000000000000000e+00
2.168170452117919922e+00 7.524919509887695312e-01 -6.149540543556213379e-01 1.600000000000000000e+01
2.485670089721680132e+00 8.617122769355773926e-01 -6.073678731918334961e-01 1.300000000000000000e+01
2.912448883056641069e+00 1.009095072746277078e+00 -5.991402268409729004e-01 1.300000000000000000e+01
3.460941314697266069e+00 1.197781920433043990e+00 -5.800589919090270996e-01 9.000000000000000000e+00
4.330155849456787109e+00 1.496912240982056108e+00 -5.625488758087158203e-01 1.100000000000000000e+01
5.668314456939697266e+00 1.958399176597594993e+00 -5.246775746345520020e-01 3.000000000000000000e+00
3.570434188842772727e+01 1.232885265350341975e+01 7.342329978942871094e+00 6.200000000000000000e+01
8.161786079406738281e+00 2.816703319549560991e+00 -4.524966776371002197e-01 1.000000000000000000e+00
1.399742317199707031e+01 4.825165271759033203e+00 -2.584352493286132812e-01 2.000000000000000000e+00
2.176265716552733931e+00 7.468001246452331543e-01 -6.165069937705993652e-01 1.500000000000000000e+01
2.486819505691527876e+00 8.523985743522644043e-01 -6.069179177284240723e-01 1.200000000000000000e+01
2.904809713363647017e+00 9.951050877571105957e-01 -5.968505144119262695e-01 1.300000000000000000e+01
3.483791112899779829e+00 1.192088961601257102e+00 -5.831876993179321289e-01 9.000000000000000000e+00
4.333476066589354581e+00 1.481145977973937988e+00 -5.623051524162292480e-01 1.100000000000000000e+01
5.678886413574218750e+00 1.939889192581176980e+00 -5.250262022018432617e-01 6.000000000000000000e+00
8.152665138244628906e+00 2.781746387481689009e+00 -4.514499604701995850e-01 1.000000000000000000e+00
3.925531005859375000e+01 1.338653755187987926e+01 9.575266838073730469e+00 1.200000000000000000e+01
1.404446506500243963e+01 4.786597251892089844e+00 -2.589937150478363037e-01 2.000000000000000000e+00
2.175200462341309038e+00 7.379577159881591797e-01 -6.154716610908508301e-01 1.600000000000000000e+01
2.489779710769652876e+00 8.437127470970153809e-01 -6.069179177284240723e-01 1.300000000000000000e+01
2.902687072753905806e+00 9.830700755119323730e-01 -5.957056879997253418e-01 1.300000000000000000e+01
3.484188556671143022e+00 1.178655028343200906e+00 -5.825619697570800781e-01 9.000000000000000000e+00
4.338619709014892578e+00 1.466010332107543945e+00 -5.623051524162292480e-01 1.100000000000000000e+01
5.670522212982177734e+00 1.914954662322998047e+00 -5.236316919326782227e-01 9.000000000000000000e+00
8.188820838928222656e+00 2.762208461761475053e+00 -4.529153704643250067e-01 2.000000000000000000e+00
1.411035919189452947e+01 4.754144191741943359e+00 -2.599012255668640137e-01 2.000000000000000000e+00
2.162983894348144975e+00 7.258237600326538086e-01 -6.113305687904357910e-01 1.600000000000000000e+01
2.505497932434082031e+00 8.397868871688842773e-01 -6.100672483444213867e-01 1.300000000000000000e+01
2.909654140472412109e+00 9.746862053871154785e-01 -5.964689254760742188e-01 1.300000000000000000e+01
3.491824626922606978e+00 1.168348193168639915e+00 -5.831876993179321289e-01 9.000000000000000000e+00
4.354753971099854404e+00 1.455390214920043945e+00 -5.637676119804382324e-01 1.100000000000000000e+01
5.657943725585938388e+00 1.889827847480773926e+00 -5.218886137008666992e-01 9.000000000000000000e+00
8.205513954162597656e+00 2.737566709518433061e+00 -4.533340632915496826e-01 1.000000000000000000e+00
3.890922927856445312e+01 1.297355461120604936e+01 9.469089508056640625e+00 1.200000000000000000e+01
1.410707569122313920e+01 4.701004505157470703e+00 -2.595521807670593262e-01 2.000000000000000000e+00
2.176505804061890093e+00 7.219182252883911133e-01 -6.144363880157470703e-01 1.600000000000000000e+01
2.502864599227904829e+00 8.291973471641540527e-01 -6.087175607681274414e-01 1.200000000000000000e+01
2.916766166687012163e+00 9.657578468322753906e-01 -5.972321629524230957e-01 1.300000000000000000e+01
3.495881557464600053e+00 1.156152248382567915e+00 -5.831876993179321289e-01 9.000000000000000000e+00
3.810889053344727273e+01 1.259593296051025035e+01 4.928152561187744141e+00 2.200000000000000000e+01
4.359807491302490234e+00 1.440180420875549094e+00 -5.637676119804382324e-01 1.100000000000000000e+01
5.675857543945313388e+00 1.873814105987549050e+00 -5.229344367980957031e-01 1.000000000000000000e+01
8.207432746887207031e+00 2.706405401229857954e+00 -4.529153704643250067e-01 2.000000000000000000e+00
3.897278594970703125e+01 1.284375667572020951e+01 9.473588943481445312e+00 1.200000000000000000e+01
1.418797588348389027e+01 4.673002243041992188e+00 -2.607389390468596857e-01 2.000000000000000000e+00
2.179012537002563032e+00 7.143163681030273438e-01 -6.144363880157470703e-01 1.500000000000000000e+01
2.494631767272949219e+00 8.168172836303710938e-01 -6.060181260108947754e-01 1.200000000000000000e+01
2.920119524002075195e+00 9.555705785751342773e-01 -5.972321629524230957e-01 1.200000000000000000e+01
3.496140718460083008e+00 1.142714977264404075e+00 -5.825619697570800781e-01 9.000000000000000000e+00
4.372356414794921875e+00 1.427417278289794922e+00 -5.647425651550292969e-01 1.100000000000000000e+01
5.678575515747070312e+00 1.852754235267638938e+00 -5.225858092308044434e-01 9.000000000000000000e+00
8.224425315856933594e+00 2.680215120315552202e+00 -4.533340632915496826e-01 2.000000000000000000e+00
3.921379470825195312e+01 1.277160739898681996e+01 9.521278381347656250e+00 1.200000000000000000e+01
1.424223136901854936e+01 4.635827541351318359e+00 -2.614370584487915039e-01 2.000000000000000000e+00
3.533645629882813211e+01 1.149514961242675959e+01 9.956768989562988281e+00 8.000000000000000000e+00
2.188843965530395952e+00 7.090873718261718750e-01 -6.165069937705993652e-01 1.500000000000000000e+01
2.504884243011475053e+00 8.105041384696960449e-01 -6.078177690505981445e-01 1.200000000000000000e+01
2.930909395217895952e+00 9.477878808975219727e-01 -5.987586379051208496e-01 1.300000000000000000e+01
3.507627248764038086e+00 1.132932782173156960e+00 -5.838134288787841797e-01 9.000000000000000000e+00
3.649570083618164062e+01 1.178075599670409979e+01 4.708787918090820312e+00 2.000000000000000000e+01
4.369755744934082031e+00 1.409708380699157937e+00 -5.637676119804382324e-01 1.100000000000000000e+01
5.721037387847900391e+00 1.844537258148192915e+00 -5.258977413177490234e-01 8.000000000000000000e+00
8.245138168334960938e+00 2.655163288116455078e+00 -4.539620876312255859e-01 2.000000000000000000e+00
1.425832653045653942e+01 4.586084365844726562e+00 -2.614370584487915039e-01 2.000000000000000000e+00
3.544625473022460938e+01 1.139419746398925959e+01 9.976438522338867188e+00 8.000000000000000000e+00
2.194985628128052202e+00 7.026204466819763184e-01 -6.175422668457031250e-01 1.600000000000000000e+01
2.511410474777222124e+00 8.029424548149108887e-01 -6.087175607681274414e-01 1.200000000000000000e+01
2.919239044189453125e+00 9.327709674835205078e-01 -5.957056879997253418e-01 1.300000000000000000e+01
3.513442516326903853e+00 1.121282577514647993e+00 -5.841262936592102051e-01 1.000000000000000000e+01
3.661225128173828125e+01 1.167741870880126953e+01 4.718537330627441406e+00 2.000000000000000000e+01
4.374650001525878906e+00 1.394446492195128950e+00 -5.637676119804382324e-01 1.100000000000000000e+01
5.708457469940186435e+00 1.818508267402648926e+00 -5.241546630859375000e-01 8.000000000000000000e+00
3.599290466308593750e+01 1.145911979675292969e+01 7.342329978942871094e+00 6.200000000000000000e+01
8.284808158874511719e+00 2.636055469512939009e+00 -4.556368291378021240e-01 2.000000000000000000e+00
1.428187179565430043e+01 4.538708209991455078e+00 -2.615766823291779120e-01 2.000000000000000000e+00
3.477141952514647727e+01 1.104350471496582031e+01 9.775595664978027344e+00 7.000000000000000000e+00
2.184531450271606001e+00 6.908765435218811035e-01 -6.139187812805175781e-01 1.600000000000000000e+01
2.527205705642700195e+00 7.982798814773559570e-01 -6.118668913841247559e-01 1.400000000000000000e+01
2.928093910217285156e+00 9.243482947349548340e-01 -5.968505144119262695e-01 1.300000000000000000e+01
3.515451192855834961e+00 1.108417510986327903e+00 -5.838134288787841797e-01 9.000000000000000000e+00
3.676638793945313211e+01 1.158534336090088068e+01 4.733161449432373047e+00 2.000000000000000000e+01
4.388957977294921875e+00 1.382148981094359907e+00 -5.649862885475158691e-01 1.100000000000000000e+01
5.709068775177001953e+00 1.796776652336121050e+00 -5.236316919326782227e-01 6.000000000000000000e+00
8.301580429077148438e+00 2.609515666961669922e+00 -4.560555219650269110e-01 1.000000000000000000e+00
1.434723186492919922e+01 4.504401206970214844e+00 -2.624841928482056219e-01 2.000000000000000000e+00
3.475814437866210938e+01 1.090586853027343928e+01 9.761101722717285156e+00 7.000000000000000000e+00
2.192461490631103960e+00 6.849752068519592285e-01 -6.154716610908508301e-01 1.500000000000000000e+01
2.518815040588378906e+00 7.859705686569213867e-01 -6.091674566268920898e-01 1.200000000000000000e+01
2.936925411224364790e+00 9.158751368522644043e-01 -5.979954004287719727e-01 1.200000000000000000e+01
3.513640880584716797e+00 1.094377279281615989e+00 -5.828748345375061035e-01 1.000000000000000000e+01
4.395651340484619141e+00 1.367409825325011985e+00 -5.652300119400024414e-01 1.100000000000000000e+01
5.722916126251220703e+00 1.779203295707703081e+00 -5.243289470672607422e-01 9.000000000000000000e+00
8.314453125000000000e+00 2.581706523895264116e+00 -4.562648534774780273e-01 2.000000000000000000e+00
3.886529541015625000e+01 1.206055831909180043e+01 9.394855499267578125e+00 1.200000000000000000e+01
1.436286830902099965e+01 4.454292774200438565e+00 -2.624841928482056219e-01 2.000000000000000000e+00
2.200376987457274947e+00 6.790268421173095703e-01 -6.170246005058288574e-01 1.500000000000000000e+01
2.521543264389038086e+00 7.771734595298767090e-01 -6.091674566268920898e-01 1.100000000000000000e+01
2.945733308792113814e+00 9.073515534400939941e-01 -5.991402268409729004e-01 1.300000000000000000e+01
3.528767824172974077e+00 1.085590720176696999e+00 -5.847520232200622559e-01 1.000000000000000000e+01
4.402295112609863281e+00 1.352640867233275923e+00 -5.654737353324890137e-01 1.200000000000000000e+01
5.736710548400878906e+00 1.761555075645446999e+00 -5.250262022018432617e-01 9.000000000000000000e+00
8.308138847351074219e+00 2.547982931137084961e+00 -4.554274976253510077e-01 1.000000000000000000e+00
