1.068632006645203081e+00 -4.730344295501708984e+00 -7.680932283401489258e-01 9.000000000000000000e+00
3.483614921569824219e-01 -1.543289780616760032e+00 1.942597329616546908e-01 6.600000000000000000e+01
1.513349056243896040e+00 -6.709798812866210938e+00 -8.445545434951782227e-01 1.000000000000000000e+00
3.416076898574829102e-01 -1.514600276947021040e+00 2.459149807691574097e-01 8.500000000000000000e+01
3.363982141017913818e-01 -1.493932247161865012e+00 2.976620197296143133e-01 1.000000000000000000e+02
3.329661488533020020e-01 -1.481102824211121050e+00 3.504737317562103271e-01 8.100000000000000000e+01
3.703325986862183172e-01 -1.648661255836487038e+00 -2.949456684291363109e-02 6.600000000000000000e+01
3.332114517688751221e-01 -1.483403801918030007e+00 4.073811769485474188e-01 9.500000000000000000e+01
3.791067898273468018e-01 -1.698811531066894975e+00 -4.663919210433959961e-01 7.200000000000000000e+01
3.625200688838958740e-01 -1.625819683074950950e+00 2.907570824027061115e-02 7.700000000000000000e+01
3.780087828636168878e-01 -1.696677207946776900e+00 -4.013126790523529053e-01 6.000000000000000000e+01
3.523977994918823242e-01 -1.583024859428405984e+00 8.499359339475631714e-02 8.800000000000000000e+01
3.788194656372069757e-01 -1.701715111732482910e+00 -3.388767838478087824e-01 3.200000000000000000e+01
3.439089357852935791e-01 -1.546163916587830034e+00 1.385776251554489136e-01 8.400000000000000000e+01
1.051256418228148970e+00 -4.730189323425292969e+00 -7.674674987792968750e-01 4.000000000000000000e+00
3.434026241302490234e-01 -1.546434283256530984e+00 1.945034712553024014e-01 6.700000000000000000e+01
1.492498278617859109e+00 -6.726668357849121094e+00 -8.460170030593872070e-01 1.000000000000000000e+00
3.351990282535552979e-01 -1.511985063552856001e+00 2.452892363071441928e-01 8.700000000000000000e+01
3.324551284313201904e-01 -1.500847816467284934e+00 2.988068759441375732e-01 1.000000000000000000e+02
3.277941048145294189e-01 -1.482256054878235085e+00 3.504737317562103271e-01 8.300000000000000000e+01
3.637125492095947266e-01 -1.646038651466370073e+00 -2.942475676536560059e-02 8.500000000000000000e+01
3.261063098907471258e-01 -1.477069377899169922e+00 4.053106307983397882e-01 9.500000000000000000e+01
3.740028738975524902e-01 -1.703898429870605025e+00 -4.674271941184998114e-01 7.200000000000000000e+01
3.564142882823944092e-01 -1.625121951103210005e+00 2.904080413281917919e-02 7.400000000000000000e+01
3.712497055530548096e-01 -1.694179177284240945e+00 -4.004128873348236084e-01 6.200000000000000000e+01
3.485785722732543945e-01 -1.592049479484558105e+00 8.541227877140045166e-02 9.600000000000000000e+01
3.711974322795867920e-01 -1.695355772972106934e+00 -3.373503088951110840e-01 4.200000000000000000e+01
3.385097384452819824e-01 -1.547354936599731001e+00 1.385776251554489136e-01 8.600000000000000000e+01
3.354610800743103027e-01 -1.535987257957458052e+00 1.930410414934158048e-01 6.900000000000000000e+01
1.469008684158324973e+00 -6.731837272644042969e+00 -8.460170030593872070e-01 1.000000000000000000e+00
3.310255408287047785e-01 -1.516948223114013894e+00 2.459149807691574097e-01 9.200000000000000000e+01
3.242888748645781916e-01 -1.488571286201477051e+00 2.961355745792388916e-01 1.000000000000000000e+02
3.572531640529633123e-01 -1.641263246536255105e+00 -8.802907913923263550e-02 1.000000000000000000e+01
3.259312212467194159e-01 -1.498625040054321067e+00 3.540729582309722900e-01 8.000000000000000000e+01
3.609369993209838867e-01 -1.660976886749268022e+00 -2.966909110546112061e-02 8.300000000000000000e+01
3.240779638290405273e-01 -1.491357207298279031e+00 4.089340865612030029e-01 9.000000000000000000e+01
3.704984188079833984e-01 -1.716523647308350053e+00 -4.705330133438109796e-01 6.900000000000000000e+01
3.486315906047821045e-01 -1.616582393646240012e+00 2.886627987027167927e-02 6.900000000000000000e+01
3.636917173862457275e-01 -1.687844753265381081e+00 -3.986132740974426270e-01 6.200000000000000000e+01
3.421784341335297186e-01 -1.589351534843445046e+00 8.520293980836868286e-02 8.800000000000000000e+01
3.636244535446166992e-01 -1.688964009284972922e+00 -3.358238339424132746e-01 4.500000000000000000e+01
3.347823917865753174e-01 -1.556318521499634011e+00 1.392748802900314053e-01 9.000000000000000000e+01
3.288470804691315252e-01 -1.531326413154602051e+00 1.923098266124725064e-01 6.500000000000000000e+01
1.453830242156981978e+00 -6.775742530822753906e+00 -8.508917689323425293e-01 1.000000000000000000e+00
3.254634439945220947e-01 -1.518151283264159934e+00 2.459149807691574097e-01 9.400000000000000000e+01
3.190908133983612061e-01 -1.489694237709044966e+00 2.961355745792388916e-01 1.000000000000000000e+02
3.431622982025145929e-01 -1.603439688682555930e+00 -8.593563735485076904e-02 4.800000000000000000e+01
3.198830783367156982e-01 -1.495942354202270952e+00 3.531731665134429932e-01 8.500000000000000000e+01
3.505410254001616877e-01 -1.640715479850769043e+00 -2.928513847291469921e-02 7.300000000000000000e+01
3.198195993900299072e-01 -1.498202919960021973e+00 4.104869961738585871e-01 9.200000000000000000e+01
3.656068444252014160e-01 -1.721522331237792969e+00 -4.715682864189147949e-01 6.600000000000000000e+01
3.424387276172637939e-01 -1.613817334175110085e+00 2.879646979272365917e-02 6.300000000000000000e+01
3.589009642601013184e-01 -1.692854166030884011e+00 -3.995130658149719238e-01 6.000000000000000000e+01
3.356644213199614923e-01 -1.584615826606750044e+00 8.488892018795013428e-02 8.000000000000000000e+01
3.547669053077697754e-01 -1.674795508384705034e+00 -3.327708840370178223e-01 4.800000000000000000e+01
3.345701098442078192e-01 -1.580810666084289995e+00 1.413666158914566040e-01 9.400000000000000000e+01
3.588212728500366211e-01 -1.696856975555419922e+00 -2.746989130973815918e-01 5.000000000000000000e+00
3.241775631904602051e-01 -1.534350633621216042e+00 1.925535649061203003e-01 6.200000000000000000e+01
3.215084373950958252e-01 -1.523031830787658913e+00 2.465407103300094882e-01 1.000000000000000000e+02
3.416900038719177246e-01 -1.620033860206604004e+00 -1.448528468608855924e-01 3.000000000000000000e+00
3.153635561466217041e-01 -1.496507287025452104e+00 2.972804009914398193e-01 1.000000000000000000e+02
3.366087079048156738e-01 -1.598705530166625977e+00 -8.562162518501281738e-02 5.700000000000000000e+01
3.129147291183472235e-01 -1.487459897994994895e+00 3.509236574172974188e-01 8.900000000000000000e+01
3.442756533622742254e-01 -1.637955069541930930e+00 -2.921532839536666870e-02 7.800000000000000000e+01
3.155086636543273926e-01 -1.501090764999390093e+00 4.110046327114105225e-01 8.800000000000000000e+01
3.584111928939818781e-01 -1.717114686965941939e+00 -4.700153768062592108e-01 6.400000000000000000e+01
3.351703882217407227e-01 -1.607172489166259988e+00 2.865685150027275085e-02 6.400000000000000000e+01
3.525920808315277100e-01 -1.692188978195189986e+00 -3.990631699562072754e-01 5.800000000000000000e+01
3.301310241222382147e-01 -1.585777878761291948e+00 8.488892018795013428e-02 8.000000000000000000e+01
3.453173935413361151e-01 -1.658725261688231978e+00 -3.293363153934478760e-01 5.000000000000000000e+01
3.306729495525360107e-01 -1.589771509170532005e+00 1.420638561248779019e-01 1.000000000000000000e+02
3.520920872688292902e-01 -1.694231152534485085e+00 -2.740731835365294855e-01 2.000000000000000000e+01
3.200304210186005194e-01 -1.541303873062134011e+00 1.932847797870635986e-01 6.500000000000000000e+01
3.159240782260894775e-01 -1.524199962615967019e+00 2.465407103300094882e-01 1.000000000000000000e+02
3.360329270362854004e-01 -1.621216654777527078e+00 -1.448528468608855924e-01 3.800000000000000000e+01
3.133228421211243231e-01 -1.512978792190551980e+00 3.003333508968353271e-01 1.000000000000000000e+02
3.322401642799376886e-01 -1.605738282203674094e+00 -8.593563735485076904e-02 6.600000000000000000e+01
3.104822039604187012e-01 -1.501901865005492942e+00 3.540729582309722900e-01 8.700000000000000000e+01
3.357246220111846924e-01 -1.625438332557678001e+00 -2.897099405527114868e-02 6.600000000000000000e+01
3.084430396556854248e-01 -1.494669079780579057e+00 4.089340865612030029e-01 8.600000000000000000e+01
3.511612415313721258e-01 -1.710724234580994096e+00 -4.679448306560515802e-01 7.300000000000000000e+01
3.278301954269409180e-01 -1.598480582237244096e+00 2.848232723772526134e-02 6.800000000000000000e+01
3.461962938308715820e-01 -1.689530730247498003e+00 -3.981633782386779785e-01 5.300000000000000000e+01
3.248705863952637274e-01 -1.586863875389098899e+00 8.488892018795013428e-02 7.700000000000000000e+01
3.386336863040924072e-01 -1.654091119766234907e+00 -3.281914591789246161e-01 5.300000000000000000e+01
3.226044178009033203e-01 -1.577195405960083008e+00 1.408436745405196866e-01 9.800000000000000000e+01
3.401436209678649902e-01 -1.664423346519469993e+00 -2.690672874450684149e-01 3.300000000000000000e+01
3.145203888416289728e-01 -1.540411710739135964e+00 1.930410414934158048e-01 6.900000000000000000e+01
3.131083250045775812e-01 -1.534862518310547097e+00 2.481050640344620029e-01 7.900000000000000000e+01
3.314507305622100830e-01 -1.626226544380187988e+00 -1.452014744281769076e-01 7.700000000000000000e+01
3.075203895568848211e-01 -1.510161876678467019e+00 2.995701134204865057e-01 1.000000000000000000e+02
3.277098834514617920e-01 -1.610745549201965110e+00 -8.614498376846313477e-02 7.700000000000000000e+01
3.062763810157775879e-01 -1.506742596626281960e+00 3.549727499485015869e-01 8.500000000000000000e+01
3.279446661472321112e-01 -1.614784479141234907e+00 -2.876156568527222027e-02 5.900000000000000000e+01
3.014389276504517157e-01 -1.484271526336669922e+00 4.058282673358917236e-01 8.400000000000000000e+01
3.467149436473845880e-01 -1.719514489173888938e+00 -4.700153768062592108e-01 7.000000000000000000e+01
3.190891742706298828e-01 -1.583932638168334961e+00 2.820308879017829895e-02 7.100000000000000000e+01
3.395275771617888849e-01 -1.686908006668091042e+00 -3.972635567188262939e-01 5.300000000000000000e+01
3.205106556415557861e-01 -1.593862414360045943e+00 8.520293980836868286e-02 7.300000000000000000e+01
3.340188860893250067e-01 -1.661037325859070046e+00 -3.293363153934478760e-01 5.800000000000000000e+01
3.163121044635773260e-01 -1.574405193328856978e+00 1.404950618743895929e-01 9.800000000000000000e+01
3.288890421390532892e-01 -1.638486146926880105e+00 -2.646871209144591730e-01 3.800000000000000000e+01
3.095317482948303223e-01 -1.543446540832519975e+00 1.932847797870635986e-01 6.600000000000000000e+01
3.318818211555480957e-01 -1.656392097473144975e+00 -2.074216157197951993e-01 1.000000000000000000e+00
3.098071217536926270e-01 -1.547621488571166992e+00 2.499822825193404874e-01 6.100000000000000000e+01
3.222523927688599188e-01 -1.609791040420532005e+00 -1.436326652765274048e-01 6.800000000000000000e+01
3.003219366073607843e-01 -1.501600503921509011e+00 2.976620197296143133e-01 1.000000000000000000e+02
3.201285600662230890e-01 -1.602087020874022993e+00 -8.562162518501281738e-02 8.200000000000000000e+01
3.033041059970856268e-01 -1.519268631935120073e+00 3.576721847057343084e-01 8.000000000000000000e+01
3.223060071468353271e-01 -1.615919470787047896e+00 -2.876156568527222027e-02 5.900000000000000000e+01
2.982620596885681152e-01 -1.496734023094177024e+00 4.089340865612030029e-01 8.600000000000000000e+01
3.400353789329528809e-01 -1.718878626823425071e+00 -4.694977402687072754e-01 6.800000000000000000e+01
3.125061690807343084e-01 -1.581168055534363015e+00 2.813327871263026844e-02 7.200000000000000000e+01
3.303223848342896063e-01 -1.672846555709839089e+00 -3.936643302440642755e-01 5.800000000000000000e+01
3.138935565948485773e-01 -1.591107487678528054e+00 8.499359339475631714e-02 7.300000000000000000e+01
3.283086419105529785e-01 -1.664176583290100098e+00 -3.297179341316223145e-01 6.200000000000000000e+01
3.105395138263701837e-01 -1.575554013252258079e+00 1.404950618743895929e-01 1.000000000000000000e+02
3.221181631088256836e-01 -1.635804176330565962e+00 -2.640613913536071777e-01 4.200000000000000000e+01
3.019566833972930908e-01 -1.534831881523132102e+00 1.920660883188247958e-01 6.300000000000000000e+01
3.261914551258087158e-01 -1.659545183181762917e+00 -2.076653540134429932e-01 2.600000000000000000e+01
3.009742200374603271e-01 -1.531248927116394043e+00 2.471664547920227051e-01 7.700000000000000000e+01
3.148143589496613104e-01 -1.603141069412231001e+00 -1.429354250431061069e-01 7.700000000000000000e+01
2.948162853717803955e-01 -1.502691149711609109e+00 2.976620197296143133e-01 1.000000000000000000e+02
3.104127347469329834e-01 -1.583649873733520952e+00 -8.457490801811218262e-02 8.300000000000000000e+01
2.984826862812042236e-01 -1.524194955825806108e+00 3.585719764232634943e-01 8.700000000000000000e+01
3.140774667263031006e-01 -1.605314970016479048e+00 -2.855213731527328144e-02 6.700000000000000000e+01
2.930356860160828192e-01 -1.497766017913817915e+00 4.089340865612030029e-01 9.000000000000000000e+01
3.362430036067963202e-01 -1.731433629989624023e+00 -4.726035892963408869e-01 6.100000000000000000e+01
3.081275820732117254e-01 -1.588138580322266069e+00 2.823799289762974132e-02 7.800000000000000000e+01
3.255935609340667725e-01 -1.679728746414185014e+00 -3.950140476226807196e-01 6.700000000000000000e+01
3.060593008995056152e-01 -1.580428481101989968e+00 8.436556160449981689e-02 7.500000000000000000e+01
3.213777840137482245e-01 -1.659530043601989968e+00 -3.285730779170989990e-01 7.000000000000000000e+01
3.057948052883148193e-01 -1.580540657043457031e+00 1.408436745405196866e-01 1.000000000000000000e+02
3.152815103530883789e-01 -1.631100177764893022e+00 -2.631227672100067139e-01 5.100000000000000000e+01
2.981028556823729914e-01 -1.543672800064086914e+00 1.930410414934158048e-01 6.300000000000000000e+01
3.162599802017211914e-01 -1.639233112335205078e+00 -2.049842327833175937e-01 4.600000000000000000e+01
3.001178801059722900e-01 -1.555565476417541948e+00 2.509208917617797852e-01 4.800000000000000000e+01
3.133644461631774902e-01 -1.625750422477721946e+00 -1.448528468608855924e-01 7.600000000000000000e+01
2.914253175258635919e-01 -1.513350248336791992e+00 2.995701134204865057e-01 1.000000000000000000e+02
3.075241744518280029e-01 -1.598452806472778098e+00 -8.530760556459426880e-02 7.500000000000000000e+01
2.909534573554993231e-01 -1.513745307922363059e+00 3.558725714683533270e-01 8.000000000000000000e+01
3.058322370052338202e-01 -1.592654824256896973e+00 -2.830780297517776142e-02 6.300000000000000000e+01
2.885343432426453192e-01 -1.502574086189270020e+00 4.099693596363068182e-01 8.000000000000000000e+01
3.298354744911193848e-01 -1.730699062347412109e+00 -4.720859527587891180e-01 5.200000000000000000e+01
3.025820851325988770e-01 -1.589204430580138938e+00 2.823799289762974132e-02 7.800000000000000000e+01
3.208206892013549805e-01 -1.686598300933837891e+00 -3.963637650012969971e-01 6.500000000000000000e+01
3.001678287982941229e-01 -1.579524993896483931e+00 8.426088839769363403e-02 7.700000000000000000e+01
3.148499131202697754e-01 -1.656784296035767046e+00 -3.278098404407501221e-01 7.000000000000000000e+01
2.995325922966002863e-01 -1.577683568000793013e+00 1.404950618743895929e-01 9.800000000000000000e+01
3.088497519493103027e-01 -1.628309249877929910e+00 -2.624970376491547186e-01 5.700000000000000000e+01
2.960388958454132080e-01 -1.562257409095763938e+00 1.952346861362456998e-01 6.600000000000000000e+01
3.131208121776580811e-01 -1.653980135917664018e+00 -2.066904008388519010e-01 6.200000000000000000e+01
2.881737053394318182e-01 -1.523658633232116921e+00 2.456021159887314120e-01 2.900000000000000000e+01
3.047255277633666992e-01 -1.611172914505005105e+00 -1.434583514928818027e-01 7.700000000000000000e+01
2.875990271568297785e-01 -1.522074818611145020e+00 3.010965883731842041e-01 1.000000000000000000e+02
3.004607260227202814e-01 -1.591666221618651900e+00 -8.488892018795013428e-02 7.900000000000000000e+01
2.835008203983306885e-01 -1.503261804580688032e+00 3.531731665134429932e-01 7.000000000000000000e+01
2.976792156696320135e-01 -1.579956769943237083e+00 -2.806346863508224140e-02 6.100000000000000000e+01
2.832876145839691162e-01 -1.503572106361388938e+00 4.099693596363068182e-01 7.600000000000000000e+01
3.202418386936187744e-01 -1.712850451469420943e+00 -4.669095575809478760e-01 5.300000000000000000e+01
2.948299050331115723e-01 -1.578456759452820046e+00 2.802856452763080944e-02 8.200000000000000000e+01
3.167187571525573730e-01 -1.697286248207092063e+00 -3.986132740974426270e-01 6.000000000000000000e+01
2.953844666481018066e-01 -1.584490060806273970e+00 8.447023481130599976e-02 8.000000000000000000e+01
3.097843527793884277e-01 -1.661733269691467063e+00 -3.285730779170989990e-01 7.200000000000000000e+01
2.911052703857421875e-01 -1.563049793243407981e+00 1.391005665063858032e-01 8.900000000000000000e+01
3.042480349540709894e-01 -1.635203599929810014e+00 -2.634356319904326837e-01 6.100000000000000000e+01
2.909465730190277100e-01 -1.565232992172240989e+00 1.954784244298934937e-01 7.700000000000000000e+01
3.008215725421906073e-01 -1.619932055473328081e+00 -2.023031115531921109e-01 5.900000000000000000e+01
2.814120948314666748e-01 -1.516886234283447044e+00 2.443506270647048950e-01 4.700000000000000000e+01
2.969190776348114014e-01 -1.600472927093506081e+00 -1.424124836921691895e-01 8.000000000000000000e+01
2.797798216342926025e-01 -1.509556770324707031e+00 2.984252572059630793e-01 9.400000000000000000e+01
2.963574826717377264e-01 -1.600560784339905007e+00 -8.530760556459426880e-02 7.700000000000000000e+01
2.778972685337067206e-01 -1.502326011657715066e+00 3.527232408523560125e-01 6.300000000000000000e+01
2.925257086753845215e-01 -1.582952737808227983e+00 -2.809837460517882954e-02 6.500000000000000000e+01
2.774241268634796143e-01 -1.502700567245482954e+00 4.094517230987548828e-01 7.500000000000000000e+01
3.170012235641478937e-01 -1.727203726768494096e+00 -4.705330133438109796e-01 5.100000000000000000e+01
2.874301075935363770e-01 -1.567624330520630105e+00 2.781913615763187062e-02 8.600000000000000000e+01
3.121419548988341730e-01 -1.704077720642090066e+00 -3.999629616737365723e-01 5.800000000000000000e+01
2.904880046844481867e-01 -1.587425470352173074e+00 8.457490801811218262e-02 7.500000000000000000e+01
3.046255409717559814e-01 -1.664682626724242942e+00 -3.289546966552733820e-01 6.800000000000000000e+01
2.869952917098999023e-01 -1.569886326789855957e+00 1.396234929561614990e-01 9.200000000000000000e+01
2.952748537063599188e-01 -1.616771221160888894e+00 -2.603069543838500977e-01 6.300000000000000000e+01
2.846855819225310724e-01 -1.560330629348755105e+00 1.947472095489501953e-01 7.900000000000000000e+01
2.950920760631560724e-01 -1.618967771530150923e+00 -2.020593732595444003e-01 6.800000000000000000e+01
2.781497836112976074e-01 -1.527528285980225053e+00 2.459149807691574097e-01 6.700000000000000000e+01
2.891115844249724787e-01 -1.587727665901184082e+00 -1.411923021078110019e-01 8.500000000000000000e+01
2.747724056243895929e-01 -1.510476231575011985e+00 2.984252572059630793e-01 9.000000000000000000e+01
2.896197438240051270e-01 -1.593674421310425027e+00 -8.488892018795013428e-02 7.700000000000000000e+01
2.774392068386077881e-01 -1.528165459632873979e+00 3.585719764232634943e-01 6.000000000000000000e+01
2.872748374938964844e-01 -1.583914041519165039e+00 -2.809837460517882954e-02 7.100000000000000000e+01
2.737361490726470947e-01 -1.509267330169677956e+00 4.110046327114105225e-01 7.000000000000000000e+01
3.157596290111541748e-01 -1.754918336868285911e+00 -4.777799546718596857e-01 4.400000000000000000e+01
2.819563150405883789e-01 -1.568618059158324973e+00 2.781913615763187062e-02 8.200000000000000000e+01
3.055028617382050116e-01 -1.701320886611938032e+00 -3.990631699562072754e-01 5.800000000000000000e+01
2.824765145778656006e-01 -1.574668645858765093e+00 8.384220302104949951e-02 8.000000000000000000e+01
2.988128364086151123e-01 -1.665735721588134988e+00 -3.289546966552733820e-01 6.800000000000000000e+01
2.815136313438416082e-01 -1.570878505706787109e+00 1.396234929561614990e-01 9.400000000000000000e+01
2.906737923622130793e-01 -1.623625397682189941e+00 -2.612455487251281738e-01 5.800000000000000000e+01
2.771403491497039795e-01 -1.549590349197387917e+00 1.932847797870635986e-01 8.500000000000000000e+01
2.883915901184082031e-01 -1.614125490188599077e+00 -2.013281583786011020e-01 7.000000000000000000e+01
2.769811451435089111e-01 -1.551825523376465066e+00 2.496694028377532959e-01 7.000000000000000000e+01
2.842677831649780273e-01 -1.592649936676024947e+00 -1.415409296751022061e-01 8.700000000000000000e+01
2.698428034782410223e-01 -1.513358950614928977e+00 2.988068759441375732e-01 1.000000000000000000e+02
2.819534838199614923e-01 -1.582877874374390093e+00 -8.426088839769363403e-02 7.500000000000000000e+01
2.734688818454741877e-01 -1.536798954010009988e+00 3.603715896606444757e-01 6.200000000000000000e+01
2.834941744804381769e-01 -1.594751238822937012e+00 -2.827289886772632946e-02 8.300000000000000000e+01
2.711710929870604914e-01 -1.525429844856261985e+00 4.151457548141478937e-01 8.000000000000000000e+01
3.119801282882689875e-01 -1.769327282905579057e+00 -4.814034104347229004e-01 4.200000000000000000e+01
2.771728932857512873e-01 -1.573531508445739968e+00 2.788894623517990112e-02 8.200000000000000000e+01
3.005754649639130194e-01 -1.708134651184082031e+00 -4.004128873348236084e-01 5.600000000000000000e+01
2.758686244487761896e-01 -1.567728638648987038e+00 8.342351764440536499e-02 8.500000000000000000e+01
2.929965257644652765e-01 -1.666768670082092063e+00 -3.289546966552733820e-01 6.800000000000000000e+01
2.774069309234619141e-01 -1.579701066017151101e+00 1.403207480907439908e-01 9.200000000000000000e+01
2.850045263767241877e-01 -1.624630212783813032e+00 -2.612455487251281738e-01 6.000000000000000000e+01
2.737855613231658936e-01 -1.562280058860779031e+00 1.947472095489501953e-01 7.900000000000000000e+01
2.807015776634215753e-01 -1.603390216827393022e+00 -1.998657286167145053e-01 7.000000000000000000e+01
2.745587229728698730e-01 -1.568301796913146973e+00 2.521723508834838867e-01 8.100000000000000000e+01
2.780202031135559082e-01 -1.589707374572753906e+00 -1.411923021078110019e-01 8.800000000000000000e+01
2.655721902847290039e-01 -1.520093560218811035e+00 2.999517321586608887e-01 8.200000000000000000e+01
2.764264941215515137e-01 -1.583852410316467063e+00 -8.426088839769363403e-02 7.900000000000000000e+01
2.691068947315216064e-01 -1.543503522872925027e+00 3.617213070392609198e-01 7.200000000000000000e+01
2.765532433986663818e-01 -1.587851047515868919e+00 -2.813327871263026844e-02 8.000000000000000000e+01
2.665076553821564276e-01 -1.530173540115356001e+00 4.161810278892517090e-01 8.200000000000000000e+01
3.074462413787841797e-01 -1.779923796653748003e+00 -4.839916229248046875e-01 1.900000000000000000e+01
2.730386555194854736e-01 -1.582371711730957031e+00 2.802856452763080944e-02 8.600000000000000000e+01
2.952731847763062079e-01 -1.713014245033263938e+00 -4.013126790523529053e-01 5.500000000000000000e+01
2.701207697391510010e-01 -1.568729162216186968e+00 8.342351764440536499e-02 8.500000000000000000e+01
2.868434786796569824e-01 -1.665846467018126997e+00 -3.285730779170989990e-01 7.000000000000000000e+01
2.718910574913024902e-01 -1.580659747123718040e+00 1.403207480907439908e-01 8.800000000000000000e+01
2.796663045883179266e-01 -1.627561926841736062e+00 -2.615584135055541992e-01 6.300000000000000000e+01
2.713530063629149836e-01 -1.580834507942199929e+00 1.969408541917800903e-01 7.400000000000000000e+01
2.764449715614318848e-01 -1.612186431884766069e+00 -2.008406817913054865e-01 7.300000000000000000e+01
2.668077051639556885e-01 -1.557615518569946067e+00 2.502951323986052912e-01 8.500000000000000000e+01
2.717966139316558838e-01 -1.586740612983704057e+00 -1.408436745405196866e-01 9.100000000000000000e+01
2.625823318958281916e-01 -1.534557223320007102e+00 3.026230633258820135e-01 7.000000000000000000e+01
2.719056904315947931e-01 -1.590713739395142046e+00 -8.457490801811218262e-02 8.500000000000000000e+01
2.653574645519257147e-01 -1.554038166999816895e+00 3.639708161354064941e-01 7.700000000000000000e+01
2.700002193450927734e-01 -1.582893013954163042e+00 -2.802856452763080944e-02 8.200000000000000000e+01
2.615464925765991211e-01 -1.534948825836182085e+00 4.172163009643555243e-01 8.200000000000000000e+01
3.121851384639739990e-01 -1.845749378204345925e+00 -5.015913248062133789e-01 1.000000000000000000e+00
2.655146121978759766e-01 -1.571484684944153054e+00 2.781913615763187062e-02 8.600000000000000000e+01
2.905891239643096924e-01 -1.721720814704895020e+00 -4.031122922897338867e-01 5.400000000000000000e+01
2.662467658519744873e-01 -1.577493906021117942e+00 8.384220302104949951e-02 8.200000000000000000e+01
2.813532352447509766e-01 -1.668773531913757102e+00 -3.289546966552733820e-01 6.800000000000000000e+01
2.637246847152709961e-01 -1.565881490707397017e+00 1.389262527227402011e-01 8.400000000000000000e+01
2.726724147796630859e-01 -1.620736241340636985e+00 -2.603069543838500977e-01 6.400000000000000000e+01
2.681362330913544256e-01 -1.595475554466248003e+00 1.986470371484755915e-01 8.500000000000000000e+01
2.718016803264617920e-01 -1.619014739990233931e+00 -2.015718966722488126e-01 7.900000000000000000e+01
2.643094062805175781e-01 -1.576070904731750044e+00 2.531109750270844061e-01 7.500000000000000000e+01
2.639495432376862127e-01 -1.573925018310547097e+00 -1.396234929561614990e-01 9.500000000000000000e+01
2.581972181797028143e-01 -1.541273236274719016e+00 3.037679195404052734e-01 6.600000000000000000e+01
2.643735408782958984e-01 -1.579833984375000000e+00 -8.394687622785568237e-02 8.700000000000000000e+01
2.621803283691406250e-01 -1.568409442901611106e+00 3.671201169490814209e-01 7.200000000000000000e+01
2.651319503784180243e-01 -1.587770581245421919e+00 -2.809837460517882954e-02 8.200000000000000000e+01
2.567731738090515137e-01 -1.537713170051574929e+00 4.177339375019072931e-01 9.500000000000000000e+01
2.593749761581420898e-01 -1.568456172943115012e+00 2.774932608008385052e-02 8.400000000000000000e+01
2.842598259449005127e-01 -1.720801949501038042e+00 -4.026623964309691828e-01 5.300000000000000000e+01
2.600876390933989923e-01 -1.574472546577454057e+00 8.363285660743713379e-02 8.200000000000000000e+01
2.761656939983367920e-01 -1.673619627952575906e+00 -3.297179341316223145e-01 6.200000000000000000e+01
2.582571506500244141e-01 -1.566792488098144975e+00 1.389262527227402011e-01 7.300000000000000000e+01
2.663714587688446045e-01 -1.617779970169066939e+00 -2.596812248229979914e-01 6.600000000000000000e+01
2.612766623497009277e-01 -1.588566780090332031e+00 1.976720690727233887e-01 9.600000000000000000e+01
2.642176449298859198e-01 -1.608200669288635032e+00 -2.001094669103621881e-01 7.600000000000000000e+01
2.607257366180419922e-01 -1.588679671287537065e+00 2.549881637096405029e-01 7.400000000000000000e+01
2.584539055824279785e-01 -1.574836730957031028e+00 -1.396234929561614990e-01 9.600000000000000000e+01
2.540860474109650213e-01 -1.549914717674254927e+00 3.052943944931030273e-01 8.300000000000000000e+01
2.595028281211853027e-01 -1.584689259529113992e+00 -8.415621519088745117e-02 9.000000000000000000e+01
2.573331594467163086e-01 -1.573161482810973899e+00 3.680199384689331055e-01 7.400000000000000000e+01
2.595879733562468927e-01 -1.588686466217041016e+00 -2.809837460517882954e-02 8.200000000000000000e+01
2.523385882377625067e-01 -1.544319868087768999e+00 4.192868471145629883e-01 8.800000000000000000e+01
2.532597184181212824e-01 -1.565403938293457031e+00 2.767951600253582001e-02 8.600000000000000000e+01
2.776295840740203857e-01 -1.717936158180237038e+00 -4.017625749111176092e-01 5.200000000000000000e+01
2.549517452716826837e-01 -1.579358816146851030e+00 8.384220302104949951e-02 8.200000000000000000e+01
2.721992135047913153e-01 -1.686202406883239968e+00 -3.320076465606688898e-01 6.000000000000000000e+01
2.527864277362822931e-01 -1.567684412002563032e+00 1.389262527227402011e-01 7.000000000000000000e+01
2.616651058197020929e-01 -1.624550580978393999e+00 -2.606198191642761230e-01 6.900000000000000000e+01
2.544686496257781982e-01 -1.581629514694214089e+00 1.966971158981322965e-01 9.600000000000000000e+01
2.573424279689788818e-01 -1.601273298263550027e+00 -1.991345137357712070e-01 7.800000000000000000e+01
2.576501369476317804e-01 -1.603188037872314009e+00 2.571782469749451239e-01 7.000000000000000000e+01
2.548499107360839844e-01 -1.587532520294189009e+00 -1.406693756580353061e-01 9.500000000000000000e+01
2.486742883920670111e-01 -1.550792217254638894e+00 3.052943944931030273e-01 7.700000000000000000e+01
2.508108019828795832e-01 -1.565864205360413042e+00 -8.310949802398681641e-02 8.500000000000000000e+01
2.527638375759124756e-01 -1.579822897911071999e+00 3.693696260452271063e-01 6.900000000000000000e+01
2.540408670902252197e-01 -1.589582920074462891e+00 -2.809837460517882954e-02 8.600000000000000000e+01
2.497220635414124090e-01 -1.564311265945435014e+00 4.244632422924041748e-01 7.600000000000000000e+01
2.490438222885132113e-01 -1.574178934097290039e+00 2.781913615763187062e-02 8.600000000000000000e+01
2.734562456607819159e-01 -1.730443954467772993e+00 -4.044620096683502197e-01 4.700000000000000000e+01
2.478424757719039917e-01 -1.568358898162842019e+00 8.321417123079299927e-02 8.500000000000000000e+01
2.641688883304595947e-01 -1.673567533493041992e+00 -3.293363153934478760e-01 5.800000000000000000e+01
2.470023632049561102e-01 -1.566589236259460005e+00 1.387519389390944879e-01 7.500000000000000000e+01
2.559927701950073242e-01 -1.625454068183898926e+00 -2.606198191642761230e-01 6.900000000000000000e+01
2.495631426572799960e-01 -1.586430072784424050e+00 1.971845924854279120e-01 8.500000000000000000e+01
2.499025464057922086e-01 -1.590395689010619895e+00 -1.976720690727233887e-01 7.600000000000000000e+01
2.517724335193634033e-01 -1.604121565818787065e+00 2.571782469749451239e-01 7.000000000000000000e+01
2.505425810813903809e-01 -1.596285700798034890e+00 -1.413666158914566040e-01 9.200000000000000000e+01
2.432594895362854004e-01 -1.551650762557982954e+00 3.052943944931030273e-01 7.700000000000000000e+01
2.459613978862761896e-01 -1.570676565170288086e+00 -8.331884443759918213e-02 9.000000000000000000e+01
2.454407662153244019e-01 -1.569143652915955034e+00 3.666702210903167725e-01 6.800000000000000000e+01
2.466385215520859042e-01 -1.578605651855468972e+00 -2.788894623517990112e-02 8.600000000000000000e+01
2.457494586706160944e-01 -1.574717164039612038e+00 4.270514249801635742e-01 7.300000000000000000e+01
2.441585510969161987e-01 -1.578991055488585982e+00 2.788894623517990112e-02 8.600000000000000000e+01
2.671167254447937012e-01 -1.729462027549744096e+00 -4.040120840072631836e-01 2.400000000000000000e+01
2.429760992527008057e-01 -1.573162198066710982e+00 8.342351764440536499e-02 8.200000000000000000e+01
2.568287551403046209e-01 -1.664777994155884011e+00 -3.274282217025756836e-01 5.600000000000000000e+01
2.418358623981476108e-01 -1.569411039352416992e+00 1.389262527227402011e-01 8.400000000000000000e+01
2.503173351287841797e-01 -1.626337766647339089e+00 -2.606198191642761230e-01 6.700000000000000000e+01
2.461353987455368042e-01 -1.601025819778441939e+00 1.988907754421234131e-01 8.700000000000000000e+01
2.455546706914902011e-01 -1.599106669425963911e+00 -1.986470371484755915e-01 7.600000000000000000e+01
2.458519637584686002e-01 -1.601042628288269043e+00 2.565525174140930176e-01 7.000000000000000000e+01
2.437607347965239923e-01 -1.589273095130919966e+00 -1.406693756580353061e-01 9.200000000000000000e+01
2.417066693305968961e-01 -1.577718377113342063e+00 3.102554380893707275e-01 7.300000000000000000e+01
2.404772043228149137e-01 -1.571525573730468972e+00 -8.331884443759918213e-02 9.000000000000000000e+01
2.405508011579514105e-01 -1.573843598365783913e+00 3.675700128078461248e-01 6.600000000000000000e+01
2.411266565322875977e-01 -1.579456925392151101e+00 -2.788894623517990112e-02 8.400000000000000000e+01
2.396687567234039029e-01 -1.571745872497559038e+00 4.260161519050598145e-01 7.200000000000000000e+01
2.368532717227936069e-01 -1.567970156669616921e+00 2.767951600253582001e-02 8.900000000000000000e+01
4.802907705307006836e-01 -3.183289766311645952e+00 -7.432382702827453613e-01 1.000000000000000000e+01
2.380792051553725919e-01 -1.577950477600098100e+00 8.363285660743713379e-02 8.200000000000000000e+01
2.510160207748413086e-01 -1.665664315223694070e+00 -3.274282217025756836e-01 6.000000000000000000e+01
2.345767915248871127e-01 -1.558424472808837891e+00 1.378803849220275879e-01 8.800000000000000000e+01
2.443451434373855868e-01 -1.625248193740844949e+00 -2.603069543838500977e-01 6.600000000000000000e+01
2.426087856292724887e-01 -1.615616917610168013e+00 2.005969434976578036e-01 8.200000000000000000e+01
2.402656972408294955e-01 -1.601917266845702903e+00 -1.988907754421234131e-01 7.200000000000000000e+01
2.420197874307631891e-01 -1.613612294197082964e+00 2.584297358989716131e-01 7.000000000000000000e+01
2.364405542612076083e-01 -1.578291893005371094e+00 -1.396234929561614990e-01 9.200000000000000000e+01
2.359074056148529053e-01 -1.576610922813415971e+00 3.098738193511962891e-01 7.100000000000000000e+01
2.361709475517272949e-01 -1.580256700515747070e+00 -8.373752981424331665e-02 9.200000000000000000e+01
2.373572438955307007e-01 -1.590092778205872026e+00 3.711692392826079767e-01 6.000000000000000000e+01
2.356118559837341031e-01 -1.580289006233215110e+00 -2.788894623517990112e-02 8.400000000000000000e+01
2.344654202461242953e-01 -1.574483633041382058e+00 4.265337884426116943e-01 6.800000000000000000e+01
2.302114963531493863e-01 -1.560874223709106001e+00 2.753989771008491863e-02 8.600000000000000000e+01
4.686080813407897949e-01 -3.181091070175170898e+00 -7.423384785652160645e-01 1.100000000000000000e+01
2.331518232822417935e-01 -1.582723855972290039e+00 8.384220302104949951e-02 8.200000000000000000e+01
2.466291487216948908e-01 -1.676242113113403098e+00 -3.293363153934478760e-01 5.800000000000000000e+01
2.297147959470748901e-01 -1.563176155090332031e+00 1.382290124893187921e-01 8.800000000000000000e+01
2.383836060762405118e-01 -1.624136805534363015e+00 -2.599940896034240723e-01 6.700000000000000000e+01
2.355280965566635132e-01 -1.606633424758910911e+00 1.993782520294188898e-01 7.700000000000000000e+01
2.369732111692428866e-01 -1.618459343910217063e+00 -2.008406817913054865e-01 7.200000000000000000e+01
2.378166615962981900e-01 -1.624219894409179910e+00 2.599940896034240723e-01 6.500000000000000000e+01
2.320830523967742920e-01 -1.586993217468261941e+00 -1.403207480907439908e-01 9.500000000000000000e+01
2.312538027763366977e-01 -1.583252668380737083e+00 3.110186755657196045e-01 7.000000000000000000e+01
2.295001149177550992e-01 -1.573166131973267046e+00 -8.331884443759918213e-02 9.200000000000000000e+01
2.340531349182128906e-01 -1.606338620185852051e+00 3.747684657573699951e-01 5.700000000000000000e+01
2.312460988759995062e-01 -1.589017152786255105e+00 -2.802856452763080944e-02 8.600000000000000000e+01
2.309121936559677124e-01 -1.586722850799560991e+00 4.296396076679229736e-01 6.900000000000000000e+01
2.264708280563353937e-01 -1.573544025421143022e+00 2.774932608008385052e-02 8.400000000000000000e+01
4.563920497894287109e-01 -3.174991846084595171e+00 -7.405388951301574707e-01 1.200000000000000000e+01
2.276256680488585871e-01 -1.583528041839600053e+00 8.384220302104949951e-02 8.000000000000000000e+01
2.413344681262969971e-01 -1.680979490280150923e+00 -3.300995528697968084e-01 5.400000000000000000e+01
2.248224765062331876e-01 -1.567912936210632102e+00 1.385776251554489136e-01 8.000000000000000000e+01
2.327128648757935125e-01 -1.624958992004394975e+00 -2.599940896034240723e-01 6.900000000000000000e+01
2.285130918025969904e-01 -1.597620248794556108e+00 1.981595456600188931e-01 7.200000000000000000e+01
2.318837493658066073e-01 -1.623206973075866921e+00 -2.013281583786011020e-01 7.300000000000000000e+01
2.338217794895172119e-01 -1.636773347854614036e+00 2.618713080883026123e-01 6.100000000000000000e+01
2.265420109033584872e-01 -1.587793707847594993e+00 -1.403207480907439908e-01 9.200000000000000000e+01
2.254488468170166016e-01 -1.582106590270996094e+00 3.106370568275452215e-01 5.800000000000000000e+01
2.228816747665404996e-01 -1.566048264503479004e+00 -8.290015161037445068e-02 9.400000000000000000e+01
2.298157662153244019e-01 -1.616792559623718040e+00 3.770179748535156250e-01 4.900000000000000000e+01
2.262601107358931940e-01 -1.593774437904357910e+00 -2.809837460517882954e-02 8.600000000000000000e+01
2.256374210119246881e-01 -1.591383934020996094e+00 4.306748807430266779e-01 6.800000000000000000e+01
1.013608947396277965e-01 -7.212202548980712891e-01 -1.951495558023453036e-01 7.000000000000000000e+00
2.215326726436614990e-01 -1.578285574913024902e+00 2.781913615763187062e-02 8.600000000000000000e+01
4.447654187679290771e-01 -3.172705650329589844e+00 -7.396390438079833984e-01 1.100000000000000000e+01
2.198817133903502863e-01 -1.570505976676940918e+00 8.310949802398681641e-02 7.500000000000000000e+01
2.346486449241637906e-01 -1.675978779792786089e+00 -3.289546966552733820e-01 4.400000000000000000e+01
2.204517126083374023e-01 -1.576581001281738059e+00 1.392748802900314053e-01 7.200000000000000000e+01
2.281321287155151090e-01 -1.633587002754210982e+00 -2.612455487251281738e-01 6.700000000000000000e+01
2.240318208932876864e-01 -1.606272459030150923e+00 1.991345137357712070e-01 6.600000000000000000e+01
2.248469442129135132e-01 -1.614175915718079057e+00 -2.001094669103621881e-01 6.800000000000000000e+01
2.283794730901717862e-01 -1.639536023139954057e+00 2.621841728687285822e-01 7.000000000000000000e+01
2.209981977939605990e-01 -1.588574767112731934e+00 -1.403207480907439908e-01 9.200000000000000000e+01
2.223564982414245883e-01 -1.600385189056396040e+00 3.140715956687927246e-01 6.300000000000000000e+01
2.174137979745864868e-01 -1.566816806793212891e+00 -8.290015161037445068e-02 9.400000000000000000e+01
2.233681827783584872e-01 -1.611793994903564009e+00 3.756682574748992920e-01 4.500000000000000000e+01
2.190504968166351041e-01 -1.582669615745543990e+00 -2.788894623517990112e-02 8.200000000000000000e+01
2.232723534107207974e-01 -1.613173127174376997e+00 4.363689124584197998e-01 6.500000000000000000e+01
9.962929040193557739e-02 -7.273116111755371094e-01 -1.967024803161621094e-01 2.100000000000000000e+01
2.176483422517775934e-01 -1.590936660766602007e+00 2.802856452763080944e-02 8.200000000000000000e+01
4.352706968784332275e-01 -3.185823678970336914e+00 -7.423384785652160645e-01 1.100000000000000000e+01
2.152083516120910922e-01 -1.577200651168823020e+00 8.342351764440536499e-02 8.200000000000000000e+01
2.293278127908706943e-01 -1.680678129196166992e+00 -3.297179341316223145e-01 1.200000000000000000e+01
2.149470746517181119e-01 -1.577340841293334961e+00 1.392748802900314053e-01 7.200000000000000000e+01
2.232276052236557007e-01 -1.640245437622070090e+00 -2.621841728687285822e-01 6.600000000000000000e+01
2.194929122924804965e-01 -1.614912748336791992e+00 2.001094669103621881e-01 6.500000000000000000e+01
2.192110419273375910e-01 -1.614951014518738015e+00 -2.001094669103621881e-01 6.800000000000000000e+01
2.223687320947647095e-01 -1.640362024307250977e+00 2.621841728687285822e-01 6.200000000000000000e+01
2.149163931608200073e-01 -1.585387825965880904e+00 -1.399721205234527865e-01 9.500000000000000000e+01
2.201928049325942993e-01 -1.626443147659301980e+00 3.190326392650604248e-01 6.000000000000000000e+01
2.130136787891387939e-01 -1.575483202934264915e+00 -8.331884443759918213e-02 9.200000000000000000e+01
2.198267430067062100e-01 -1.628013610839843972e+00 3.792674839496613104e-01 4.200000000000000000e+01
2.135246098041533869e-01 -1.583424568176269975e+00 -2.788894623517990112e-02 8.400000000000000000e+01
2.176161259412766058e-01 -1.615895271301269975e+00 4.368865489959716797e-01 7.000000000000000000e+01
2.110371142625808993e-01 -1.583757996559143066e+00 2.788894623517990112e-02 8.000000000000000000e+01
4.251756668090819757e-01 -3.195050477981566939e+00 -7.441380620002746582e-01 1.100000000000000000e+01
2.102278172969818115e-01 -1.581901907920836958e+00 8.363285660743713379e-02 8.200000000000000000e+01
5.082157850265502930e-01 -3.824172735214232954e+00 -7.498793601989746094e-01 1.000000000000000000e+01
2.078670561313628873e-01 -1.566231131553649902e+00 1.382290124893187921e-01 7.200000000000000000e+01
2.180198132991791049e-01 -1.644931077957153098e+00 -2.628099024295806885e-01 6.400000000000000000e+01
2.146359086036682129e-01 -1.621572852134705034e+00 2.008406817913054865e-01 5.700000000000000000e+01
2.130522131919861117e-01 -1.611770391464232954e+00 -1.996219903230667114e-01 6.400000000000000000e+01
2.184810638427734097e-01 -1.652840495109558105e+00 2.640613913536071777e-01 5.900000000000000000e+01
2.078165560960769931e-01 -1.574276924133301003e+00 -1.389262527227402011e-01 9.600000000000000000e+01
2.150273025035857877e-01 -1.631094694137573020e+00 3.197958767414093018e-01 5.500000000000000000e+01
2.090770900249480924e-01 -1.588098168373107910e+00 -8.394687622785568237e-02 9.200000000000000000e+01
2.156667262315750122e-01 -1.640363693237304910e+00 3.819668889045714777e-01 4.300000000000000000e+01
2.090374082326889038e-01 -1.592090964317321999e+00 -2.802856452763080944e-02 8.400000000000000000e+01
2.112504690885544101e-01 -1.608946323394774947e+00 4.348160028457642157e-01 6.800000000000000000e+01
2.044786512851715088e-01 -1.576552748680114968e+00 2.774932608008385052e-02 7.800000000000000000e+01
4.140202701091765802e-01 -3.196515321731566939e+00 -7.441380620002746582e-01 1.100000000000000000e+01
2.067542821168900091e-01 -1.598472237586975098e+00 8.447023481130599976e-02 7.700000000000000000e+01
4.973821938037871759e-01 -3.845393896102904829e+00 -7.536955475807189941e-01 1.000000000000000000e+01
2.023986279964447021e-01 -1.566947221755981001e+00 1.382290124893187921e-01 6.600000000000000000e+01
2.112657576799392978e-01 -1.637845516204833984e+00 -2.615584135055541992e-01 6.600000000000000000e+01
2.107495218515396118e-01 -1.636093974113463911e+00 2.025468498468399048e-01 5.800000000000000000e+01
2.081845700740813931e-01 -1.618410825729369895e+00 -2.003532052040100098e-01 6.600000000000000000e+01
2.131766825914382935e-01 -1.659507989883423074e+00 2.649999856948853094e-01 5.300000000000000000e+01
2.028277516365050992e-01 -1.578945040702820046e+00 -1.392748802900314053e-01 9.600000000000000000e+01
2.118304222822189053e-01 -1.651308298110961914e+00 3.236120641231536865e-01 5.600000000000000000e+01
2.030247598886489868e-01 -1.584856152534485085e+00 -8.373752981424331665e-02 9.000000000000000000e+01
2.138959318399429044e-01 -1.672034382820128950e+00 3.891653120517731268e-01 4.200000000000000000e+01
2.037321031093597135e-01 -1.594794511795043945e+00 -2.806346863508224140e-02 7.800000000000000000e+01
2.055964320898056030e-01 -1.611626148223876953e+00 4.353336393833159845e-01 4.800000000000000000e+01
1.994747668504714966e-01 -1.581224799156188965e+00 2.781913615763187062e-02 8.000000000000000000e+01
4.013984501361846924e-01 -3.186340332031250000e+00 -7.414386868476867676e-01 1.100000000000000000e+01
2.004254460334778110e-01 -1.593239307403564009e+00 8.415621519088745117e-02 7.200000000000000000e+01
4.851814508438109796e-01 -3.856846094131470171e+00 -7.556036114692687988e-01 9.000000000000000000e+00
2.004043757915497104e-01 -1.595320105552672896e+00 1.406693756580353061e-01 6.700000000000000000e+01
2.070225477218627930e-01 -1.650333046913146973e+00 -2.634356319904326837e-01 6.300000000000000000e+01
2.028165906667709073e-01 -1.619092345237731934e+00 2.003532052040100098e-01 5.400000000000000000e+01
2.025340050458908081e-01 -1.619127750396728960e+00 -2.003532052040100098e-01 7.000000000000000000e+01
2.113501727581023892e-01 -1.689607262611388938e+00 2.696930170059204102e-01 5.200000000000000000e+01
1.973149627447128018e-01 -1.579643368721008079e+00 -1.392748802900314053e-01 9.600000000000000000e+01
2.128690183162688931e-01 -1.706586122512816939e+00 3.342973589897155762e-01 5.800000000000000000e+01
1.960101574659348089e-01 -1.573663473129272017e+00 -8.310949802398681641e-02 8.300000000000000000e+01
2.109445035457611084e-01 -1.695976853370666948e+00 3.945641517639160156e-01 4.900000000000000000e+01
1.996428221464157104e-01 -1.607402682304382102e+00 -2.827289886772632946e-02 7.400000000000000000e+01
2.040607184171676913e-01 -1.642972946166991965e+00 4.436158537864685059e-01 4.600000000000000000e+01
1.954141855239867887e-01 -1.593820452690124956e+00 2.802856452763080944e-02 7.500000000000000000e+01
3.907472193241118830e-01 -3.191590547561645952e+00 -7.423384785652160645e-01 1.000000000000000000e+01
1.938933134078978937e-01 -1.585999131202697976e+00 8.373752981424331665e-02 7.300000000000000000e+01
4.719538092613220215e-01 -3.860465049743651900e+00 -7.559852600097656250e-01 1.000000000000000000e+01
1.945930272340775091e-01 -1.594032168388366921e+00 1.404950618743895929e-01 5.500000000000000000e+01
2.019776254892348966e-01 -1.656928300857543945e+00 -2.643742561340332031e-01 5.800000000000000000e+01
1.976433843374252042e-01 -1.623731493949889915e+00 2.008406817913054865e-01 4.900000000000000000e+01
1.949648410081863126e-01 -1.604060053825377974e+00 -1.984032839536666870e-01 7.000000000000000000e+01
2.072980403900145929e-01 -1.708019495010375977e+00 2.725088298320770264e-01 6.100000000000000000e+01
1.937201768159866055e-01 -1.596145510673522949e+00 -1.406693756580353061e-01 9.500000000000000000e+01
2.135242074728012085e-01 -1.761890530586242898e+00 3.449826538562775213e-01 7.800000000000000000e+01
1.933951824903487882e-01 -1.598131656646728960e+00 -8.436556160449981689e-02 8.200000000000000000e+01
2.068933695554732999e-01 -1.712180256843566895e+00 3.981633782386779785e-01 5.500000000000000000e+01
1.923539042472839078e-01 -1.594192743301392046e+00 -2.802856452763080944e-02 6.500000000000000000e+01
1.994240432977676114e-01 -1.655217766761780007e+00 4.467216730117797852e-01 4.300000000000000000e+01
1.915044933557510098e-01 -1.608392596244812012e+00 2.827289886772632946e-02 7.400000000000000000e+01
3.805243670940399170e-01 -3.200675487518310991e+00 -7.441380620002746582e-01 1.100000000000000000e+01
1.897686421871185025e-01 -1.598566293716431108e+00 8.436556160449981689e-02 7.000000000000000000e+01
4.568553566932678223e-01 -3.848441839218140093e+00 -7.533138990402221680e-01 9.000000000000000000e+00
1.899657249450683871e-01 -1.602615952491760032e+00 1.411923021078110019e-01 5.600000000000000000e+01
1.959604620933532992e-01 -1.655661582946776900e+00 -2.640613913536071777e-01 3.700000000000000000e+01
1.959349364042282104e-01 -1.657924890518188032e+00 2.049842327833175937e-01 5.100000000000000000e+01
1.886665374040603915e-01 -1.598816633224487083e+00 -1.976720690727233887e-01 5.200000000000000000e+01
2.051053345203399936e-01 -1.738124012947082964e+00 2.772018611431121826e-01 6.200000000000000000e+01
1.876811236143111905e-01 -1.592854619026184082e+00 -1.403207480907439908e-01 9.500000000000000000e+01
2.071433663368225098e-01 -1.760675311088562012e+00 3.446010351181030273e-01 7.200000000000000000e+01
1.885145455598830899e-01 -1.604747891426085982e+00 -8.467957377433776855e-02 7.400000000000000000e+01
2.025046497583389005e-01 -1.726440310478210005e+00 4.013126790523529053e-01 6.500000000000000000e+01
1.865553557872771939e-01 -1.592868328094481978e+00 -2.799366042017937053e-02 6.100000000000000000e+01
1.970801502466202060e-01 -1.682732224464416948e+00 4.539686143398284912e-01 4.500000000000000000e+01
1.845120340585708896e-01 -1.597132325172424094e+00 2.806346863508224140e-02 7.300000000000000000e+01
3.706894516944885254e-01 -3.213599681854248047e+00 -7.468374967575073242e-01 1.300000000000000000e+01
1.857870817184447965e-01 -1.613108038902282937e+00 8.509826660156250000e-02 6.400000000000000000e+01
4.440928995609282892e-01 -3.855864286422729048e+00 -7.544587850570678711e-01 1.000000000000000000e+01
1.843703985214233121e-01 -1.603269219398498979e+00 1.411923021078110019e-01 5.100000000000000000e+01
1.946684122085571012e-01 -1.698042273521422896e+00 2.098590135574341098e-01 5.800000000000000000e+01
