-2.925596714019774947e+00 -2.460092544555664062e+00 -7.430102229118347168e-01 7.000000000000000000e+00
-9.593134522438049316e-01 -8.063871860504150391e-01 1.096419245004653931e-01 6.600000000000000000e+01
-3.661373853683472124e+00 -3.076616048812866211e+00 -7.574557065963745117e-01 1.100000000000000000e+01
-9.712803959846496582e-01 -8.158680200576782227e-01 1.557490229606627863e-01 7.000000000000000000e+01
-5.038020610809326172e+00 -4.230398654937744141e+00 -8.077499866485595703e-01 8.000000000000000000e+00
-9.636427760124206543e-01 -8.091656565666198730e-01 1.992975026369095126e-01 6.500000000000000000e+01
-1.052964329719543013e+00 -8.838552236557006836e-01 -1.202749237418175021e-01 4.400000000000000000e+01
-9.565058946609497070e-01 -8.026037216186523438e-01 2.427090406417846957e-01 7.400000000000000000e+01
-1.054316878318787065e+00 -8.843634128570556641e-01 -7.211894541978836060e-02 5.000000000000000000e+01
-9.482192993164062500e-01 -7.950865626335144043e-01 2.856878340244293213e-01 6.900000000000000000e+01
-1.043651819229125977e+00 -8.747970461845397949e-01 -2.377017773687839855e-02 5.500000000000000000e+01
-9.461997747421264648e-01 -7.928308248519897461e-01 3.307707309722899836e-01 7.200000000000000000e+01
-2.085547685623168945e+00 -1.743170022964477983e+00 -7.283167839050292969e-01 6.000000000000000000e+00
-1.017402887344359907e+00 -8.500775694847106934e-01 2.314189076423645020e-02 5.300000000000000000e+01
-2.446899414062500000e+00 -2.043749570846558061e+00 -7.360398769378662109e-01 5.000000000000000000e+00
-1.005581140518188032e+00 -8.399021625518798828e-01 6.866477429866790771e-02 5.200000000000000000e+01
-2.947729349136352983e+00 -2.461189746856689009e+00 -7.464447617530822754e-01 8.000000000000000000e+00
-9.789481163024902344e-01 -8.170771598815917969e-01 1.115593537688255033e-01 6.200000000000000000e+01
-3.675124645233153853e+00 -3.066347599029541016e+00 -7.580814361572265625e-01 1.200000000000000000e+01
-9.665001630783081055e-01 -8.061152696609497070e-01 1.545303314924240112e-01 6.700000000000000000e+01
-5.046658039093017578e+00 -4.207702159881591797e+00 -8.067750334739685059e-01 8.000000000000000000e+00
-9.681195020675659180e-01 -8.068930506706237793e-01 1.996103823184967041e-01 6.500000000000000000e+01
-6.187800884246826172e+00 -5.157310962677001953e+00 -7.047413587570190430e-01 5.000000000000000000e+00
-9.532683491706848145e-01 -7.942332625389099121e-01 2.411825656890868863e-01 3.500000000000000000e+01
-1.051258802413939986e+00 -8.755649924278259277e-01 -7.170026004314422607e-02 3.000000000000000000e+01
-9.435007572174072266e-01 -7.855374217033386230e-01 2.834383249282836914e-01 7.200000000000000000e+01
-1.057458043098449929e+00 -8.801032304763793945e-01 -2.401451207697391857e-02 5.300000000000000000e+01
-9.459913372993469238e-01 -7.870520353317260742e-01 3.297354578971862793e-01 7.500000000000000000e+01
-2.094896316528319868e+00 -1.737981438636780007e+00 -7.293520569801330566e-01 7.000000000000000000e+00
-1.023590207099914995e+00 -8.488959670066833496e-01 2.321170084178448070e-02 5.300000000000000000e+01
-2.440871715545653853e+00 -2.023573875427246094e+00 -7.319907546043395996e-01 6.000000000000000000e+00
-1.002502560615539995e+00 -8.311120271682739258e-01 6.824608892202377319e-02 5.600000000000000000e+01
-2.938591003417969194e+00 -2.435336351394652876e+00 -7.418653964996337891e-01 8.000000000000000000e+00
-9.850048422813415527e-01 -8.160257935523986816e-01 1.119079738855361938e-01 6.200000000000000000e+01
-3.686338663101195845e+00 -3.052857160568236861e+00 -7.580814361572265625e-01 1.200000000000000000e+01
-9.602736234664916992e-01 -7.949721813201904297e-01 1.530679017305373868e-01 6.300000000000000000e+01
-5.049811363220214844e+00 -4.179052352905273438e+00 -8.048251271247863770e-01 8.000000000000000000e+00
-9.633209705352783203e-01 -7.972116470336914062e-01 1.980460286140441895e-01 6.700000000000000000e+01
-6.241970539093017578e+00 -5.163806915283203125e+00 -7.087504863739013672e-01 6.000000000000000000e+00
-9.697893261909484863e-01 -8.019944429397583008e-01 2.446171343326568881e-01 3.700000000000000000e+01
-9.403648376464843750e-01 -7.771084904670715332e-01 2.816387116909027100e-01 7.100000000000000000e+01
-1.062218427658081055e+00 -8.774951100349426270e-01 -2.404941618442535053e-02 3.500000000000000000e+01
-9.458904862403869629e-01 -7.811192870140075684e-01 3.287001848220825195e-01 6.600000000000000000e+01
-2.093494653701781782e+00 -1.724516868591309038e+00 -7.267639040946960449e-01 8.000000000000000000e+00
-1.041983962059020996e+00 -8.580293655395507812e-01 2.356074936687945973e-02 5.300000000000000000e+01
-2.450929641723632812e+00 -2.017518281936645952e+00 -7.328905463218688965e-01 7.000000000000000000e+00
-1.010023593902587891e+00 -8.314155936241149902e-01 6.856010109186172485e-02 6.000000000000000000e+01
-2.933429956436156782e+00 -2.413836717605590820e+00 -7.384307980537414551e-01 9.000000000000000000e+00
-9.863085746765136719e-01 -8.113168478012084961e-01 1.117336601018906056e-01 6.100000000000000000e+01
-3.716807842254639116e+00 -3.056280851364136186e+00 -7.621487379074096680e-01 1.200000000000000000e+01
-9.691767692565917969e-01 -7.966575026512145996e-01 1.540428549051285068e-01 6.700000000000000000e+01
-5.052098274230957031e+00 -4.151317596435546875e+00 -8.028752207756042480e-01 8.000000000000000000e+00
-9.584668278694152832e-01 -7.875736951828002930e-01 1.964816898107528964e-01 7.100000000000000000e+01
-6.323080539703369141e+00 -5.193836688995361328e+00 -7.158972620964050293e-01 5.000000000000000000e+00
-9.892730712890625000e-01 -8.123089671134948730e-01 2.488149255514144897e-01 4.800000000000000000e+01
-9.415652155876159668e-01 -7.725850939750671387e-01 2.811888158321381170e-01 7.700000000000000000e+01
-9.291909337043762207e-01 -7.618890404701232910e-01 3.219708800315856934e-01 5.600000000000000000e+01
-2.093520164489746094e+00 -1.712306380271912065e+00 -7.246932983398437500e-01 1.000000000000000000e+01
-1.041876435279845969e+00 -8.518553972244262695e-01 2.349093928933143963e-02 4.200000000000000000e+01
-2.463992595672606978e+00 -2.013883590698242188e+00 -7.346901297569274902e-01 8.000000000000000000e+00
-1.017558932304382102e+00 -8.316767215728759766e-01 6.887412071228027344e-02 5.700000000000000000e+01
-2.947919368743896040e+00 -2.408551216125487837e+00 -7.399572730064392090e-01 9.000000000000000000e+00
-9.860483407974243164e-01 -8.053483963012695312e-01 1.113850399851799011e-01 5.900000000000000000e+01
-3.713682174682617188e+00 -3.032044649124145952e+00 -7.593328952789306641e-01 1.100000000000000000e+01
-9.796411991119384766e-01 -7.995454668998718262e-01 1.552615463733673096e-01 6.600000000000000000e+01
-5.083477973937988281e+00 -4.147460937500000000e+00 -8.055563569068908691e-01 8.000000000000000000e+00
-9.749854207038879395e-01 -7.954620718955993652e-01 1.992975026369095126e-01 7.200000000000000000e+01
-6.336539745330811435e+00 -5.167955875396729404e+00 -7.153743505477905273e-01 5.000000000000000000e+00
-9.814511537551879883e-01 -8.001668453216552734e-01 2.461436092853545865e-01 5.100000000000000000e+01
-9.684292674064636230e-01 -7.889876365661621094e-01 2.883872389793395996e-01 7.200000000000000000e+01
-9.212268590927124023e-01 -7.502639889717102051e-01 3.183474242687224787e-01 4.500000000000000000e+01
-2.105483055114746094e+00 -1.709859609603882058e+00 -7.267639040946960449e-01 1.000000000000000000e+01
-2.469494104385375977e+00 -2.004042387008666992e+00 -7.342402338981628418e-01 8.000000000000000000e+00
-1.037515163421631081e+00 -8.419636487960815430e-01 7.002551108598709106e-02 5.800000000000000000e+01
-2.963932037353516069e+00 -2.404430627822875977e+00 -7.418653964996337891e-01 9.000000000000000000e+00
-9.934960603713989258e-01 -8.056663274765014648e-01 1.119079738855361938e-01 5.600000000000000000e+01
-3.715036392211914062e+00 -3.011599302291870117e+00 -7.574557065963745117e-01 1.100000000000000000e+01
-9.777993559837341309e-01 -7.923716306686401367e-01 1.545303314924240112e-01 6.200000000000000000e+01
-5.104094028472900391e+00 -4.134689331054688388e+00 -8.065313100814819336e-01 1.000000000000000000e+01
-9.731513261795043945e-01 -7.883237004280090332e-01 1.983589082956314087e-01 7.100000000000000000e+01
-6.366927623748779297e+00 -5.155836582183837891e+00 -7.167688012123107910e-01 0.000000000000000000e+00
-9.811863899230957031e-01 -7.942655682563781738e-01 2.453803718090057095e-01 7.200000000000000000e+01
-9.590566754341125488e-01 -7.757976651191711426e-01 2.847880423069000244e-01 6.200000000000000000e+01
-9.149561524391174316e-01 -7.395957708358764648e-01 3.152416050434113104e-01 3.900000000000000000e+01
-2.111438751220703125e+00 -1.702499628067017046e+00 -7.267639040946960449e-01 1.200000000000000000e+01
-2.465852260589600053e+00 -1.986851334571837935e+00 -7.310909032821655273e-01 9.000000000000000000e+00
-1.039038658142090066e+00 -8.369024395942687988e-01 6.992083787918090820e-02 5.600000000000000000e+01
-2.976893901824951172e+00 -2.397764444351195845e+00 -7.430102229118347168e-01 1.000000000000000000e+01
-9.978541731834411621e-01 -8.034429550170898438e-01 1.120822876691817960e-01 5.900000000000000000e+01
-3.725526094436645952e+00 -2.998612880706787109e+00 -7.574557065963745117e-01 1.100000000000000000e+01
-9.851991534233093262e-01 -7.926868200302124023e-01 1.552615463733673096e-01 6.500000000000000000e+01
-5.124683380126953125e+00 -4.121823787689208984e+00 -8.075062632560729980e-01 1.000000000000000000e+00
-9.789757132530212402e-01 -7.873980402946472168e-01 1.989846378564834872e-01 7.100000000000000000e+01
-9.885436892509460449e-01 -7.945255041122436523e-01 2.465252280235291082e-01 7.800000000000000000e+01
-9.541620612144470215e-01 -7.663437724113464355e-01 2.825385332107543945e-01 9.200000000000000000e+01
-9.309614300727844238e-01 -7.474427223205566406e-01 3.199003338813781738e-01 5.300000000000000000e+01
-2.117368698120117188e+00 -1.695119023323059082e+00 -7.267639040946960449e-01 1.400000000000000000e+01
-1.120997309684752974e+00 -8.971248865127563477e-01 2.506165578961372029e-02 1.000000000000000000e+00
-2.477337837219237837e+00 -1.981883883476257102e+00 -7.324406504631042480e-01 1.100000000000000000e+01
-1.059111595153809038e+00 -8.469919562339782715e-01 7.107222825288772583e-02 3.100000000000000000e+01
-2.980645895004272017e+00 -2.383679866790771040e+00 -7.418653964996337891e-01 1.000000000000000000e+01
-1.023995995521544966e+00 -8.186163902282714844e-01 1.146969571709633012e-01 5.600000000000000000e+01
-3.745229482650756836e+00 -2.992989540100098100e+00 -7.593328952789306641e-01 1.100000000000000000e+01
-9.833073019981384277e-01 -7.855260372161865234e-01 1.545303314924240112e-01 6.300000000000000000e+01
-9.849426746368408203e-01 -7.862694263458251953e-01 1.996103823184967041e-01 7.300000000000000000e+01
-9.897764921188354492e-01 -7.898454070091247559e-01 2.461436092853545865e-01 7.600000000000000000e+01
-9.598785042762756348e-01 -7.654384374618530273e-01 2.834383249282836914e-01 9.200000000000000000e+01
-9.548463225364685059e-01 -7.608804702758789062e-01 3.271472752094268799e-01 6.900000000000000000e+01
-2.117223501205443892e+00 -1.682909369468688965e+00 -7.246932983398437500e-01 1.500000000000000000e+01
-1.084981203079224077e+00 -8.621059060096740723e-01 2.418903447687625885e-02 9.000000000000000000e+00
-2.485766887664794922e+00 -1.974436402320862038e+00 -7.328905463218688965e-01 1.300000000000000000e+01
-1.073010802268981934e+00 -8.519835472106933594e-01 7.180493324995040894e-02 4.600000000000000000e+01
-2.984335660934447798e+00 -2.369598627090454102e+00 -7.407205104827880859e-01 1.000000000000000000e+01
-1.050255656242371050e+00 -8.336168527603149414e-01 1.173116266727448065e-01 4.900000000000000000e+01
-3.764938831329346147e+00 -2.987264871597290039e+00 -7.612100839614868164e-01 1.100000000000000000e+01
-1.001596093177794966e+00 -7.944246530532836914e-01 1.569677144289017001e-01 6.100000000000000000e+01
-9.736137390136718750e-01 -7.719534635543823242e-01 1.967945545911788940e-01 6.800000000000000000e+01
-9.956051707267761230e-01 -7.888240218162536621e-01 2.469068467617034912e-01 7.600000000000000000e+01
-9.701837897300720215e-01 -7.681314349174499512e-01 2.856878340244293213e-01 7.800000000000000000e+01
-9.588790535926818848e-01 -7.589088082313537598e-01 3.276649117469788153e-01 7.200000000000000000e+01
-2.121568679809569868e+00 -1.674311876296997070e+00 -7.241756916046142578e-01 9.000000000000000000e+00
-1.076994180679321067e+00 -8.496435284614562988e-01 2.394470199942589153e-02 3.400000000000000000e+01
-2.491113662719727007e+00 -1.964540600776671919e+00 -7.324406504631042480e-01 1.100000000000000000e+01
-1.072841286659240945e+00 -8.457598686218261719e-01 7.159558683633804321e-02 5.200000000000000000e+01
-2.994130611419678178e+00 -2.360382318496704102e+00 -7.411021590232849121e-01 1.100000000000000000e+01
-1.032815814018249956e+00 -8.139140605926513672e-01 1.150455772876740057e-01 5.100000000000000000e+01
-3.770688295364379883e+00 -2.970437288284302202e+00 -7.602714896202087402e-01 8.000000000000000000e+00
-1.009041666984558105e+00 -7.946079969406127930e-01 1.576989293098449985e-01 5.800000000000000000e+01
-9.826460480690002441e-01 -7.732661962509155273e-01 1.980460286140441895e-01 6.800000000000000000e+01
-9.968095421791076660e-01 -7.841300964355468750e-01 2.465252280235291082e-01 8.400000000000000000e+01
-1.114693522453308105e+00 -8.765473961830139160e-01 -7.431706041097640991e-02 6.000000000000000000e+00
-9.820514917373657227e-01 -7.719660401344299316e-01 2.883872389793395996e-01 6.300000000000000000e+01
-1.097491502761841042e+00 -8.624006509780883789e-01 -2.436355873942374836e-02 7.000000000000000000e+00
-9.495005607604980469e-01 -7.458425164222717285e-01 3.235238194465637207e-01 7.200000000000000000e+01
-1.068933486938477007e+00 -8.372474908828735352e-01 2.370036765933037151e-02 4.800000000000000000e+01
-2.499490261077880859e+00 -1.957034468650818093e+00 -7.328905463218688965e-01 1.000000000000000000e+00
-1.071068644523621050e+00 -8.383167386054992676e-01 7.128157466650009155e-02 5.300000000000000000e+01
-2.986891746520996094e+00 -2.337815999984741211e+00 -7.372859716415405273e-01 5.000000000000000000e+00
-1.030943036079406960e+00 -8.066207170486450195e-01 1.145226433873176991e-01 5.300000000000000000e+01
-1.013373136520385964e+00 -7.923036217689514160e-01 1.579426676034927091e-01 5.700000000000000000e+01
-9.898740649223327637e-01 -7.736526727676391602e-01 1.989846378564834872e-01 6.300000000000000000e+01
-1.114717245101928933e+00 -8.709125518798828125e-01 -1.237611547112465044e-01 1.000000000000000000e+00
-9.809733033180236816e-01 -7.661446332931518555e-01 2.419458031654357910e-01 8.600000000000000000e+01
-1.106726408004760964e+00 -8.640474677085876465e-01 -7.358435541391372681e-02 3.000000000000000000e+01
-1.001639008522033913e+00 -7.817219495773315430e-01 2.933361828327178955e-01 5.000000000000000000e+01
-1.102071762084960938e+00 -8.597944974899291992e-01 -2.439846470952033997e-02 2.400000000000000000e+01
-9.565380811691284180e-01 -7.462546229362487793e-01 3.250767290592194159e-01 6.100000000000000000e+01
-1.111584663391113059e+00 -8.647220730781555176e-01 -3.773581683635712225e-01 1.000000000000000000e+00
-1.068692445755005105e+00 -8.310560584068298340e-01 2.363055758178234100e-02 5.100000000000000000e+01
-1.059794664382935014e+00 -8.235433101654052734e-01 7.033952325582504272e-02 4.800000000000000000e+01
-1.036899328231811968e+00 -8.054616451263427734e-01 1.148712709546089034e-01 4.900000000000000000e+01
-1.008292078971863015e+00 -7.826753854751586914e-01 1.567239761352539062e-01 5.600000000000000000e+01
-1.111937642097472922e+00 -8.628181219100952148e-01 -1.728107333183289129e-01 1.000000000000000000e+00
-9.973855614662170410e-01 -7.736515402793884277e-01 1.999232470989227017e-01 6.500000000000000000e+01
-1.113027572631835938e+00 -8.633527159690856934e-01 -1.232382208108901978e-01 1.300000000000000000e+01
-9.882960915565490723e-01 -7.663248181343078613e-01 2.430906593799591064e-01 9.900000000000000000e+01
-1.100264310836791992e+00 -8.528375029563903809e-01 -7.295632362365722656e-02 4.600000000000000000e+01
-9.951190352439880371e-01 -7.710592746734619141e-01 2.906367480754851740e-01 3.600000000000000000e+01
-1.095580697059630904e+00 -8.485951423645019531e-01 -2.418903447687625885e-02 4.300000000000000000e+01
-9.669042825698852539e-01 -7.486572861671447754e-01 3.276649117469788153e-01 5.200000000000000000e+01
-1.119183182716370073e+00 -8.643791675567626953e-01 -3.789110779762268066e-01 1.100000000000000000e+01
-1.063672542572021040e+00 -8.212103247642517090e-01 2.345603518188000072e-02 5.000000000000000000e+01
-1.149326920509337935e+00 -8.870197534561157227e-01 -3.351770639419556219e-01 1.000000000000000000e+00
-1.050012111663817915e+00 -8.100789189338684082e-01 6.950215250253677368e-02 5.600000000000000000e+01
-1.039704561233520952e+00 -8.018372654914855957e-01 1.148712709546089034e-01 4.900000000000000000e+01
-1.017307281494141069e+00 -7.839979529380798340e-01 1.576989293098449985e-01 6.300000000000000000e+01
-1.103934764862060991e+00 -8.504512310028076172e-01 -1.711045652627944946e-01 1.400000000000000000e+01
-1.003075361251831055e+00 -7.727509140968322754e-01 2.005489915609360019e-01 6.800000000000000000e+01
-1.111298799514770952e+00 -8.558152914047241211e-01 -1.227152869105339050e-01 4.500000000000000000e+01
-9.862980246543884277e-01 -7.592775225639343262e-01 2.419458031654357910e-01 8.700000000000000000e+01
-1.101651787757873979e+00 -8.477736115455627441e-01 -7.285165041685104370e-02 4.900000000000000000e+01
-9.715464711189270020e-01 -7.473814487457275391e-01 2.829884290695189875e-01 4.700000000000000000e+01
-1.084269523620605025e+00 -8.337947130203247070e-01 -2.387489192187786102e-02 4.900000000000000000e+01
-9.755072593688964844e-01 -7.501573562622070312e-01 3.297354578971862793e-01 4.500000000000000000e+01
-1.123726606369018999e+00 -8.616427779197692871e-01 -3.794287145137786865e-01 4.200000000000000000e+01
-1.072881102561950906e+00 -8.223584294319152832e-01 2.359565347433089863e-02 5.200000000000000000e+01
-1.135400652885437012e+00 -8.699648380279541016e-01 -3.302281498908997137e-01 1.400000000000000000e+01
-1.051247835159301980e+00 -8.051943182945251465e-01 6.939747929573059082e-02 6.500000000000000000e+01
-1.131541252136230025e+00 -8.666943311691284180e-01 -2.770546674728394110e-01 1.000000000000000000e+00
-1.033005595207213911e+00 -7.909356951713562012e-01 1.138254031538963040e-01 5.500000000000000000e+01
-1.149812936782836914e+00 -8.800526857376098633e-01 -2.293329238891602118e-01 3.000000000000000000e+00
-1.016884684562683105e+00 -7.780296206474304199e-01 1.572114527225494107e-01 5.800000000000000000e+01
-1.108473420143126997e+00 -8.477985262870788574e-01 -1.713483035564422885e-01 3.800000000000000000e+01
-9.964852333068847656e-01 -7.618705034255981445e-01 1.986717730760574063e-01 6.500000000000000000e+01
-1.098451614379883035e+00 -8.398296236991882324e-01 -1.209721714258193970e-01 5.000000000000000000e+01
-9.951817989349365234e-01 -7.605987191200256348e-01 2.434722781181334894e-01 8.700000000000000000e+01
-1.095081806182861106e+00 -8.366477489471435547e-01 -7.222361862659454346e-02 5.300000000000000000e+01
-9.865391850471496582e-01 -7.534480094909667969e-01 2.865876555442810059e-01 4.900000000000000000e+01
-1.080815672874450906e+00 -8.251509666442871094e-01 -2.373527362942695965e-02 5.100000000000000000e+01
-9.736430048942565918e-01 -7.430608868598937988e-01 3.281825482845305841e-01 4.800000000000000000e+01
-1.109818935394287109e+00 -8.448433876037597656e-01 -3.737347126007080078e-01 4.800000000000000000e+01
-1.058240413665771040e+00 -8.052878379821777344e-01 2.321170084178448070e-02 5.500000000000000000e+01
-1.138430476188659890e+00 -8.659962415695190430e-01 -3.302281498908997137e-01 4.900000000000000000e+01
-1.054052114486693892e+00 -8.015198707580566406e-01 6.939747929573059082e-02 6.500000000000000000e+01
-1.114243865013123003e+00 -8.472907543182373047e-01 -2.720936238765717108e-01 1.300000000000000000e+01
-1.021484732627869096e+00 -7.764737010002136230e-01 1.122565940022468983e-01 5.600000000000000000e+01
-1.130858302116394043e+00 -8.593018651008605957e-01 -2.249527573585509976e-01 1.400000000000000000e+01
-1.032240390777587891e+00 -7.840812206268310547e-01 1.591613590717315951e-01 6.300000000000000000e+01
-1.105102181434630904e+00 -8.391222357749938965e-01 -1.703733354806900024e-01 4.200000000000000000e+01
-9.974330067634582520e-01 -7.573672533035278320e-01 1.983589082956314087e-01 6.500000000000000000e+01
-1.091854453086853027e+00 -8.287626504898071289e-01 -1.199263036251067976e-01 6.400000000000000000e+01
-1.008778691291809082e+00 -7.654272317886352539e-01 2.461436092853545865e-01 8.100000000000000000e+01
-1.093221783638000044e+00 -8.291991353034973145e-01 -7.190960645675659180e-02 5.400000000000000000e+01
-1.000033140182494895e+00 -7.582415342330932617e-01 2.897369563579558771e-01 4.500000000000000000e+01
-1.078908443450927956e+00 -8.177495002746582031e-01 -2.363055758178234100e-02 5.900000000000000000e+01
-9.761017560958862305e-01 -7.398280501365661621e-01 3.281825482845305841e-01 5.300000000000000000e+01
-1.109678745269774947e+00 -8.386347293853759766e-01 -3.726994395256041925e-01 5.000000000000000000e+01
-1.051471590995789018e+00 -7.943565845489501953e-01 2.300227247178554882e-02 5.500000000000000000e+01
-1.130560636520385964e+00 -8.537962436676025391e-01 -3.270788192749022882e-01 5.700000000000000000e+01
-1.061625599861145020e+00 -8.014457821846008301e-01 6.971149146556854248e-02 6.300000000000000000e+01
-1.129729866981505904e+00 -8.528591990470886230e-01 -2.751465737819672186e-01 3.900000000000000000e+01
-1.032140731811522993e+00 -7.789041399955749512e-01 1.131281554698943953e-01 6.100000000000000000e+01
-1.108619213104248047e+00 -8.363149762153625488e-01 -2.199468612670897882e-01 2.500000000000000000e+01
-1.014366745948791948e+00 -7.649354934692382812e-01 1.559927612543106079e-01 6.300000000000000000e+01
-1.108024477958678977e+00 -8.352596163749694824e-01 -1.703733354806900024e-01 4.700000000000000000e+01
-1.014267206192017046e+00 -7.645827531814575195e-01 2.011747211217879971e-01 6.600000000000000000e+01
-1.096331954002379927e+00 -8.261453509330749512e-01 -1.201006099581718028e-01 6.800000000000000000e+01
-1.005171895027161089e+00 -7.571763396263122559e-01 2.446171343326568881e-01 8.700000000000000000e+01
-1.088132023811340110e+00 -8.193709254264831543e-01 -7.138624787330627441e-02 5.800000000000000000e+01
-1.001116871833801047e+00 -7.535741329193115234e-01 2.892870604991912842e-01 5.900000000000000000e+01
-1.083354234695435014e+00 -8.151807785034179688e-01 -2.366546355187892914e-02 5.400000000000000000e+01
-9.771346449851989746e-01 -7.352547645568847656e-01 3.276649117469788153e-01 6.100000000000000000e+01
-1.115397691726685014e+00 -8.374642729759216309e-01 -3.737347126007080078e-01 5.400000000000000000e+01
-1.058759927749634011e+00 -7.946505546569824219e-01 2.310698665678501129e-02 5.300000000000000000e+01
-1.119208335876465066e+00 -8.397145867347717285e-01 -3.230297267436981201e-01 5.600000000000000000e+01
-1.059344768524169922e+00 -7.945115566253662109e-01 6.939747929573059082e-02 6.500000000000000000e+01
-1.137115359306335005e+00 -8.528397083282470703e-01 -2.762914299964904785e-01 5.500000000000000000e+01
-1.037770867347717063e+00 -7.780480384826660156e-01 1.134767755866050998e-01 5.900000000000000000e+01
-1.095433950424193892e+00 -8.209812641143798828e-01 -2.168181687593460083e-01 4.300000000000000000e+01
-1.016764879226685014e+00 -7.617449760437011719e-01 1.559927612543106079e-01 6.100000000000000000e+01
-1.099520802497863992e+00 -8.234449028968811035e-01 -1.686671674251556119e-01 5.100000000000000000e+01
-1.019959688186645952e+00 -7.635828256607055664e-01 2.018004655838012973e-01 6.600000000000000000e+01
-1.103706717491149902e+00 -8.262792229652404785e-01 -1.206235513091087064e-01 7.200000000000000000e+01
-1.005973815917968972e+00 -7.528384327888488770e-01 2.442355155944823941e-01 8.400000000000000000e+01
-1.076307415962219016e+00 -8.051807880401611328e-01 -7.044419646263122559e-02 5.500000000000000000e+01
-1.001918673515320046e+00 -7.492582798004150391e-01 2.888371646404265802e-01 7.200000000000000000e+01
-1.079503297805785911e+00 -8.069840669631958008e-01 -2.352584339678287853e-02 5.400000000000000000e+01
-9.949126839637756348e-01 -7.437482476234436035e-01 3.328412771224976141e-01 6.500000000000000000e+01
-1.116765260696410911e+00 -8.324111700057983398e-01 -3.732170760631560724e-01 5.600000000000000000e+01
-1.064734339714050071e+00 -7.933394908905029297e-01 2.317679487168788910e-02 5.400000000000000000e+01
-1.114318370819092019e+00 -8.299823403358459473e-01 -3.207802176475524902e-01 5.800000000000000000e+01
-1.049295902252197044e+00 -7.812666893005371094e-01 6.856010109186172485e-02 6.000000000000000000e+01
-1.121188998222351074e+00 -8.347956538200378418e-01 -2.717120051383972168e-01 5.500000000000000000e+01
-1.037283778190613015e+00 -7.720416188240051270e-01 1.131281554698943953e-01 6.100000000000000000e+01
-1.096708297729491965e+00 -8.159733414649963379e-01 -2.165053039789200107e-01 6.200000000000000000e+01
-1.027381896972656028e+00 -7.641145586967468262e-01 1.572114527225494107e-01 6.300000000000000000e+01
-1.091237068176269975e+00 -8.113110661506652832e-01 -1.669609993696213046e-01 5.400000000000000000e+01
-1.027375340461730957e+00 -7.635527849197387695e-01 2.027390599250792902e-01 6.500000000000000000e+01
-1.100187897682189941e+00 -8.176676034927368164e-01 -1.199263036251067976e-01 7.200000000000000000e+01
-1.019627094268799050e+00 -7.575180530548095703e-01 2.469068467617034912e-01 8.700000000000000000e+01
-1.072697639465332031e+00 -7.966555953025817871e-01 -7.002551108598709106e-02 4.900000000000000000e+01
-1.001398682594299094e+00 -7.434331178665161133e-01 2.879373431205750067e-01 7.200000000000000000e+01
-1.071072936058043990e+00 -7.948690056800842285e-01 -2.328151091933250080e-02 5.500000000000000000e+01
-9.945288896560668945e-01 -7.377946972846984863e-01 3.318060040473937988e-01 6.600000000000000000e+01
-1.109079957008362038e+00 -8.200770020484924316e-01 -3.695935904979705811e-01 5.200000000000000000e+01
-1.064556479454040971e+00 -7.868681550025939941e-01 2.310698665678501129e-02 6.000000000000000000e+01
-1.120631694793700950e+00 -8.280137181282043457e-01 -3.216800093650817871e-01 5.800000000000000000e+01
-1.045861840248107910e+00 -7.724854946136474609e-01 6.814141571521759033e-02 6.000000000000000000e+01
-1.122806906700134055e+00 -8.293180465698242188e-01 -2.713303864002227783e-01 5.600000000000000000e+01
-1.032226443290710005e+00 -7.621358633041381836e-01 1.122565940022468983e-01 6.400000000000000000e+01
-1.098243951797484907e+00 -8.105831742286682129e-01 -2.161924242973327914e-01 6.700000000000000000e+01
-1.023918747901916948e+00 -7.554498910903930664e-01 1.562364995479584018e-01 6.600000000000000000e+01
-1.092746734619141069e+00 -8.059367537498474121e-01 -1.667172610759735107e-01 5.200000000000000000e+01
-1.015989780426024947e+00 -7.490522861480712891e-01 1.999232470989227017e-01 6.500000000000000000e+01
-1.096904754638672097e+00 -8.087078928947448730e-01 -1.192290559411049028e-01 7.700000000000000000e+01
-1.017786979675292969e+00 -7.501031160354614258e-01 2.457619905471802035e-01 8.100000000000000000e+01
-1.083788633346558061e+00 -7.984541058540344238e-01 -7.054886966943740845e-02 4.800000000000000000e+01
-1.007384061813354048e+00 -7.418937683105468750e-01 2.888371646404265802e-01 7.100000000000000000e+01
-1.062844514846801980e+00 -7.824518084526062012e-01 -2.303717657923698078e-02 5.900000000000000000e+01
-9.941148757934570312e-01 -7.318540215492248535e-01 3.307707309722899836e-01 7.300000000000000000e+01
-1.101034402847290039e+00 -8.081986308097839355e-01 -3.659701347351074219e-01 5.200000000000000000e+01
-1.062460064888000044e+00 -7.795983552932739258e-01 2.300227247178554882e-02 6.300000000000000000e+01
-1.125086426734924094e+00 -8.252494931221008301e-01 -3.221299052238463800e-01 6.300000000000000000e+01
-1.061437368392943892e+00 -7.782780528068542480e-01 6.897879391908645630e-02 5.800000000000000000e+01
-1.122528433799744096e+00 -8.230718970298767090e-01 -2.705671489238739014e-01 5.600000000000000000e+01
-1.034880518913269043e+00 -7.585280537605285645e-01 1.122565940022468983e-01 6.400000000000000000e+01
-1.099473237991333008e+00 -8.055771589279174805e-01 -2.158795595169067105e-01 6.100000000000000000e+01
-1.036158442497252974e+00 -7.589089274406433105e-01 1.576989293098449985e-01 6.600000000000000000e+01
-1.095553278923034890e+00 -8.021174669265747070e-01 -1.667172610759735107e-01 5.200000000000000000e+01
-1.023380517959594949e+00 -7.490012645721435547e-01 2.008618563413619995e-01 6.300000000000000000e+01
-1.090074300765990989e+00 -7.978137731552124023e-01 -1.181831881403923035e-01 7.500000000000000000e+01
-1.015645742416382058e+00 -7.430680990219116211e-01 2.446171343326568881e-01 9.100000000000000000e+01
-1.080120682716370073e+00 -7.899500131607055664e-01 -7.013018429279327393e-02 4.700000000000000000e+01
-1.016260266304015891e+00 -7.429732680320739746e-01 2.906367480754851740e-01 7.100000000000000000e+01
-1.068798303604125977e+00 -7.810968160629272461e-01 -2.310698665678501129e-02 5.900000000000000000e+01
-9.966635107994079590e-01 -7.283794283866882324e-01 3.307707309722899836e-01 7.200000000000000000e+01
-1.105269551277161089e+00 -8.056809902191162109e-01 -3.664877712726593018e-01 5.300000000000000000e+01
-1.050494074821471946e+00 -7.654719352722167969e-01 2.268812805414199829e-02 6.000000000000000000e+01
-1.119941115379333052e+00 -8.157772421836853027e-01 -3.198803961277008057e-01 6.500000000000000000e+01
-1.068720221519469993e+00 -7.784674167633056641e-01 6.929280608892440796e-02 5.600000000000000000e+01
-1.125251650810241921e+00 -8.193449378013610840e-01 -2.705671489238739014e-01 5.600000000000000000e+01
-1.034168481826782005e+00 -7.527471184730529785e-01 1.119079738855361938e-01 6.900000000000000000e+01
-1.092554807662964089e+00 -7.949534654617309570e-01 -2.140023410320281982e-01 6.300000000000000000e+01
-1.027431845664978027e+00 -7.472952008247375488e-01 1.559927612543106079e-01 6.300000000000000000e+01
-1.101418256759643999e+00 -8.008148074150085449e-01 -1.672047376632689875e-01 5.200000000000000000e+01
-1.028923869132996050e+00 -7.481058835983276367e-01 2.014875859022141058e-01 6.200000000000000000e+01
-1.099160671234131081e+00 -7.988801002502441406e-01 -1.188804358243941983e-01 7.200000000000000000e+01
-1.018104195594788042e+00 -7.396960258483886719e-01 2.446171343326568881e-01 8.400000000000000000e+01
-1.076270222663878950e+00 -7.816691398620605469e-01 -6.971149146556854248e-02 5.200000000000000000e+01
-1.023449420928955078e+00 -7.430338263511657715e-01 2.919864654541016180e-01 6.900000000000000000e+01
-1.071382641792296919e+00 -7.775482535362243652e-01 -2.310698665678501129e-02 5.900000000000000000e+01
-1.011581420898437944e+00 -7.341479659080505371e-01 3.349118530750275213e-01 6.600000000000000000e+01
-1.109640240669250044e+00 -8.029505014419555664e-01 -3.670054078102111816e-01 5.400000000000000000e+01
-1.061260938644408958e+00 -7.676603794097900391e-01 2.286265231668949127e-02 6.300000000000000000e+01
-1.106990337371825950e+00 -8.004443049430847168e-01 -3.153813779354094904e-01 5.900000000000000000e+01
-1.058616876602173074e+00 -7.651850581169128418e-01 6.845542788505554199e-02 6.100000000000000000e+01
-1.139242649078368919e+00 -8.234626650810241699e-01 -2.732384800910950262e-01 6.400000000000000000e+01
-1.041634559631348100e+00 -7.526332139968872070e-01 1.124309077858925005e-01 7.200000000000000000e+01
-1.098525762557982954e+00 -7.934481501579284668e-01 -2.146280854940413874e-01 5.300000000000000000e+01
-1.021986961364746094e+00 -7.378939986228942871e-01 1.547740697860718051e-01 6.600000000000000000e+01
-1.097768425941467063e+00 -7.923182249069213867e-01 -1.662297844886780063e-01 5.600000000000000000e+01
-1.034862875938415971e+00 -7.466412186622619629e-01 2.021133303642272949e-01 6.200000000000000000e+01
-1.100326776504517046e+00 -7.938726544380187988e-01 -1.187061220407485962e-01 6.800000000000000000e+01
-1.041380286216736062e+00 -7.510671615600585938e-01 2.495781630277633945e-01 8.400000000000000000e+01
-1.062791109085083008e+00 -7.662271857261657715e-01 -6.866477429866790771e-02 5.300000000000000000e+01
-1.026036858558655007e+00 -7.394567728042602539e-01 2.919864654541016180e-01 6.900000000000000000e+01
-1.085447669029236062e+00 -7.819859385490417480e-01 -2.335131913423537861e-02 6.500000000000000000e+01
-1.020535945892333984e+00 -7.349511981010437012e-01 3.369823992252349854e-01 6.600000000000000000e+01
-1.110867261886596902e+00 -7.979452013969421387e-01 -3.664877712726593018e-01 5.200000000000000000e+01
-1.068807125091552956e+00 -7.674502134323120117e-01 2.296736650168896068e-02 5.900000000000000000e+01
-1.112943887710571067e+00 -7.988480329513549805e-01 -3.162811696529387873e-01 5.900000000000000000e+01
-1.048168063163757102e+00 -7.523533105850219727e-01 6.761805713176727295e-02 5.700000000000000000e+01
-1.122968673706054910e+00 -8.057466745376586914e-01 -2.686590552330017090e-01 6.100000000000000000e+01
-1.047493338584899902e+00 -7.513151168823242188e-01 1.127795279026030939e-01 7.200000000000000000e+01
-1.109315633773803933e+00 -7.953639030456542969e-01 -2.161924242973327914e-01 4.600000000000000000e+01
-1.034237384796143022e+00 -7.412605881690979004e-01 1.562364995479584018e-01 6.500000000000000000e+01
-1.084390640258789062e+00 -7.769201397895812988e-01 -1.637924015522002896e-01 5.500000000000000000e+01
-1.034250855445862038e+00 -7.407239675521850586e-01 2.014875859022141058e-01 6.500000000000000000e+01
-1.106330871582031028e+00 -7.923471927642822266e-01 -1.190547421574593007e-01 7.200000000000000000e+01
-1.029628753662108931e+00 -7.371417880058288574e-01 2.461436092853545865e-01 8.400000000000000000e+01
-1.070331811904907005e+00 -7.659997940063476562e-01 -6.897879391908645630e-02 5.600000000000000000e+01
-1.025441884994507058e+00 -7.336030602455139160e-01 2.910866737365723211e-01 6.600000000000000000e+01
-1.076784729957581010e+00 -7.700497508049011230e-01 -2.310698665678501129e-02 6.700000000000000000e+01
-1.043395400047302024e+00 -7.461717128753662109e-01 3.437117040157318115e-01 6.800000000000000000e+01
-1.108927011489867942e+00 -7.906979918479919434e-01 -3.649348616600037176e-01 5.400000000000000000e+01
-1.063337564468384011e+00 -7.579114437103271484e-01 2.279284223914146076e-02 6.300000000000000000e+01
-1.117312669754028098e+00 -7.960890531539916992e-01 -3.167310953140258789e-01 6.000000000000000000e+01
-1.050787925720215066e+00 -7.486898899078369141e-01 6.761805713176727295e-02 5.700000000000000000e+01
-1.117778897285460982e+00 -7.961270809173583984e-01 -2.667509615421295166e-01 6.000000000000000000e+01
-1.046863436698914018e+00 -7.453429698944091797e-01 1.124309077858925005e-01 7.300000000000000000e+01
-1.116913318634032981e+00 -7.949231266975402832e-01 -2.171310335397720059e-01 4.700000000000000000e+01
-1.040053486824036089e+00 -7.399474978446960449e-01 1.567239761352539062e-01 5.900000000000000000e+01
-1.090331435203552024e+00 -7.754311561584472656e-01 -1.642798781394957941e-01 5.500000000000000000e+01
-1.033610224723815918e+00 -7.348200678825378418e-01 2.008618563413619995e-01 6.300000000000000000e+01
-1.097722887992859109e+00 -7.803995013236999512e-01 -1.178345605731010021e-01 7.500000000000000000e+01
-1.036996483802794966e+00 -7.369550466537475586e-01 2.472884505987167081e-01 8.100000000000000000e+01
-1.072999119758605957e+00 -7.622590065002441406e-01 -6.897879391908645630e-02 5.600000000000000000e+01
-1.034351944923401101e+00 -7.345323562622070312e-01 2.928862869739531916e-01 5.900000000000000000e+01
-1.076205015182494895e+00 -7.639712691307067871e-01 -2.303717657923698078e-02 6.900000000000000000e+01
-1.042843103408813032e+00 -7.402885556221008301e-01 3.426764011383057196e-01 6.900000000000000000e+01
-1.103796124458312988e+00 -7.812420129776000977e-01 -3.623466491699218750e-01 5.700000000000000000e+01
-1.064344286918639915e+00 -7.530400753021240234e-01 2.275793813169002880e-02 6.000000000000000000e+01
-1.120084762573241965e+00 -7.921840548515319824e-01 -3.167310953140258789e-01 6.000000000000000000e+01
-1.060048341751099077e+00 -7.494454979896545410e-01 6.803674250841140747e-02 5.700000000000000000e+01
-1.122154116630553977e+00 -7.933538556098937988e-01 -2.671325802803040106e-01 6.300000000000000000e+01
-1.039696455001831055e+00 -7.347847819328308105e-01 1.113850399851799011e-01 7.300000000000000000e+01
-1.118067979812622070e+00 -7.898797392845153809e-01 -2.168181687593460083e-01 4.600000000000000000e+01
-1.058845162391663042e+00 -7.477636933326721191e-01 1.591613590717315951e-01 6.500000000000000000e+01
-1.094653248786926047e+00 -7.727653384208679199e-01 -1.645236164331435880e-01 5.700000000000000000e+01
-1.042496323585510032e+00 -7.359454035758972168e-01 2.021133303642272949e-01 6.200000000000000000e+01
-1.090673089027405007e+00 -7.696703672409057617e-01 -1.167886927723884999e-01 8.500000000000000000e+01
-1.060418009757996050e+00 -7.480426430702209473e-01 2.522494792938231867e-01 8.700000000000000000e+01
-1.082182407379149947e+00 -7.631128430366516113e-01 -6.939747929573059082e-02 6.600000000000000000e+01
-1.046466350555419922e+00 -7.376539111137390137e-01 2.955856919288635254e-01 5.600000000000000000e+01
-1.083769083023071067e+00 -7.636654973030090332e-01 -2.314189076423645020e-02 7.100000000000000000e+01
-1.045549392700195090e+00 -7.364613413810729980e-01 3.426764011383057196e-01 7.000000000000000000e+01
-1.111258625984191895e+00 -7.807159423828125000e-01 -3.638995885848999023e-01 5.400000000000000000e+01
-1.060420513153075950e+00 -7.447232007980346680e-01 2.261831797659397125e-02 5.900000000000000000e+01
-1.119653224945067915e+00 -7.860299944877624512e-01 -3.158312737941741943e-01 6.100000000000000000e+01
-1.065797090530395952e+00 -7.482213377952575684e-01 6.824608892202377319e-02 6.100000000000000000e+01
-1.131344676017761008e+00 -7.939429879188537598e-01 -2.686590552330017090e-01 6.700000000000000000e+01
-1.038992881774901900e+00 -7.288627028465270996e-01 1.110364198684691966e-01 7.300000000000000000e+01
-1.106262207031250000e+00 -7.757647037506103516e-01 -2.140023410320281982e-01 4.400000000000000000e+01
-1.045193910598755105e+00 -7.326685786247253418e-01 1.567239761352539062e-01 6.100000000000000000e+01
-1.098969697952270952e+00 -7.700787186622619629e-01 -1.647673547267914096e-01 5.500000000000000000e+01
-1.056512236595154031e+00 -7.400527000427246094e-01 2.043034136295318881e-01 6.500000000000000000e+01
-1.094985008239746094e+00 -7.670016288757324219e-01 -1.169630065560341020e-01 8.900000000000000000e+01
-1.040507912635803001e+00 -7.285714745521545410e-01 2.469068467617034912e-01 8.200000000000000000e+01
-1.078294515609740989e+00 -7.547495365142822266e-01 -6.897879391908645630e-02 6.600000000000000000e+01
-1.049034833908081055e+00 -7.339965701103210449e-01 2.955856919288635254e-01 6.200000000000000000e+01
-1.084789514541625977e+00 -7.587316632270812988e-01 -2.310698665678501129e-02 6.900000000000000000e+01
-1.051280260086060014e+00 -7.350211143493652344e-01 3.437117040157318115e-01 7.000000000000000000e+01
-1.115561723709106001e+00 -7.779371738433837891e-01 -3.644172251224517822e-01 5.700000000000000000e+01
-1.067934989929198997e+00 -7.444477081298828125e-01 2.272303402423858990e-02 6.300000000000000000e+01
-1.109599471092223899e+00 -7.732038497924804688e-01 -3.122320771217346191e-01 6.300000000000000000e+01
-1.063486337661742942e+00 -7.410708069801330566e-01 6.793206930160522461e-02 6.000000000000000000e+01
-1.137331128120421919e+00 -7.922332882881164551e-01 -2.694222927093505859e-01 6.300000000000000000e+01
-1.054611206054687944e+00 -7.343395352363586426e-01 1.124309077858925005e-01 7.200000000000000000e+01
-1.102478265762329102e+00 -7.673843502998352051e-01 -2.127508670091629028e-01 3.900000000000000000e+01
-1.051004052162169966e+00 -7.312832474708557129e-01 1.572114527225494107e-01 6.500000000000000000e+01
-1.098391771316528098e+00 -7.639709115028381348e-01 -1.642798781394957941e-01 5.400000000000000000e+01
-1.062203884124756081e+00 -7.388010025024414062e-01 2.049291431903839111e-01 6.800000000000000000e+01
-1.094383955001831055e+00 -7.608999609947204590e-01 -1.166143864393233975e-01 8.500000000000000000e+01
-1.041432619094849077e+00 -7.238144874572753906e-01 2.465252280235291082e-01 8.500000000000000000e+01
-1.066160321235656960e+00 -7.407248020172119141e-01 -6.803674250841140747e-02 6.900000000000000000e+01
-1.053191184997559038e+00 -7.314418554306030273e-01 2.960355877876281738e-01 6.500000000000000000e+01
-1.098929882049560991e+00 -7.629231810569763184e-01 -2.335131913423537861e-02 7.100000000000000000e+01
-1.063362240791321023e+00 -7.379555702209472656e-01 3.468175232410430908e-01 6.800000000000000000e+01
-1.116681933403014915e+00 -7.729389071464538574e-01 -3.638995885848999023e-01 5.400000000000000000e+01
-1.070527076721190962e+00 -7.407153844833374023e-01 2.272303402423858990e-02 6.300000000000000000e+01
-1.112291693687438965e+00 -7.693259119987487793e-01 -3.122320771217346191e-01 6.900000000000000000e+01
-1.064424037933350053e+00 -7.362179160118103027e-01 6.782739609479904175e-02 6.300000000000000000e+01
-1.128785610198975053e+00 -7.804428935050964355e-01 -2.667509615421295166e-01 6.500000000000000000e+01
-1.065363168716431108e+00 -7.363178133964538574e-01 1.133024692535399974e-01 6.900000000000000000e+01
-1.114901542663573997e+00 -7.702683806419372559e-01 -2.146280854940413874e-01 4.200000000000000000e+01
-1.043749809265136941e+00 -7.208416461944580078e-01 1.557490229606627863e-01 5.900000000000000000e+01
-1.099418282508850098e+00 -7.590044140815734863e-01 -1.640361398458481113e-01 5.300000000000000000e+01
-1.061525106430053933e+00 -7.328441143035888672e-01 2.043034136295318881e-01 6.500000000000000000e+01
-1.101952791213989036e+00 -7.604702115058898926e-01 -1.171373203396797041e-01 7.200000000000000000e+01
-1.056881070137023926e+00 -7.290933728218078613e-01 2.495781630277633945e-01 8.100000000000000000e+01
-1.075316309928894043e+00 -7.415340542793273926e-01 -6.845542788505554199e-02 6.900000000000000000e+01
-1.044506788253783958e+00 -7.200189232826232910e-01 2.928862869739531916e-01 5.900000000000000000e+01
-1.086766719818115012e+00 -7.488706707954406738e-01 -2.303717657923698078e-02 6.700000000000000000e+01
-1.073886394500731978e+00 -7.397186160087585449e-01 3.494057059288024902e-01 7.200000000000000000e+01
-1.120965480804442915e+00 -7.701302170753479004e-01 -3.644172251224517822e-01 5.700000000000000000e+01
-1.079699754714966042e+00 -7.415023446083068848e-01 2.286265231668949127e-02 6.300000000000000000e+01
-1.121396660804748979e+00 -7.698503732681274414e-01 -3.140316605567932129e-01 6.700000000000000000e+01
-1.065340876579284890e+00 -7.313675284385681152e-01 6.772273033857345581e-02 6.500000000000000000e+01
-1.125028014183043990e+00 -7.720544338226318359e-01 -2.652245163917542059e-01 6.500000000000000000e+01
-1.062998056411742942e+00 -7.292132973670959473e-01 1.127795279026030939e-01 6.100000000000000000e+01
-1.124099969863892046e+00 -7.708405852317810059e-01 -2.158795595169067105e-01 4.400000000000000000e+01
-1.067545056343079057e+00 -7.317846417427062988e-01 1.589176207780838013e-01 6.100000000000000000e+01
-1.100423455238342063e+00 -7.540400028228759766e-01 -1.637924015522002896e-01 5.500000000000000000e+01
-1.057558655738831010e+00 -7.246679067611694336e-01 2.030519396066665927e-01 6.700000000000000000e+01
-1.098025560379028098e+00 -7.521153688430786133e-01 -1.164400726556777954e-01 6.800000000000000000e+01
-1.080478429794311968e+00 -7.398189902305603027e-01 2.545391917228698730e-01 8.700000000000000000e+01
-1.077898144721985085e+00 -7.377759814262390137e-01 -6.845542788505554199e-02 7.200000000000000000e+01
-1.051838636398314986e+00 -7.196698188781738281e-01 2.942359745502471924e-01 5.400000000000000000e+01
-1.087723612785338911e+00 -7.439436912536621094e-01 -2.300227247178554882e-02 7.100000000000000000e+01
-1.071549773216248003e+00 -7.328816652297973633e-01 3.478527963161469061e-01 7.700000000000000000e+01
-1.114070415496825950e+00 -7.596823573112487793e-01 -3.613113760948181152e-01 5.700000000000000000e+01
-1.078976869583130105e+00 -7.354763150215148926e-01 2.279284223914146076e-02 6.400000000000000000e+01
-1.125687599182128906e+00 -7.670286297798156738e-01 -3.144815862178801935e-01 6.500000000000000000e+01
-1.064586281776428001e+00 -7.253950238227844238e-01 6.751338392496109009e-02 6.400000000000000000e+01
-1.124470829963684082e+00 -7.659122347831726074e-01 -2.644612789154052734e-01 5.900000000000000000e+01
-1.050714969635009988e+00 -7.154063582420349121e-01 1.112107262015342990e-01 6.400000000000000000e+01
-1.118618845939636008e+00 -7.613546848297119141e-01 -2.143152207136153897e-01 4.200000000000000000e+01
-1.076657891273498979e+00 -7.325203418731689453e-01 1.598925739526748935e-01 5.900000000000000000e+01
-1.103048801422118919e+00 -7.501941919326782227e-01 -1.637924015522002896e-01 5.500000000000000000e+01
-1.066615462303162065e+00 -7.254155278205871582e-01 2.043034136295318881e-01 6.800000000000000000e+01
-1.087462902069092019e+00 -7.393165230751037598e-01 -1.150455772876740057e-01 7.000000000000000000e+01
-1.071687936782836914e+00 -7.283183336257934570e-01 2.518678605556488037e-01 8.100000000000000000e+01
-1.095335721969604048e+00 -7.441099882125854492e-01 -6.939747929573059082e-02 7.400000000000000000e+01
-1.043059349060059038e+00 -7.083302736282348633e-01 2.910866737365723211e-01 5.100000000000000000e+01
-1.091968297958374023e+00 -7.412654161453247070e-01 -2.303717657923698078e-02 6.900000000000000000e+01
-1.071031570434570090e+00 -7.267798185348510742e-01 3.468175232410430908e-01 8.000000000000000000e+01
-1.118183135986327903e+00 -7.570669054985046387e-01 -3.618290126323699951e-01 5.900000000000000000e+01
-1.071473479270935059e+00 -7.251693606376647949e-01 2.258341386914252888e-02 6.300000000000000000e+01
-1.123382806777954102e+00 -7.600155472755432129e-01 -3.131318688392639160e-01 6.900000000000000000e+01
-1.078693032264709029e+00 -7.295066118240356445e-01 6.824608892202377319e-02 6.300000000000000000e+01
-1.128630757331847922e+00 -7.632789611816406250e-01 -2.648428976535797119e-01 6.300000000000000000e+01
-1.054732203483581987e+00 -7.130339741706848145e-01 1.113850399851799011e-01 5.900000000000000000e+01
-1.111317157745361106e+00 -7.510047554969787598e-01 -2.124380022287369052e-01 4.100000000000000000e+01
-1.072501420974731001e+00 -7.245011925697326660e-01 1.589176207780838013e-01 6.100000000000000000e+01
-1.115401268005371094e+00 -7.531977295875549316e-01 -1.652548313140868863e-01 5.400000000000000000e+01
-1.075563430786133035e+00 -7.262963652610778809e-01 2.055548876523972113e-01 6.800000000000000000e+01
-1.088257193565369096e+00 -7.345916032791137695e-01 -1.148712709546089034e-01 7.900000000000000000e+01
-1.056195616722106934e+00 -7.126811742782592773e-01 2.476700693368912021e-01 8.200000000000000000e+01
-1.096141457557678001e+00 -7.393567562103271484e-01 -6.929280608892440796e-02 6.700000000000000000e+01
-1.045402526855468972e+00 -7.048674821853637695e-01 2.910866737365723211e-01 5.000000000000000000e+01
-1.094420433044434038e+00 -7.376402020454406738e-01 -2.303717657923698078e-02 6.700000000000000000e+01
-1.086125254631042036e+00 -7.320492267608642578e-01 3.509586155414580744e-01 8.200000000000000000e+01
-1.127232789993285911e+00 -7.574689984321594238e-01 -3.638995885848999023e-01 5.700000000000000000e+01
-1.073998212814331055e+00 -7.214248180389404297e-01 2.258341386914252888e-02 6.400000000000000000e+01
-1.126028895378113015e+00 -7.560895681381225586e-01 -3.131318688392639160e-01 6.900000000000000000e+01
-1.079574584960937944e+00 -7.246237397193908691e-01 6.814141571521759033e-02 6.500000000000000000e+01
-1.134548425674438032e+00 -7.615229487419128418e-01 -2.656061351299285889e-01 6.300000000000000000e+01
-1.068796038627624956e+00 -7.171185612678527832e-01 1.126052215695381026e-01 6.200000000000000000e+01
