8.104018211364746094e+00 2.872967243194580078e+00 -4.506125748157501221e-01 1.000000000000000000e+00
3.667270660400391336e+01 1.299368953704833984e+01 8.982295989990234375e+00 1.200000000000000000e+01
1.386979961395264027e+01 4.911553382873535156e+00 -2.568296194076538086e-01 2.000000000000000000e+00
2.150023937225341797e+00 7.575647830963134766e-01 -6.108129620552062988e-01 1.500000000000000000e+01
4.033171844482421875e+01 1.420303916931151988e+01 7.463696002960205078e-01 4.200000000000000000e+01
2.490772962570189986e+00 8.766509890556335449e-01 -6.096173524856567383e-01 1.500000000000000000e+01
2.881732940673828125e+00 1.013687849044800027e+00 -5.937975645065307617e-01 1.300000000000000000e+01
3.458985805511475053e+00 1.215387582778931108e+00 -5.806847214698791504e-01 9.000000000000000000e+00
4.323053836822509766e+00 1.517300844192505105e+00 -5.625488758087158203e-01 1.100000000000000000e+01
5.619541168212890625e+00 1.971239089965820090e+00 -5.210170149803161621e-01 8.000000000000000000e+00
8.084335327148437500e+00 2.832678079605102983e+00 -4.489378333091735840e-01 1.000000000000000000e+00
3.667594146728516336e+01 1.284373188018799006e+01 8.971497535705566406e+00 1.200000000000000000e+01
1.386505889892577947e+01 4.852757930755615234e+00 -2.564107477664948065e-01 2.000000000000000000e+00
3.703861999511718750e+01 1.296348285675049006e+01 1.051478290557860973e+01 9.000000000000000000e+00
2.163600921630858931e+00 7.538689970970153809e-01 -6.139187812805175781e-01 1.900000000000000000e+01
2.480934619903564009e+00 8.634673357009887695e-01 -6.064680218696594238e-01 1.300000000000000000e+01
2.892671108245850053e+00 1.006202578544616921e+00 -5.953240394592285156e-01 1.300000000000000000e+01
3.455743312835692915e+00 1.200712680816649947e+00 -5.794332623481750488e-01 9.000000000000000000e+00
4.332074165344238281e+00 1.503503084182739036e+00 -5.630363821983337402e-01 1.100000000000000000e+01
5.639564037322998047e+00 1.956181764602660911e+00 -5.222371816635131836e-01 1.000000000000000000e+00
8.116820335388183594e+00 2.812287569046020952e+00 -4.501938819885253906e-01 1.000000000000000000e+00
1.394616413116455078e+01 4.826566696166992188e+00 -2.575975060462952215e-01 2.000000000000000000e+00
2.171437501907349077e+00 7.489578723907470703e-01 -6.154716610908508301e-01 1.600000000000000000e+01
2.481792688369750977e+00 8.550342321395874023e-01 -6.060181260108947754e-01 1.200000000000000000e+01
2.903243064880371094e+00 9.996667504310607910e-01 -5.968505144119262695e-01 1.200000000000000000e+01
3.465102434158325195e+00 1.191777586936950906e+00 -5.803718566894531250e-01 9.000000000000000000e+00
4.340531349182128906e+00 1.491176009178162065e+00 -5.635238289833068848e-01 1.100000000000000000e+01
5.621184825897216797e+00 1.930043697357177956e+00 -5.199711322784423828e-01 6.000000000000000000e+00
8.125615119934082031e+00 2.786773920059204102e+00 -4.501938819885253906e-01 2.000000000000000000e+00
1.397260951995849965e+01 4.786618232727050781e+00 -2.578069567680358887e-01 2.000000000000000000e+00
2.181352376937866211e+00 7.438676953315734863e-01 -6.175422668457031250e-01 1.500000000000000000e+01
2.482917308807373047e+00 8.457376360893249512e-01 -6.055682301521301270e-01 1.400000000000000000e+01
2.899280786514281782e+00 9.869956970214843750e-01 -5.953240394592285156e-01 1.300000000000000000e+01
3.474852085113524947e+00 1.181582689285278098e+00 -5.813104510307312012e-01 9.000000000000000000e+00
4.334432125091552734e+00 1.472185134887695090e+00 -5.620614290237426758e-01 1.100000000000000000e+01
5.654300689697265625e+00 1.919376492500304954e+00 -5.224115252494812012e-01 8.000000000000000000e+00
8.154208183288574219e+00 2.764806747436522993e+00 -4.512406289577484131e-01 2.000000000000000000e+00
3.683360671997070312e+01 1.248182010650634943e+01 8.978696823120117188e+00 1.200000000000000000e+01
1.399680900573729936e+01 4.740381240844726562e+00 -2.579465806484221857e-01 2.000000000000000000e+00
2.172951936721802202e+00 7.325459718704223633e-01 -6.144363880157470703e-01 1.600000000000000000e+01
2.498782396316527876e+00 8.414187431335449219e-01 -6.087175607681274414e-01 1.200000000000000000e+01
2.897126197814940962e+00 9.749906659126281738e-01 -5.941792130470275879e-01 1.300000000000000000e+01
3.490189790725708008e+00 1.173222541809082031e+00 -5.831876993179321289e-01 9.000000000000000000e+00
4.343308448791503906e+00 1.458309888839721902e+00 -5.625488758087158203e-01 1.100000000000000000e+01
5.655299663543701172e+00 1.897726058959960938e+00 -5.218886137008666992e-01 9.000000000000000000e+00
8.163809776306152344e+00 2.736326456069945845e+00 -4.512406289577484131e-01 1.000000000000000000e+00
1.401327037811278942e+01 4.691494464874267578e+00 -2.579465806484221857e-01 2.000000000000000000e+00
2.171830177307128906e+00 7.237349748611450195e-01 -6.134011149406433105e-01 1.800000000000000000e+01
2.499855279922484907e+00 8.320757746696472168e-01 -6.082676649093627930e-01 1.200000000000000000e+01
2.907963514328002930e+00 9.673506617546081543e-01 -5.957056879997253418e-01 1.300000000000000000e+01
3.490514755249022993e+00 1.159786581993103027e+00 -5.825619697570800781e-01 9.000000000000000000e+00
4.354024410247802734e+00 1.445015907287598100e+00 -5.632801055908203125e-01 1.100000000000000000e+01
5.671344757080078125e+00 1.881110072135925071e+00 -5.227601528167724609e-01 9.000000000000000000e+00
8.211229324340820312e+00 2.720375061035155806e+00 -4.533340632915496826e-01 2.000000000000000000e+00
3.900291442871093750e+01 1.291408634185791016e+01 9.485285758972167969e+00 1.200000000000000000e+01
1.406753063201903942e+01 4.655114650726318359e+00 -2.586446702480316162e-01 2.000000000000000000e+00
2.178013086318970171e+00 7.173581719398498535e-01 -6.144363880157470703e-01 1.500000000000000000e+01
2.510149002075194868e+00 8.257805109024047852e-01 -6.100672483444213867e-01 1.300000000000000000e+01
2.911322355270386186e+00 9.571940898895263672e-01 -5.957056879997253418e-01 1.300000000000000000e+01
3.494541883468627930e+00 1.147595405578613059e+00 -5.825619697570800781e-01 9.000000000000000000e+00
4.359042167663574219e+00 1.429808735847472922e+00 -5.632801055908203125e-01 1.100000000000000000e+01
5.685449600219726562e+00 1.863784432411194070e+00 -5.234574079513549805e-01 9.000000000000000000e+00
8.171324729919433594e+00 2.675537109375000000e+00 -4.506125748157501221e-01 1.000000000000000000e+00
3.923296356201171875e+01 1.283846950531006037e+01 9.530276298522949219e+00 1.200000000000000000e+01
1.411790561676025035e+01 4.617170333862304688e+00 -2.592729628086090088e-01 2.000000000000000000e+00
3.533139038085938211e+01 1.154807853698729936e+01 9.959874153137207031e+00 8.000000000000000000e+00
2.180503845214844194e+00 7.097511291503906250e-01 -6.144363880157470703e-01 1.500000000000000000e+01
2.511162996292113814e+00 8.164108991622924805e-01 -6.096173524856567383e-01 1.300000000000000000e+01
2.923981666564940962e+00 9.500592350959777832e-01 -5.976137518882751465e-01 1.200000000000000000e+01
3.498526334762572798e+00 1.135390162467956987e+00 -5.825619697570800781e-01 9.000000000000000000e+00
3.647921752929688211e+01 1.183170223236083984e+01 4.708787918090820312e+00 2.000000000000000000e+01
4.365894794464111328e+00 1.415196180343627930e+00 -5.635238289833068848e-01 1.100000000000000000e+01
5.695711612701416016e+00 1.845155239105225053e+00 -5.238060355186462402e-01 9.000000000000000000e+00
8.207218170166015625e+00 2.655605554580688032e+00 -4.520779848098754883e-01 2.000000000000000000e+00
1.415296459197998047e+01 4.574010848999023438e+00 -2.596220076084136963e-01 2.000000000000000000e+00
2.184929847717285156e+00 7.023456096649169922e-01 -6.149540543556213379e-01 1.600000000000000000e+01
2.499294757843018022e+00 8.024358153343200684e-01 -6.060181260108947754e-01 1.200000000000000000e+01
2.927444219589232954e+00 9.393359422683715820e-01 -5.976137518882751465e-01 1.300000000000000000e+01
3.510188817977904829e+00 1.124971270561218040e+00 -5.838134288787841797e-01 9.000000000000000000e+00
3.652233505249022727e+01 1.169791984558104936e+01 4.708787918090820312e+00 2.000000000000000000e+01
4.369161605834960938e+00 1.398579716682434082e+00 -5.632801055908203125e-01 1.100000000000000000e+01
5.700538635253906250e+00 1.823659896850585938e+00 -5.236316919326782227e-01 6.000000000000000000e+00
8.243531227111816406e+00 2.634017467498778853e+00 -4.535433948040009100e-01 1.000000000000000000e+00
1.426869583129882990e+01 4.553721427917479581e+00 -2.614370584487915039e-01 2.000000000000000000e+00
2.198415517807006836e+00 6.982231736183166504e-01 -6.180598735809326172e-01 1.600000000000000000e+01
2.507653236389160156e+00 7.954744696617126465e-01 -6.073678731918334961e-01 1.300000000000000000e+01
2.923219442367554155e+00 9.267383217811584473e-01 -5.960872769355773926e-01 1.300000000000000000e+01
3.517860651016234907e+00 1.113904237747191939e+00 -5.844391584396362305e-01 9.000000000000000000e+00
3.672570800781250000e+01 1.162186813354492010e+01 4.729749202728270596e+00 2.000000000000000000e+01
4.381587982177734375e+00 1.385714292526244895e+00 -5.642550587654113770e-01 1.100000000000000000e+01
5.704969882965087891e+00 1.803149819374084029e+00 -5.234574079513549805e-01 8.000000000000000000e+00
8.248866081237792969e+00 2.604023456573485884e+00 -4.533340632915496826e-01 1.000000000000000000e+00
1.427687549591063920e+01 4.501481533050537109e+00 -2.612974345684052069e-01 2.000000000000000000e+00
3.477059173583983664e+01 1.095645427703857067e+01 9.768348693847656250e+00 7.000000000000000000e+00
2.191382884979248047e+00 6.884182691574096680e-01 -6.154716610908508301e-01 1.700000000000000000e+01
2.513858556747436968e+00 7.887593507766723633e-01 -6.082676649093627930e-01 1.200000000000000000e+01
2.924243211746215820e+00 9.169628024101257324e-01 -5.957056879997253418e-01 1.300000000000000000e+01
3.517572641372681108e+00 1.101666212081908958e+00 -5.838134288787841797e-01 9.000000000000000000e+00
3.678856277465820312e+01 1.151473522186278942e+01 4.733161449432373047e+00 2.000000000000000000e+01
4.384025096893311435e+00 1.371349692344665971e+00 -5.640113353729248047e-01 1.000000000000000000e+01
5.714409351348876953e+00 1.786407113075255904e+00 -5.238060355186462402e-01 9.000000000000000000e+00
8.295136451721191406e+00 2.590001344680786133e+00 -4.554274976253510077e-01 2.000000000000000000e+00
3.885932540893554688e+01 1.212565612792968928e+01 9.398005485534667969e+00 1.200000000000000000e+01
1.429858303070068004e+01 4.458988666534423828e+00 -2.614370584487915039e-01 2.000000000000000000e+00
3.476790618896483664e+01 1.084231185913085938e+01 9.758513450622558594e+00 7.000000000000000000e+00
2.197462558746337891e+00 6.819097995758056641e-01 -6.165069937705993652e-01 1.500000000000000000e+01
2.520319461822510210e+00 7.811333537101745605e-01 -6.091674566268920898e-01 1.100000000000000000e+01
2.940553665161132812e+00 9.108158349990844727e-01 -5.983769893646240234e-01 1.200000000000000000e+01
3.517622470855712891e+00 1.088213324546813965e+00 -5.831876993179321289e-01 9.000000000000000000e+00
4.400165081024169922e+00 1.359554290771483931e+00 -5.654737353324890137e-01 1.100000000000000000e+01
5.726321697235107422e+00 1.768212795257567915e+00 -5.243289470672607422e-01 9.000000000000000000e+00
8.307943344116210938e+00 2.562207460403441939e+00 -4.556368291378021240e-01 2.000000000000000000e+00
3.894238662719727273e+01 1.200256633758544922e+01 9.407902717590332031e+00 1.200000000000000000e+01
1.432934951782226918e+01 4.413759231567382812e+00 -2.617162764072418213e-01 2.000000000000000000e+00
3.390639114379882812e+01 1.043744659423827947e+01 9.505906105041503906e+00 7.000000000000000000e+00
2.196253061294556108e+00 6.727195382118225098e-01 -6.154716610908508301e-01 1.500000000000000000e+01
2.515711545944213867e+00 7.696103453636169434e-01 -6.073678731918334961e-01 1.100000000000000000e+01
2.941994667053223100e+00 8.994580507278442383e-01 -5.979954004287719727e-01 1.300000000000000000e+01
3.529144525527954102e+00 1.077620863914489968e+00 -5.844391584396362305e-01 1.000000000000000000e+01
4.407017230987548828e+00 1.343996763229369895e+00 -5.657175183296203613e-01 1.100000000000000000e+01
5.721328735351563388e+00 1.743727803230286089e+00 -5.232830643653869629e-01 9.000000000000000000e+00
8.298171997070312500e+00 2.525923967361450195e+00 -4.545901119709014893e-01 1.000000000000000000e+00
3.921356964111328125e+01 1.192894744873047053e+01 9.462791442871093750e+00 1.200000000000000000e+01
1.435690975189208984e+01 4.364699840545654297e+00 -2.619257271289824884e-01 2.000000000000000000e+00
3.375778579711914062e+01 1.026283550262450994e+01 9.454141616821289062e+00 7.000000000000000000e+00
2.211531639099121094e+00 6.689644455909729004e-01 -6.190951466560363770e-01 1.400000000000000000e+01
2.529575347900391069e+00 7.642056345939636230e-01 -6.100672483444213867e-01 1.200000000000000000e+01
2.952634334564208984e+00 8.914528489112854004e-01 -5.995218753814697266e-01 1.300000000000000000e+01
3.536667108535767046e+00 1.066435813903809038e+00 -5.850648880004882812e-01 1.100000000000000000e+01
4.390773296356201172e+00 1.322308540344238059e+00 -5.630363821983337402e-01 1.000000000000000000e+01
5.761722087860107422e+00 1.734081506729125977e+00 -5.264207124710083008e-01 9.000000000000000000e+00
8.326065063476562500e+00 2.502691984176636186e+00 -4.556368291378021240e-01 2.000000000000000000e+00
3.930349731445313211e+01 1.180657005310058949e+01 9.474488258361816406e+00 1.200000000000000000e+01
1.440270137786865057e+01 4.323757648468017578e+00 -2.624841928482056219e-01 2.000000000000000000e+00
3.429107666015625000e+01 1.028781509399414062e+01 9.592868804931640625e+00 7.000000000000000000e+00
2.210035800933837891e+00 6.605206727981567383e-01 -6.180598735809326172e-01 1.400000000000000000e+01
2.533962965011597124e+00 7.563704252243041992e-01 -6.105171442031860352e-01 1.200000000000000000e+01
2.949930191040039062e+00 8.799730539321899414e-01 -5.983769893646240234e-01 1.300000000000000000e+01
3.540184020996094194e+00 1.054701924324036089e+00 -5.850648880004882812e-01 1.100000000000000000e+01
3.713600158691406250e+01 1.105661010742188033e+01 4.757535457611083984e+00 2.000000000000000000e+01
4.417965888977050781e+00 1.314534425735474077e+00 -5.659612417221069336e-01 1.000000000000000000e+01
3.855604171752929688e+01 1.147207736968993963e+01 6.371263027191162109e+00 1.400000000000000000e+01
5.746433734893798828e+00 1.708718895912169966e+00 -5.245032310485839844e-01 9.000000000000000000e+00
8.349636077880859375e+00 2.479616641998291016e+00 -4.564742147922515869e-01 1.000000000000000000e+00
3.936485290527343750e+01 1.168282318115234020e+01 9.479887008666992188e+00 1.200000000000000000e+01
1.441696071624756037e+01 4.275972843170166016e+00 -2.624841928482056219e-01 2.000000000000000000e+00
3.410467529296875000e+01 1.011521625518799006e+01 9.531787872314453125e+00 7.000000000000000000e+00
2.199357986450194868e+00 6.489750146865844727e-01 -6.144363880157470703e-01 1.600000000000000000e+01
2.545934200286864790e+00 7.502749562263488770e-01 -6.127666831016540527e-01 1.500000000000000000e+01
2.952983856201171875e+00 8.696705102920532227e-01 -5.983769893646240234e-01 1.300000000000000000e+01
3.547634363174438032e+00 1.043452739715575950e+00 -5.856906175613403320e-01 1.100000000000000000e+01
3.724674224853516336e+01 1.094818592071533025e+01 4.766797542572020596e+00 2.000000000000000000e+01
4.422527790069580078e+00 1.299104809761046919e+00 -5.659612417221069336e-01 1.000000000000000000e+01
5.765745162963867188e+00 1.692578077316283958e+00 -5.257234573364257812e-01 9.000000000000000000e+00
8.369739532470703125e+00 2.453827381134033203e+00 -4.571022391319274902e-01 3.000000000000000000e+00
1.444715213775634943e+01 4.230117797851563388e+00 -2.627634406089783270e-01 2.000000000000000000e+00
2.205319404602050781e+00 6.423743963241577148e-01 -6.154716610908508301e-01 1.500000000000000000e+01
2.539181709289550781e+00 7.386617064476013184e-01 -6.105171442031860352e-01 1.300000000000000000e+01
2.954116582870482954e+00 8.588092923164367676e-01 -5.979954004287719727e-01 1.300000000000000000e+01
3.543666839599608931e+00 1.028859734535217063e+00 -5.844391584396362305e-01 1.100000000000000000e+01
3.729235839843750000e+01 1.082031631469726918e+01 4.767772674560546875e+00 2.000000000000000000e+01
4.427035331726074219e+00 1.283659458160399947e+00 -5.659612417221069336e-01 1.100000000000000000e+01
5.767790794372558594e+00 1.671332478523253950e+00 -5.253748297691345215e-01 9.000000000000000000e+00
8.359068870544433594e+00 2.419044494628905806e+00 -4.560555219650269110e-01 1.000000000000000000e+00
3.879398727416992188e+01 1.121931743621825994e+01 9.323321342468261719e+00 1.200000000000000000e+01
1.448872470855713068e+01 4.187434673309326172e+00 -2.632521092891693115e-01 2.000000000000000000e+00
3.723669052124022727e+01 1.076190090179443004e+01 1.038589096069335938e+01 8.000000000000000000e+00
2.218688249588013139e+00 6.378751993179321289e-01 -6.185775399208068848e-01 1.700000000000000000e+01
2.534252405166625977e+00 7.276426553726196289e-01 -6.087175607681274414e-01 1.100000000000000000e+01
2.960870504379272017e+00 8.495752215385437012e-01 -5.987586379051208496e-01 1.200000000000000000e+01
3.551034450531005859e+00 1.017572045326232910e+00 -5.850648880004882812e-01 1.100000000000000000e+01
4.437214851379395419e+00 1.269836902618407981e+00 -5.666924715042114258e-01 1.100000000000000000e+01
5.775505542755126953e+00 1.651736855506896973e+00 -5.255491137504577637e-01 9.000000000000000000e+00
8.405871391296386719e+00 2.400821208953856978e+00 -4.581489562988281250e-01 1.000000000000000000e+00
1.453402137756348012e+01 4.145610332489013672e+00 -2.638105750083922785e-01 2.000000000000000000e+00
3.438878631591796875e+01 9.802392959594726562e+00 9.581480979919433594e+00 7.000000000000000000e+00
2.215215921401977983e+00 6.289314031600952148e-01 -6.170246005058288574e-01 1.500000000000000000e+01
2.540400981903076172e+00 7.202979326248168945e-01 -6.096173524856567383e-01 1.100000000000000000e+01
2.954226970672606978e+00 8.370758891105651855e-01 -5.968505144119262695e-01 1.300000000000000000e+01
3.556290149688721147e+00 1.006328701972960982e+00 -5.853777527809143066e-01 1.000000000000000000e+01
4.433760166168212891e+00 1.252956151962280051e+00 -5.657175183296203613e-01 1.100000000000000000e+01
5.802042484283447266e+00 1.638531804084778054e+00 -5.274665355682373047e-01 9.000000000000000000e+00
8.383029937744140625e+00 2.364259004592895952e+00 -4.564742147922515869e-01 1.000000000000000000e+00
1.457078647613525035e+01 4.103896617889404297e+00 -2.642294466495513916e-01 2.000000000000000000e+00
3.440267562866210938e+01 9.689596176147460938e+00 9.576822280883789062e+00 1.400000000000000000e+01
2.219258069992064986e+00 6.217161417007446289e-01 -6.175422668457031250e-01 1.400000000000000000e+01
2.544776678085327148e+00 7.119508981704711914e-01 -6.100672483444213867e-01 1.200000000000000000e+01
2.964694023132324219e+00 8.288730978965759277e-01 -5.983769893646240234e-01 1.100000000000000000e+01
3.563586473464965820e+00 9.949712157249450684e-01 -5.860034823417663574e-01 1.000000000000000000e+01
3.784539794921875000e+01 1.055950546264648082e+01 4.824319839477539062e+00 2.000000000000000000e+01
4.451491832733154297e+00 1.241204023361206055e+00 -5.674236416816711426e-01 1.000000000000000000e+01
5.796210765838623047e+00 1.615060210227966087e+00 -5.264207124710083008e-01 9.000000000000000000e+00
8.422018051147460938e+00 2.343549251556396040e+00 -4.581489562988281250e-01 1.000000000000000000e+00
1.462355709075927912e+01 4.063718318939208984e+00 -2.649275362491608221e-01 2.000000000000000000e+00
3.435253143310546875e+01 9.546173095703125000e+00 9.553528785705566406e+00 7.000000000000000000e+00
2.215935468673706055e+00 6.120350360870361328e-01 -6.159893274307250977e-01 1.500000000000000000e+01
2.558640480041503906e+00 7.057279944419860840e-01 -6.127666831016540527e-01 1.500000000000000000e+01
2.963926792144774947e+00 8.169580101966857910e-01 -5.976137518882751465e-01 1.200000000000000000e+01
3.569113731384276900e+00 9.824275970458984375e-01 -5.863163471221923828e-01 1.100000000000000000e+01
3.770392990112304688e+01 1.037123394012450994e+01 4.801408290863037109e+00 2.000000000000000000e+01
4.459839344024658203e+00 1.225932478904723899e+00 -5.679111480712890625e-01 1.000000000000000000e+01
3.954781723022460938e+01 1.086358547210693004e+01 6.495784759521484375e+00 1.400000000000000000e+01
5.811697483062744141e+00 1.596443891525268999e+00 -5.272922515869140625e-01 9.000000000000000000e+00
8.403585433959960938e+00 2.305268049240111861e+00 -4.566835463047028143e-01 1.000000000000000000e+00
1.466535377502441051e+01 4.017489433288574219e+00 -2.654162049293518066e-01 2.000000000000000000e+00
3.440219497680664062e+01 9.424283981323242188e+00 9.557669639587402344e+00 7.000000000000000000e+00
2.219922304153441939e+00 6.048040390014648438e-01 -6.165069937705993652e-01 1.400000000000000000e+01
2.551686286926269975e+00 6.942343711853027344e-01 -6.105171442031860352e-01 1.400000000000000000e+01
2.970549345016479048e+00 8.076371550559997559e-01 -5.983769893646240234e-01 1.200000000000000000e+01
3.566802263259888139e+00 9.684102535247802734e-01 -5.853777527809143066e-01 1.000000000000000000e+01
3.758663558959960938e+01 1.019797611236572088e+01 4.781909465789794922e+00 2.000000000000000000e+01
4.494746208190917969e+00 1.218668699264525923e+00 -5.718109607696533203e-01 1.000000000000000000e+01
5.798004150390625000e+00 1.570937156677246094e+00 -5.255491137504577637e-01 9.000000000000000000e+00
8.480987548828125000e+00 2.294699192047119141e+00 -4.604517519474030096e-01 1.000000000000000000e+00
1.467156600952148082e+01 3.964187145233153853e+00 -2.652765810489655096e-01 2.000000000000000000e+00
3.469388580322266336e+01 9.367624282836914062e+00 9.629103660583496094e+00 7.000000000000000000e+00
2.231243610382080078e+00 5.999473333358764648e-01 -6.190951466560363770e-01 1.400000000000000000e+01
2.552092552185059038e+00 6.852635145187377930e-01 -6.100672483444213867e-01 1.500000000000000000e+01
2.977003574371337891e+00 7.987995743751525879e-01 -5.991402268409729004e-01 1.200000000000000000e+01
3.579534292221068892e+00 9.591333270072937012e-01 -5.869421362876892090e-01 1.000000000000000000e+01
3.732110977172852273e+01 9.993180274963378906e+00 4.743885993957520419e+00 2.000000000000000000e+01
4.500680446624755859e+00 1.204270005226135032e+00 -5.720546841621398926e-01 8.000000000000000000e+00
3.923918151855468750e+01 1.049208927154541016e+01 6.433210849761962891e+00 1.400000000000000000e+01
5.824354171752929688e+00 1.557362914085387962e+00 -5.274665355682373047e-01 9.000000000000000000e+00
8.415223121643066406e+00 2.246983289718627930e+00 -4.564742147922515869e-01 1.000000000000000000e+00
3.847259140014647727e+01 1.026553153991699041e+01 9.192850112915039062e+00 1.200000000000000000e+01
1.470395278930664062e+01 3.920664548873900923e+00 -2.656256258487700861e-01 2.000000000000000000e+00
3.412955093383789062e+01 9.100309371948242188e+00 9.464494705200195312e+00 7.000000000000000000e+00
2.240793704986571822e+00 5.941356420516967773e-01 -6.211656928062438965e-01 1.400000000000000000e+01
2.558236598968505859e+00 6.773484349250793457e-01 -6.109670400619506836e-01 1.500000000000000000e+01
2.981671810150146040e+00 7.889052033424377441e-01 -5.995218753814697266e-01 1.200000000000000000e+01
3.580950736999512163e+00 9.461280107498168945e-01 -5.866292715072631836e-01 1.000000000000000000e+01
4.497179031372070312e+00 1.186526656150818093e+00 -5.710797309875488281e-01 8.000000000000000000e+00
5.852873802185058594e+00 1.543117880821228027e+00 -5.295583009719848633e-01 9.000000000000000000e+00
8.423015594482421875e+00 2.217594861984252930e+00 -4.564742147922515869e-01 1.000000000000000000e+00
3.577927780151367188e+01 9.413220405578613281e+00 8.541391372680664062e+00 1.100000000000000000e+01
1.471368122100830078e+01 3.868297338485718218e+00 -2.655558288097382147e-01 2.000000000000000000e+00
3.433673477172852273e+01 9.027293205261230469e+00 9.513153076171875000e+00 7.000000000000000000e+00
2.237246751785277876e+00 5.848444104194641113e-01 -6.196128129959106445e-01 1.600000000000000000e+01
2.573784351348876953e+00 6.718598604202270508e-01 -6.141163706779479980e-01 1.400000000000000000e+01
2.976808547973632812e+00 7.765102386474609375e-01 -5.979954004287719727e-01 1.200000000000000000e+01
3.595700979232788086e+00 9.366099834442138672e-01 -5.885064601898193359e-01 1.000000000000000000e+01
3.735154724121093750e+01 9.722387313842773438e+00 4.739011287689208984e+00 2.000000000000000000e+01
4.514741420745849609e+00 1.174319386482238992e+00 -5.727859139442443848e-01 1.000000000000000000e+01
5.842798233032226562e+00 1.518668532371520996e+00 -5.281637907028198242e-01 9.000000000000000000e+00
8.442304611206054688e+00 2.191190242767333984e+00 -4.571022391319274902e-01 3.000000000000000000e+00
1.480839538574218928e+01 3.837984800338745117e+00 -2.670218050479888916e-01 2.000000000000000000e+00
3.520208740234375000e+01 9.123545646667480469e+00 9.744019508361816406e+00 7.000000000000000000e+00
2.228050231933594194e+00 5.741390585899353027e-01 -6.165069937705993652e-01 1.500000000000000000e+01
2.570451974868773970e+00 6.614146828651428223e-01 -6.127666831016540527e-01 1.300000000000000000e+01
2.985205173492432085e+00 7.675812244415283203e-01 -5.991402268409729004e-01 1.200000000000000000e+01
3.587468624114989790e+00 9.211053848266601562e-01 -5.866292715072631836e-01 1.000000000000000000e+01
3.714682769775391336e+01 9.530773162841796875e+00 4.708787918090820312e+00 2.000000000000000000e+01
4.547656536102294922e+00 1.165947794914246050e+00 -5.764420032501220703e-01 1.000000000000000000e+01
3.865801239013671875e+01 9.904117584228515625e+00 6.320578098297119141e+00 1.400000000000000000e+01
5.863503932952880859e+00 1.502219915390015093e+00 -5.295583009719848633e-01 9.000000000000000000e+00
8.461510658264160156e+00 2.164677619934082031e+00 -4.577302634716033936e-01 3.000000000000000000e+00
1.481007766723632990e+01 3.783300876617432085e+00 -2.668123841285706122e-01 2.000000000000000000e+00
2.231913089752196822e+00 5.668337345123291016e-01 -6.170246005058288574e-01 1.500000000000000000e+01
2.570856094360352007e+00 6.519591212272644043e-01 -6.123167872428894043e-01 1.200000000000000000e+01
2.999284982681273970e+00 7.600498199462890625e-01 -6.014299392700195312e-01 1.300000000000000000e+01
3.581086874008179155e+00 9.061542749404907227e-01 -5.850648880004882812e-01 9.000000000000000000e+00
3.698741531372070312e+01 9.352386474609375000e+00 4.684413909912109375e+00 2.000000000000000000e+01
4.559397220611572266e+00 1.152011632919311968e+00 -5.774169564247131348e-01 1.000000000000000000e+01
3.881109619140625000e+01 9.799097061157226562e+00 6.339975833892822266e+00 1.400000000000000000e+01
5.868711948394775391e+00 1.481743216514586958e+00 -5.295583009719848633e-01 9.000000000000000000e+00
8.492255210876464844e+00 2.140987396240233931e+00 -4.589863419532775879e-01 1.000000000000000000e+00
1.485034179687500000e+01 3.738415479660034180e+00 -2.673010528087615967e-01 2.000000000000000000e+00
3.557215881347656250e+01 8.954912185668945312e+00 9.828911781311035156e+00 7.000000000000000000e+00
2.248870611190795898e+00 5.627914071083068848e-01 -6.211656928062438965e-01 1.500000000000000000e+01
2.565553903579711914e+00 6.410914063453674316e-01 -6.105171442031860352e-01 1.100000000000000000e+01
3.003824472427368164e+00 7.500513792037963867e-01 -6.018115878105163574e-01 1.200000000000000000e+01
3.591894865036011186e+00 8.955600261688232422e-01 -5.863163471221923828e-01 9.000000000000000000e+00
3.707762145996093750e+01 9.237616539001464844e+00 4.691726207733154297e+00 2.000000000000000000e+01
4.578801155090332031e+00 1.139925837516784890e+00 -5.793668627738952637e-01 9.000000000000000000e+00
5.869981765747070312e+00 1.460286617279052956e+00 -5.292096734046936035e-01 9.000000000000000000e+00
8.499677658081054688e+00 2.111330747604370117e+00 -4.589863419532775879e-01 1.000000000000000000e+00
1.490988254547118963e+01 3.698108911514281782e+00 -2.681387662887573242e-01 2.000000000000000000e+00
3.555820083618164062e+01 8.819526672363281250e+00 9.816488265991210938e+00 1.500000000000000000e+01
2.252696990966796875e+00 5.554003715515136719e-01 -6.216833591461181641e-01 1.500000000000000000e+01
5.936173629760742188e+01 1.462459087371825994e+01 1.067144870758057085e+00 6.000000000000000000e+01
2.567775964736938032e+00 6.321320533752441406e-01 -6.105171442031860352e-01 1.200000000000000000e+01
3.851728439331054688e+01 9.475009918212890625e+00 2.078784227371215820e+00 2.200000000000000000e+01
3.000705242156981978e+00 7.381545901298522949e-01 -6.006667017936706543e-01 1.200000000000000000e+01
3.602672576904296875e+00 8.849012851715087891e-01 -5.875678658485412598e-01 9.000000000000000000e+00
3.734098815917968750e+01 9.164916038513183594e+00 4.720974445343017578e+00 2.000000000000000000e+01
4.567328453063964844e+00 1.120153188705443892e+00 -5.774169564247131348e-01 8.000000000000000000e+00
5.863432407379150391e+00 1.436942219734191895e+00 -5.281637907028198242e-01 9.000000000000000000e+00
8.503115653991699219e+00 2.080699205398560014e+00 -4.587769806385039728e-01 1.000000000000000000e+00
3.416250228881835938e+01 8.353192329406738281e+00 8.119383811950683594e+00 1.000000000000000000e+01
1.497320652008056996e+01 3.658381223678588867e+00 -2.690463066101074219e-01 2.000000000000000000e+00
3.647610473632813211e+01 8.905405998229980469e+00 1.006081390380859020e+01 8.000000000000000000e+00
2.250867605209351030e+00 5.466217994689941406e-01 -6.206480860710144043e-01 1.400000000000000000e+01
5.941242599487304688e+01 1.441729068756104049e+01 1.067144870758057085e+00 6.000000000000000000e+01
2.588905572891234907e+00 6.277572512626647949e-01 -6.150161623954772949e-01 1.400000000000000000e+01
2.991815328598022017e+00 7.249018549919128418e-01 -5.983769893646240234e-01 1.100000000000000000e+01
3.617259502410889116e+00 8.751071691513061523e-01 -5.894450545310974121e-01 9.000000000000000000e+00
3.752711105346679688e+01 9.071831703186035156e+00 4.740473747253417969e+00 2.000000000000000000e+01
4.578929424285888672e+00 1.106067776679992898e+00 -5.783919095993041992e-01 8.000000000000000000e+00
5.885843276977539062e+00 1.420673608779907005e+00 -5.297325849533081055e-01 9.000000000000000000e+00
3.595667648315429688e+01 8.672268867492675781e+00 7.189682960510253906e+00 6.100000000000000000e+01
8.521976470947265625e+00 2.053812742233275923e+00 -4.594050347805023193e-01 1.000000000000000000e+00
3.420281982421875000e+01 8.236629486083984375e+00 8.122082710266113281e+00 1.000000000000000000e+01
1.502865791320800959e+01 3.616385221481322798e+00 -2.698141932487487793e-01 2.000000000000000000e+00
3.649569702148438211e+01 8.775316238403320312e+00 1.005770778656006037e+01 8.000000000000000000e+00
2.243273973464965820e+00 5.369063019752502441e-01 -6.180598735809326172e-01 1.600000000000000000e+01
2.589077711105347124e+00 6.187157034873962402e-01 -6.145662665367126465e-01 1.300000000000000000e+01
3.009479284286499023e+00 7.186244726181030273e-01 -6.014299392700195312e-01 1.200000000000000000e+01
3.608612298965454102e+00 8.603583574295043945e-01 -5.875678658485412598e-01 9.000000000000000000e+00
3.766512680053710938e+01 8.973099708557128906e+00 4.754123210906982422e+00 2.000000000000000000e+01
4.598021030426025391e+00 1.094555139541625977e+00 -5.803418159484863281e-01 9.000000000000000000e+00
5.886645793914794922e+00 1.400225520133971946e+00 -5.293839573860168457e-01 9.000000000000000000e+00
8.555945396423339844e+00 2.032002449035644975e+00 -4.608704447746276855e-01 1.000000000000000000e+00
3.430199813842772727e+01 8.140261650085449219e+00 8.139179229736328125e+00 1.000000000000000000e+01
1.502111053466797053e+01 3.561914443969727007e+00 -2.694651484489440918e-01 2.000000000000000000e+00
3.640052795410156250e+01 8.624847412109375000e+00 1.002354431152343928e+01 8.000000000000000000e+00
2.250775337219237837e+00 5.304018855094909668e-01 -6.196128129959106445e-01 1.500000000000000000e+01
2.585530757904053178e+00 6.083354353904724121e-01 -6.132165789604187012e-01 1.400000000000000000e+01
3.017702817916870117e+00 7.094630002975463867e-01 -6.025748252868652344e-01 1.200000000000000000e+01
3.615439891815185991e+00 8.486595153808593750e-01 -5.881935954093933105e-01 9.000000000000000000e+00
3.770008468627929688e+01 8.842474937438964844e+00 4.754610538482666016e+00 2.000000000000000000e+01
4.603746414184570312e+00 1.078951239585876021e+00 -5.805855393409729004e-01 1.100000000000000000e+01
5.893437385559082031e+00 1.380123019218445046e+00 -5.295583009719848633e-01 9.000000000000000000e+00
8.527979850769042969e+00 1.993939399719238059e+00 -4.589863419532775879e-01 1.000000000000000000e+00
3.425809478759766336e+01 8.003628730773925781e+00 8.122082710266113281e+00 1.000000000000000000e+01
1.505292510986327947e+01 3.514005422592163086e+00 -2.698141932487487793e-01 2.000000000000000000e+00
3.652448272705078125e+01 8.519675254821777344e+00 1.004942607879639027e+01 8.000000000000000000e+00
2.262022495269774947e+00 5.247247219085693359e-01 -6.222009658813476562e-01 1.500000000000000000e+01
2.587638616561890093e+00 5.993065237998962402e-01 -6.132165789604187012e-01 1.300000000000000000e+01
3.018248081207274947e+00 6.984822750091552734e-01 -6.021931767463684082e-01 1.200000000000000000e+01
3.618380308151245117e+00 8.360341191291809082e-01 -5.881935954093933105e-01 9.000000000000000000e+00
3.775393295288085938e+01 8.716182708740234375e+00 4.757535457611083984e+00 2.000000000000000000e+01
4.590075969696044922e+00 1.058858752250670943e+00 -5.783919095993041992e-01 1.000000000000000000e+01
5.907926559448242188e+00 1.361780285835265891e+00 -5.304298400878906250e-01 9.000000000000000000e+00
8.511530876159667969e+00 1.958783984184264915e+00 -4.577302634716033936e-01 3.000000000000000000e+00
3.359072494506835938e+01 7.724160194396972656e+00 7.957418441772460938e+00 9.000000000000000000e+00
1.514305686950683949e+01 3.479351043701171875e+00 -2.712104022502899170e-01 2.000000000000000000e+00
3.374340820312500000e+01 7.753068923950195312e+00 9.277110099792480469e+00 6.000000000000000000e+00
2.267607212066649947e+00 5.176855325698852539e-01 -6.232362389564514160e-01 1.700000000000000000e+01
2.597314834594727007e+00 5.920026302337646484e-01 -6.150161623954772949e-01 1.300000000000000000e+01
3.014925241470336914e+00 6.866344809532165527e-01 -6.010483503341674805e-01 1.200000000000000000e+01
3.619350194931029829e+00 8.229605555534362793e-01 -5.878807306289672852e-01 8.000000000000000000e+00
3.778413009643554688e+01 8.584342956542968750e+00 4.757535457611083984e+00 2.000000000000000000e+01
4.603423118591308594e+00 1.045027256011962891e+00 -5.796105861663818359e-01 1.100000000000000000e+01
3.576101303100585938e+01 8.118140220642089844e+00 5.808098793029785156e+00 1.300000000000000000e+01
5.914587020874023438e+00 1.341590166091918945e+00 -5.306041836738586426e-01 9.000000000000000000e+00
8.549484252929687500e+00 1.936119318008423074e+00 -4.594050347805023193e-01 4.000000000000000000e+00
3.300926208496093750e+01 7.469233036041259766e+00 7.813449859619140625e+00 9.000000000000000000e+00
1.511610031127930043e+01 3.417650938034058061e+00 -2.705123126506804865e-01 2.000000000000000000e+00
3.677150726318358664e+01 8.307050704956054688e+00 1.010118961334229049e+01 8.000000000000000000e+00
2.261860847473144975e+00 5.080733299255371094e-01 -6.211656928062438965e-01 1.600000000000000000e+01
2.605069875717163086e+00 5.842119455337524414e-01 -6.163659095764160156e-01 1.500000000000000000e+01
3.007725000381470171e+00 6.739599108695983887e-01 -5.991402268409729004e-01 1.200000000000000000e+01
3.629911661148070845e+00 8.120466470718383789e-01 -5.891321897506713867e-01 9.000000000000000000e+00
3.791072845458983664e+01 8.474051475524902344e+00 4.769722461700438565e+00 2.000000000000000000e+01
4.607043266296386719e+00 1.028951883316040039e+00 -5.796105861663818359e-01 1.100000000000000000e+01
3.590866470336914062e+01 8.019956588745117188e+00 5.827496528625488281e+00 1.300000000000000000e+01
5.915344715118408203e+00 1.320068359375000000e+00 -5.302555561065673828e-01 9.000000000000000000e+00
8.554240226745605469e+00 1.905829906463623047e+00 -4.593003392219542902e-01 4.000000000000000000e+00
3.303893661499022727e+01 7.354810714721679688e+00 7.814349651336669922e+00 9.000000000000000000e+00
1.515136146545409979e+01 3.370075225830078125e+00 -2.709311544895172119e-01 2.000000000000000000e+00
3.381556701660156250e+01 7.521502971649169922e+00 9.282286643981933594e+00 6.000000000000000000e+00
2.254188776016234907e+00 4.980908334255219061e-01 -6.185775399208068848e-01 1.400000000000000000e+01
2.610899448394774947e+00 5.759546160697937012e-01 -6.172657012939453125e-01 1.500000000000000000e+01
3.834570312500000000e+01 8.451900482177734375e+00 2.057849884033203125e+00 2.200000000000000000e+01
3.021562576293944868e+00 6.659923791885375977e-01 -6.014299392700195312e-01 1.300000000000000000e+01
3.628865718841553178e+00 7.985218763351440430e-01 -5.885064601898193359e-01 8.000000000000000000e+00
4.633872985839843750e+00 1.017975211143494096e+00 -5.825354456901550293e-01 9.000000000000000000e+00
3.601113510131835938e+01 7.904384613037109375e+00 5.839385509490966797e+00 1.300000000000000000e+01
5.916024684906005859e+00 1.298557639122009055e+00 -5.299069285392761230e-01 9.000000000000000000e+00
3.555372238159179688e+01 7.797479629516601562e+00 7.075197696685791016e+00 6.100000000000000000e+01
8.603762626647949219e+00 1.885363817214966042e+00 -4.616031348705291748e-01 4.000000000000000000e+00
3.322050857543945312e+01 7.273616313934326172e+00 7.851241588592529297e+00 9.000000000000000000e+00
1.521773147583007990e+01 3.329132795333861861e+00 -2.719084918498992920e-01 2.000000000000000000e+00
3.283887100219727273e+01 7.178045272827148438e+00 9.006902694702148438e+00 6.000000000000000000e+00
2.265266895294189009e+00 4.926657080650330145e-01 -6.211656928062438965e-01 1.500000000000000000e+01
2.607081890106201172e+00 5.660529732704162598e-01 -6.159160137176513672e-01 1.300000000000000000e+01
3.031429052352904829e+00 6.576337218284606934e-01 -6.029564142227172852e-01 1.200000000000000000e+01
3.633424520492554155e+00 7.869018912315368652e-01 -5.888193249702453613e-01 9.000000000000000000e+00
4.629462242126464844e+00 1.000925183296204057e+00 -5.815604925155639648e-01 9.000000000000000000e+00
5.924193382263183594e+00 1.279773592948914018e+00 -5.302555561065673828e-01 9.000000000000000000e+00
3.557938766479492188e+01 7.679536342620849609e+00 7.075197696685791016e+00 6.100000000000000000e+01
8.627538681030273438e+00 1.860611796379088911e+00 -4.625451862812042236e-01 3.000000000000000000e+00
3.334350585937500000e+01 7.184758663177490234e+00 7.874636650085449219e+00 9.000000000000000000e+00
1.532252216339110973e+01 3.298852682113647017e+00 -2.735839188098906916e-01 2.000000000000000000e+00
3.286503601074218750e+01 7.075656890869140625e+00 9.007938385009765625e+00 6.000000000000000000e+00
2.270750999450684038e+00 4.855633676052094061e-01 -6.222009658813476562e-01 1.500000000000000000e+01
2.605230331420897993e+00 5.561354160308837891e-01 -6.150161623954772949e-01 1.300000000000000000e+01
3.043306350708007812e+00 6.490957140922546387e-01 -6.048645377159118652e-01 1.200000000000000000e+01
3.632284879684447798e+00 7.733913064002990723e-01 -5.881935954093933105e-01 9.000000000000000000e+00
3.605433654785156250e+01 7.670162677764892578e+00 4.525983810424804688e+00 1.900000000000000000e+01
4.636811256408691406e+00 9.855846762657165527e-01 -5.820479989051818848e-01 9.000000000000000000e+00
5.936419963836669922e+00 1.260742187500000000e+00 -5.309528112411499023e-01 9.000000000000000000e+00
3.565974807739257812e+01 7.566704750061035156e+00 7.085882663726806641e+00 6.100000000000000000e+01
8.661334037780761719e+00 1.836284041404723899e+00 -4.640105962753295898e-01 3.000000000000000000e+00
1.531829357147216975e+01 3.242034673690795898e+00 -2.733046710491179865e-01 2.000000000000000000e+00
3.348422622680664062e+01 7.080651283264160156e+00 9.170475959777832031e+00 6.000000000000000000e+00
2.279994249343872070e+00 4.792234599590302069e-01 -6.242715120315551758e-01 1.500000000000000000e+01
2.607155561447143999e+00 5.470380783081054688e-01 -6.150161623954772949e-01 1.400000000000000000e+01
3.852844238281250000e+01 8.077086448669433594e+00 2.063083410263061968e+00 2.200000000000000000e+01
3.039789199829102007e+00 6.372601389884948730e-01 -6.037196516990661621e-01 1.200000000000000000e+01
3.638829469680786133e+00 7.615168094635009766e-01 -5.888193249702453613e-01 9.000000000000000000e+00
3.617804336547852273e+01 7.564577102661132812e+00 4.538170814514160156e+00 1.900000000000000000e+01
4.628564357757568359e+00 9.669575095176696777e-01 -5.805855393409729004e-01 1.100000000000000000e+01
5.968089580535888672e+00 1.245711803436279075e+00 -5.333931446075439453e-01 9.000000000000000000e+00
8.648138999938964844e+00 1.801964998245239036e+00 -4.629638791084290106e-01 3.000000000000000000e+00
3.398046493530272727e+01 7.074134349822998047e+00 8.013206481933593750e+00 1.000000000000000000e+01
1.534517955780028942e+01 3.191801786422729048e+00 -2.735839188098906916e-01 2.000000000000000000e+00
3.314437866210938211e+01 6.894040584564208984e+00 9.071089744567871094e+00 6.000000000000000000e+00
2.281653165817261186e+00 4.712618887424468994e-01 -6.242715120315551758e-01 1.700000000000000000e+01
2.616683721542357954e+00 5.395081639289855957e-01 -6.168158054351806641e-01 1.300000000000000000e+01
3.806735610961914062e+01 7.841805458068847656e+00 2.036915302276610884e+00 2.200000000000000000e+01
3.034303665161132812e+00 6.250609755516052246e-01 -6.021931767463684082e-01 1.200000000000000000e+01
3.653074741363524947e+00 7.511975765228271484e-01 -5.906965136528015137e-01 1.100000000000000000e+01
4.647468090057373047e+00 9.539881944656372070e-01 -5.825354456901550293e-01 9.000000000000000000e+00
5.972401618957520419e+00 1.224871754646301047e+00 -5.333931446075439453e-01 9.000000000000000000e+00
8.689596176147460938e+00 1.778976917266845925e+00 -4.648479521274567206e-01 3.000000000000000000e+00
3.418059921264647727e+01 6.991405010223388672e+00 8.054597854614257812e+00 1.000000000000000000e+01
1.536406421661376953e+01 3.139819383621215820e+00 -2.737235426902770996e-01 2.000000000000000000e+00
3.317699432373046875e+01 6.774060249328613281e+00 9.073160171508789062e+00 6.000000000000000000e+00
2.273818016052246094e+00 4.613737761974335272e-01 -6.216833591461181641e-01 1.600000000000000000e+01
2.624280691146851030e+00 5.315314531326293945e-01 -6.181654930114746094e-01 1.300000000000000000e+01
3.038391113281250000e+00 6.148548722267150879e-01 -6.025748252868652344e-01 1.200000000000000000e+01
3.659547328948975053e+00 7.392235994338989258e-01 -5.913223028182983398e-01 1.100000000000000000e+01
4.670228958129882812e+00 9.416833519935607910e-01 -5.849728584289550781e-01 9.000000000000000000e+00
3.633470153808593750e+01 7.326360702514648438e+00 5.870672702789306641e+00 1.300000000000000000e+01
5.964921951293945312e+00 1.201655864715575950e+00 -5.323472619056701660e-01 9.000000000000000000e+00
8.707501411437988281e+00 1.750996112823486106e+00 -4.654760062694550116e-01 1.000000000000000000e+00
3.421434783935546875e+01 6.873969078063964844e+00 8.056846618652343750e+00 1.000000000000000000e+01
1.542982673645020064e+01 3.097188711166381836e+00 -2.747008800506591797e-01 2.000000000000000000e+00
3.520699310302733664e+01 7.067007541656494141e+00 9.621856689453125000e+00 7.000000000000000000e+00
2.277309179306029829e+00 4.538114070892333984e-01 -6.222009658813476562e-01 1.500000000000000000e+01
5.937544250488281250e+01 1.182128334045409979e+01 1.056743264198303001e+00 6.200000000000000000e+01
2.628031492233275923e+00 5.227479934692382812e-01 -6.186153888702392578e-01 1.100000000000000000e+01
3.802322387695313211e+01 7.556391239166259766e+00 2.031681776046752930e+00 2.200000000000000000e+01
3.046295642852783203e+00 6.053931713104248047e-01 -6.037196516990661621e-01 1.300000000000000000e+01
3.646604299545288086e+00 7.233700156211853027e-01 -5.888193249702453613e-01 1.200000000000000000e+01
4.675435066223145419e+00 9.257610440254211426e-01 -5.852165818214416504e-01 1.100000000000000000e+01
3.655509185791016336e+01 7.231472969055175781e+00 5.901959419250488281e+00 1.300000000000000000e+01
5.980807304382324219e+00 1.183146953582763894e+00 -5.333931446075439453e-01 9.000000000000000000e+00
8.752748489379882812e+00 1.728328824043273926e+00 -4.675694406032562256e-01 1.000000000000000000e+00
3.524782180786132812e+01 6.940905570983886719e+00 9.625997543334960938e+00 7.000000000000000000e+00
2.277061223983765093e+00 4.450910091400145929e-01 -6.216833591461181641e-01 1.500000000000000000e+01
2.595501661300659180e+00 5.063951611518859863e-01 -6.105171442031860352e-01 8.000000000000000000e+00
3.058129072189331055e+00 5.961019992828369141e-01 -6.056277751922607422e-01 1.300000000000000000e+01
3.656987190246582031e+00 7.115086913108825684e-01 -5.900707840919494629e-01 1.100000000000000000e+01
4.665155887603759766e+00 9.059695005416870117e-01 -5.835103988647460938e-01 9.000000000000000000e+00
6.006618499755859375e+00 1.165392637252808061e+00 -5.353105664253234863e-01 9.000000000000000000e+00
8.739416122436523438e+00 1.692439556121825950e+00 -4.665227234363555908e-01 1.000000000000000000e+00
3.357006072998046875e+01 6.494961738586425781e+00 7.893982410430908203e+00 9.000000000000000000e+00
1.551049518585205078e+01 2.998082160949707031e+00 -2.757480144500731867e-01 2.000000000000000000e+00
3.322904205322266336e+01 6.422966480255126953e+00 9.068501472473144531e+00 6.000000000000000000e+00
2.289984464645386186e+00 4.393237531185150146e-01 -6.247891783714294434e-01 1.500000000000000000e+01
2.591511487960814986e+00 4.962325692176818848e-01 -6.091674566268920898e-01 7.000000000000000000e+00
3.797823715209960938e+01 7.265347480773925781e+00 2.026448249816894975e+00 2.200000000000000000e+01
3.050549745559691939e+00 5.835790634155273438e-01 -6.037196516990661621e-01 1.200000000000000000e+01
3.659448623657227007e+00 6.987391114234924316e-01 -5.900707840919494629e-01 1.100000000000000000e+01
3.708573532104492188e+01 7.074482440948486328e+00 4.635665893554688388e+00 1.900000000000000000e+01
4.648789882659912109e+00 8.859632611274719238e-01 -5.810730457305908203e-01 1.100000000000000000e+01
5.993034839630126953e+00 1.141064643859863059e+00 -5.337417721748352051e-01 9.000000000000000000e+00
3.633618164062500000e+01 6.911781311035156250e+00 7.189682960510253906e+00 6.100000000000000000e+01
8.772741317749023438e+00 1.667143344879149947e+00 -4.679881334304810125e-01 1.000000000000000000e+00
3.328620147705078125e+01 6.319582939147949219e+00 7.821998119354248047e+00 9.000000000000000000e+00
1.559159374237061080e+01 2.957337379455565962e+00 -2.770045995712280273e-01 2.000000000000000000e+00
2.287707090377808061e+00 4.306128025054932196e-01 -6.237539052963256836e-01 1.500000000000000000e+01
2.606634616851807085e+00 4.897021651268004816e-01 -6.123167872428894043e-01 8.000000000000000000e+00
3.052568197250366211e+00 5.729271173477172852e-01 -6.037196516990661621e-01 1.300000000000000000e+01
3.677398204803466797e+00 6.888706684112548828e-01 -5.925737619400024414e-01 1.100000000000000000e+01
3.691508102416992188e+01 6.908469676971436435e+00 4.611292362213134766e+00 1.900000000000000000e+01
4.671367168426513672e+00 8.733787536621093750e-01 -5.835103988647460938e-01 9.000000000000000000e+00
3.728245162963867188e+01 6.963751792907714844e+00 6.007083415985107422e+00 1.300000000000000000e+01
6.012649536132813388e+00 1.123064637184143066e+00 -5.351362824440002441e-01 9.000000000000000000e+00
8.766726493835449219e+00 1.634314417839050071e+00 -4.673600792884827215e-01 1.000000000000000000e+00
3.426595687866210938e+01 6.381754398345947266e+00 8.046949386596679688e+00 1.000000000000000000e+01
1.563720893859862926e+01 2.909478664398192915e+00 -2.776328921318054199e-01 2.000000000000000000e+00
3.419231414794921875e+01 6.361864566802979404e+00 9.319038391113281250e+00 6.000000000000000000e+00
