-8.724574089050292969e+00 6.220880985260009766e+00 -5.615648031234741211e-01 2.000000000000000000e+00
-3.297222137451171875e+01 2.351885604858398082e+01 9.350315093994140625e+00 1.200000000000000000e+01
-1.945123910903931108e+00 1.391545176506042036e+00 -6.408359408378601074e-01 1.900000000000000000e+01
-3.412165069580078125e+01 2.441969680786133168e+01 7.324076890945434570e-01 4.000000000000000000e+01
-2.227838039398192915e+00 1.594975352287292036e+00 -6.325623393058776855e-01 1.400000000000000000e+01
-2.627220392227172852e+00 1.881598711013793945e+00 -6.281431913375854492e-01 8.000000000000000000e+00
-3.175833225250244141e+00 2.276189327239989790e+00 -6.188547611236572266e-01 9.000000000000000000e+00
-3.309952163696289062e+01 2.373189926147460938e+01 5.000786781311035156e+00 2.400000000000000000e+01
-4.053647518157958984e+00 2.907480478286743164e+00 -6.125153303146362305e-01 1.000000000000000000e+01
-5.588090419769287109e+00 4.009537696838378906e+00 -6.017232537269592285e-01 2.000000000000000000e+00
-8.642247200012207031e+00 6.205511569976806641e+00 -5.575872659683227539e-01 2.000000000000000000e+00
-1.932418465614319070e+00 1.392678976058959961e+00 -6.382477879524230957e-01 1.800000000000000000e+01
-2.225418090820312944e+00 1.605022192001342995e+00 -6.334621906280517578e-01 1.400000000000000000e+01
-2.614267826080321822e+00 1.886163115501404031e+00 -6.266167163848876953e-01 8.000000000000000000e+00
-3.177477836608887163e+00 2.294199466705321822e+00 -6.207319498062133789e-01 9.000000000000000000e+00
-3.333832550048828125e+01 2.407975769042969105e+01 5.049534320831298828e+00 2.500000000000000000e+01
-4.051518917083740234e+00 2.927425622940063032e+00 -6.137340068817138672e-01 9.000000000000000000e+00
-5.574060440063476562e+00 4.029019355773925781e+00 -6.017232537269592285e-01 2.000000000000000000e+00
-8.652898788452148438e+00 6.259052276611328125e+00 -5.596807003021240234e-01 2.000000000000000000e+00
-3.265349578857421875e+01 2.362850379943848012e+01 9.305325508117675781e+00 1.200000000000000000e+01
-1.916359305381774902e+00 1.391805648803710938e+00 -6.346243023872375488e-01 1.900000000000000000e+01
-2.222673177719116211e+00 1.615459322929382102e+00 -6.343619823455810547e-01 1.400000000000000000e+01
-2.621628284454346147e+00 1.906122922897339089e+00 -6.300513148307800293e-01 9.000000000000000000e+00
-3.162658691406250000e+00 2.301181077957152876e+00 -6.194804906845092773e-01 9.000000000000000000e+00
-4.047181129455566406e+00 2.946929454803466797e+00 -6.147089600563049316e-01 9.000000000000000000e+00
-5.543151378631591797e+00 4.037691593170166016e+00 -5.999801158905029297e-01 2.000000000000000000e+00
-8.646039962768554688e+00 6.302489757537841797e+00 -5.607274174690246582e-01 2.000000000000000000e+00
-1.920844078063965066e+00 1.405330657958983931e+00 -6.377301216125488281e-01 1.900000000000000000e+01
-2.217020511627196822e+00 1.623208045959473100e+00 -6.343619823455810547e-01 1.400000000000000000e+01
-2.611790895462036133e+00 1.912942409515381081e+00 -6.292880773544311523e-01 1.000000000000000000e+01
-3.145047187805175781e+00 2.305200099945067915e+00 -6.176032423973083496e-01 9.000000000000000000e+00
-3.296345138549804688e+01 2.416980361938476918e+01 5.018823146820068359e+00 2.400000000000000000e+01
-4.027266025543212891e+00 2.953994274139403853e+00 -6.132465600967407227e-01 1.000000000000000000e+01
-5.522598266601563388e+00 4.052301406860351562e+00 -5.992828607559204102e-01 3.000000000000000000e+00
-8.607889175415039062e+00 6.320810317993164062e+00 -5.596807003021240234e-01 2.000000000000000000e+00
-1.923702597618103027e+00 1.417757630348206010e+00 -6.403183341026306152e-01 1.800000000000000000e+01
-2.197226047515869141e+00 1.620526790618896040e+00 -6.303128600120544434e-01 1.500000000000000000e+01
-2.611416816711425781e+00 1.926709890365601030e+00 -6.308145523071289062e-01 1.000000000000000000e+01
-3.138570547103881836e+00 2.317337751388549805e+00 -6.179161071777343750e-01 8.000000000000000000e+00
-3.315991210937500000e+01 2.449229049682616832e+01 5.061721324920654297e+00 2.500000000000000000e+01
-4.016930103302001953e+00 2.968034267425537109e+00 -6.132465600967407227e-01 9.000000000000000000e+00
-5.505214691162109375e+00 4.069185733795166016e+00 -5.989342927932739258e-01 3.000000000000000000e+00
-8.553658485412597656e+00 6.327064037322998047e+00 -5.575872659683227539e-01 2.000000000000000000e+00
-1.917190790176392046e+00 1.423312425613403098e+00 -6.398006677627563477e-01 1.900000000000000000e+01
-2.196248769760131836e+00 1.631673216819762962e+00 -6.316625475883483887e-01 1.400000000000000000e+01
-2.599948167800902876e+00 1.932300448417664018e+00 -6.296696662902832031e-01 1.100000000000000000e+01
-3.125707387924193892e+00 2.324742555618286133e+00 -6.169775128364562988e-01 9.000000000000000000e+00
-3.990620851516724077e+00 2.970185518264770952e+00 -6.108091473579406738e-01 9.000000000000000000e+00
-5.467006206512451172e+00 4.070529460906982422e+00 -5.963196158409118652e-01 4.000000000000000000e+00
-8.505895614624023438e+00 6.337790012359619141e+00 -5.559125542640686035e-01 2.000000000000000000e+00
-1.901877403259276900e+00 1.421233534812927024e+00 -6.361772418022155762e-01 1.800000000000000000e+01
-2.197354555130004883e+00 1.643233060836791992e+00 -6.334621906280517578e-01 1.300000000000000000e+01
-2.587576866149901900e+00 1.935754776000977007e+00 -6.281431913375854492e-01 1.100000000000000000e+01
-3.126295089721680132e+00 2.340470075607299805e+00 -6.185418963432312012e-01 8.000000000000000000e+00
-3.990802288055419922e+00 2.989849090576171875e+00 -6.122716069221496582e-01 9.000000000000000000e+00
-5.470134258270263672e+00 4.099633216857910156e+00 -5.980626940727233887e-01 3.000000000000000000e+00
-8.511507987976074219e+00 6.383654594421386719e+00 -5.575872659683227539e-01 2.000000000000000000e+00
-1.892274379730225053e+00 1.424378275871277078e+00 -6.346243023872375488e-01 1.900000000000000000e+01
-2.194718122482299805e+00 1.653238296508789062e+00 -6.343619823455810547e-01 1.300000000000000000e+01
-2.587075710296630859e+00 1.949501395225524902e+00 -6.296696662902832031e-01 1.400000000000000000e+01
-3.121260881423950195e+00 2.353747367858887163e+00 -6.191676259040832520e-01 8.000000000000000000e+00
-3.227639007568358664e+01 2.434851074218750000e+01 4.964225769042968750e+00 2.300000000000000000e+01
-3.977172374725341797e+00 3.001369714736938032e+00 -6.117841005325317383e-01 9.000000000000000000e+00
-5.428758144378662109e+00 4.098295211791992188e+00 -5.950993895530700684e-01 4.000000000000000000e+00
-8.463675498962402344e+00 6.394063472747802734e+00 -5.559125542640686035e-01 2.000000000000000000e+00
-1.891909122467041016e+00 1.434476375579833984e+00 -6.361772418022155762e-01 1.900000000000000000e+01
-2.182724237442017046e+00 1.656177520751952903e+00 -6.325623393058776855e-01 1.300000000000000000e+01
-2.578691005706787109e+00 1.957333087921143022e+00 -6.292880773544311523e-01 1.200000000000000000e+01
-3.092576265335083008e+00 2.349095106124877930e+00 -6.151003241539001465e-01 9.000000000000000000e+00
-3.222913360595703125e+01 2.448985099792480113e+01 4.970075607299804688e+00 2.300000000000000000e+01
-3.972992658615111861e+00 3.020039558410644975e+00 -6.127590537071228027e-01 9.000000000000000000e+00
-5.431864738464354581e+00 4.130486011505126953e+00 -5.970168113708496094e-01 4.000000000000000000e+00
-8.268059730529785156e+00 6.291734695434570312e+00 -5.445032715797424316e-01 1.800000000000000000e+01
-1.891496181488037109e+00 1.444589376449584961e+00 -6.377301216125488281e-01 1.900000000000000000e+01
-2.176929712295531782e+00 1.663786530494689941e+00 -6.325623393058776855e-01 1.300000000000000000e+01
-2.576521873474121094e+00 1.969899773597717063e+00 -6.304329037666320801e-01 1.200000000000000000e+01
-3.087495326995850053e+00 2.362276554107666016e+00 -6.157260537147521973e-01 9.000000000000000000e+00
-3.218443679809570312e+01 2.463357353210448863e+01 4.976412773132324219e+00 2.300000000000000000e+01
-3.946665048599243164e+00 3.021821498870850053e+00 -6.103217005729675293e-01 9.000000000000000000e+00
-5.392106056213378906e+00 4.130037307739257812e+00 -5.942278504371643066e-01 5.000000000000000000e+00
-8.295186996459960938e+00 6.358222961425781250e+00 -5.477480888366699219e-01 2.000000000000000000e+00
-1.886188864707946999e+00 1.451512336730957031e+00 -6.377301216125488281e-01 2.100000000000000000e+01
-2.167729139328002930e+00 1.669376134872436968e+00 -6.316625475883483887e-01 1.300000000000000000e+01
-2.563063621520996094e+00 1.974537372589111106e+00 -6.289064288139343262e-01 1.200000000000000000e+01
-3.083509683609008789e+00 2.377195119857788086e+00 -6.166646480560302734e-01 8.000000000000000000e+00
-3.935563087463378906e+00 3.036266565322875977e+00 -6.103217005729675293e-01 1.000000000000000000e+01
-5.400591850280761719e+00 4.168032169342041016e+00 -5.968425273895263672e-01 5.000000000000000000e+00
-8.325571060180664062e+00 6.430091857910156250e+00 -5.513069629669189453e-01 2.000000000000000000e+00
-1.879583716392517090e+00 1.456904053688049094e+00 -6.372125148773193359e-01 2.000000000000000000e+01
-2.158809185028076172e+00 1.674543976783751997e+00 -6.307627558708190918e-01 1.400000000000000000e+01
-2.549951314926147017e+00 1.978657841682434082e+00 -6.273799538612365723e-01 1.200000000000000000e+01
-3.078313350677489790e+00 2.390367269515991211e+00 -6.172903776168823242e-01 8.000000000000000000e+00
-3.912400722503662109e+00 3.040241241455078125e+00 -6.083717346191406250e-01 9.000000000000000000e+00
-5.365560531616210938e+00 4.170961856842041016e+00 -5.945764780044555664e-01 4.000000000000000000e+00
-8.299921989440917969e+00 6.456661701202392578e+00 -5.510976314544677734e-01 2.000000000000000000e+00
-1.867127418518065962e+00 1.457186102867126021e+00 -6.346243023872375488e-01 1.900000000000000000e+01
-2.157851696014403853e+00 1.685292124748229980e+00 -6.321124434471130371e-01 1.300000000000000000e+01
-2.541828632354735884e+00 1.985894203186034934e+00 -6.269983649253845215e-01 1.300000000000000000e+01
-3.070369720458983931e+00 2.400562047958374023e+00 -6.172903776168823242e-01 9.000000000000000000e+00
-3.908551216125487837e+00 3.058091640472412109e+00 -6.093466877937316895e-01 8.000000000000000000e+00
-5.340716838836669922e+00 4.180135726928710938e+00 -5.933563113212585449e-01 4.000000000000000000e+00
-8.243873596191406250e+00 6.457055568695068359e+00 -5.487948656082153320e-01 2.000000000000000000e+00
-3.571192550659179688e+01 2.798160171508789062e+01 1.047417068481444957e+01 1.300000000000000000e+01
-1.860510706901550071e+00 1.462500810623168945e+00 -6.341066360473632812e-01 1.800000000000000000e+01
-2.150424242019652876e+00 1.691609382629394975e+00 -6.316625475883483887e-01 1.300000000000000000e+01
-2.527167081832886186e+00 1.988684296607970969e+00 -6.250902414321899414e-01 1.300000000000000000e+01
-3.051107883453369141e+00 2.402710199356079102e+00 -6.151003241539001465e-01 9.000000000000000000e+00
-3.904089212417602983e+00 3.076631069183350053e+00 -6.103217005729675293e-01 9.000000000000000000e+00
-5.337045669555664062e+00 4.207387447357177734e+00 -5.945764780044555664e-01 4.000000000000000000e+00
-8.221283912658691406e+00 6.485792636871337891e+00 -5.487948656082153320e-01 2.000000000000000000e+00
-3.550083160400391336e+01 2.801675224304198863e+01 1.044087791442870916e+01 1.300000000000000000e+01
-1.864739537239074929e+00 1.475855946540832964e+00 -6.372125148773193359e-01 1.900000000000000000e+01
-2.137164592742919922e+00 1.692681431770324929e+00 -6.294130682945251465e-01 1.300000000000000000e+01
-2.539023876190185991e+00 2.011684179306029829e+00 -6.296696662902832031e-01 1.300000000000000000e+01
-3.049314975738524947e+00 2.417723894119263139e+00 -6.163517832756042480e-01 9.000000000000000000e+00
-3.881424903869628906e+00 3.079689741134643999e+00 -6.083717346191406250e-01 8.000000000000000000e+00
-3.506515121459960938e+01 2.782220268249512074e+01 7.089610099792479581e+00 1.500000000000000000e+01
-5.332427024841308594e+00 4.232494354248046875e+00 -5.956223607063293457e-01 4.000000000000000000e+00
-8.205986976623535156e+00 6.517988681793212891e+00 -5.492135286331176758e-01 2.000000000000000000e+00
-1.856555223464966042e+00 1.479947686195373979e+00 -6.361772418022155762e-01 1.800000000000000000e+01
-2.132766485214232954e+00 1.701346516609191895e+00 -6.298629641532897949e-01 1.400000000000000000e+01
-2.518175601959228960e+00 2.009513616561890093e+00 -6.262351274490356445e-01 1.300000000000000000e+01
-3.040856838226317915e+00 2.428353309631348100e+00 -6.163517832756042480e-01 9.000000000000000000e+00
-3.864448070526123047e+00 3.088262557983397993e+00 -6.073967814445495605e-01 8.000000000000000000e+00
-5.300502300262451172e+00 4.237397193908691406e+00 -5.937049388885498047e-01 5.000000000000000000e+00
-8.151993751525878906e+00 6.521639347076416016e+00 -5.471200942993164062e-01 2.000000000000000000e+00
-1.848365187644958052e+00 1.484000325202941895e+00 -6.351419091224670410e-01 1.800000000000000000e+01
-2.125295400619506836e+00 1.707560300827025923e+00 -6.294130682945251465e-01 1.300000000000000000e+01
-2.506555080413817915e+00 2.014601707458496094e+00 -6.250902414321899414e-01 1.300000000000000000e+01
-3.029283285140991211e+00 2.436476945877075195e+00 -6.157260537147521973e-01 1.000000000000000000e+01
-3.850551605224608931e+00 3.099243879318236861e+00 -6.069093346595764160e-01 8.000000000000000000e+00
-5.273263454437255859e+00 4.245877265930175781e+00 -5.923104286193847656e-01 4.000000000000000000e+00
-8.098073959350585938e+00 6.524992942810058594e+00 -5.450266599655151367e-01 2.000000000000000000e+00
-1.837164998054503950e+00 1.485584497451782005e+00 -6.330713629722595215e-01 1.800000000000000000e+01
-2.129926204681396040e+00 1.723549604415893999e+00 -6.325623393058776855e-01 1.200000000000000000e+01
-2.493403673171997070e+00 2.018398046493529829e+00 -6.235638260841369629e-01 1.300000000000000000e+01
-3.020760059356689009e+00 2.447036266326903853e+00 -6.157260537147521973e-01 9.000000000000000000e+00
-3.845878124237060991e+00 3.117666244506835938e+00 -6.078842878341674805e-01 9.000000000000000000e+00
-5.232102870941162109e+00 4.242924690246582031e+00 -5.893471240997314453e-01 5.000000000000000000e+00
-8.075248718261718750e+00 6.553220748901367188e+00 -5.450266599655151367e-01 2.000000000000000000e+00
-1.834964036941528098e+00 1.494428157806396040e+00 -6.341066360473632812e-01 1.700000000000000000e+01
-2.113322734832764116e+00 1.722355961799622026e+00 -6.294130682945251465e-01 1.500000000000000000e+01
-2.493951082229613814e+00 2.033292055130004883e+00 -6.254718899726867676e-01 1.300000000000000000e+01
-2.999955177307128906e+00 2.447575569152832031e+00 -6.132230758666992188e-01 1.000000000000000000e+01
-3.833434343338013139e+00 3.129816532135010210e+00 -6.076405644416809082e-01 9.000000000000000000e+00
-5.229605674743652344e+00 4.271245002746582031e+00 -5.907416343688964844e-01 4.000000000000000000e+00
-8.018302917480468750e+00 6.553562164306640625e+00 -5.427238941192626953e-01 2.000000000000000000e+00
-1.831230044364928977e+00 1.502049446105957031e+00 -6.346243023872375488e-01 1.900000000000000000e+01
-2.098259925842285156e+00 1.722303986549376997e+00 -6.267136335372924805e-01 1.300000000000000000e+01
-2.483803749084473100e+00 2.039493560791016069e+00 -6.247086524963378906e-01 1.300000000000000000e+01
-2.982235908508300781e+00 2.450507879257202148e+00 -6.113458871841430664e-01 9.000000000000000000e+00
-3.819419145584106001e+00 3.140656948089600053e+00 -6.071530580520629883e-01 9.000000000000000000e+00
-5.200815677642822266e+00 4.278082370758056641e+00 -5.891728401184082031e-01 2.000000000000000000e+00
-7.967621326446533203e+00 6.558662891387938565e+00 -5.408397912979125977e-01 2.000000000000000000e+00
-1.825975775718688965e+00 1.508432507514954057e+00 -6.346243023872375488e-01 1.900000000000000000e+01
-2.099745035171508789e+00 1.735826015472412109e+00 -6.289631724357604980e-01 1.200000000000000000e+01
-2.478182315826416016e+00 2.049402475357056108e+00 -6.250902414321899414e-01 1.300000000000000000e+01
-2.985838413238524947e+00 2.470978260040283203e+00 -6.138488650321960449e-01 9.000000000000000000e+00
-3.447045898437500000e+01 2.853671646118164062e+01 5.494601249694824219e+00 3.700000000000000000e+01
-3.782442092895507812e+00 3.132445573806763139e+00 -6.030095219612121582e-01 9.000000000000000000e+00
-5.190453529357910156e+00 4.300024032592773438e+00 -5.896957516670227051e-01 5.000000000000000000e+00
-7.926227569580078125e+00 6.571138858795166016e+00 -5.395836830139160156e-01 2.000000000000000000e+00
-1.814758896827697976e+00 1.509854912757873979e+00 -6.325537562370300293e-01 1.900000000000000000e+01
-2.099663734436035156e+00 1.748132467269897017e+00 -6.307627558708190918e-01 1.200000000000000000e+01
-2.452910900115966797e+00 2.042963027954102007e+00 -6.205108761787414551e-01 1.300000000000000000e+01
-2.989334344863892046e+00 2.491503477096558061e+00 -6.163517832756042480e-01 9.000000000000000000e+00
-3.782155990600585938e+00 3.154530048370360884e+00 -6.047157049179077148e-01 9.000000000000000000e+00
-5.137166500091552734e+00 4.286205291748046875e+00 -5.853379964828491211e-01 4.000000000000000000e+00
-7.924705505371093750e+00 6.616687297821044922e+00 -5.410491228103637695e-01 2.000000000000000000e+00
-1.808261036872863992e+00 1.514624118804932085e+00 -6.320360898971557617e-01 1.900000000000000000e+01
-2.090867996215819868e+00 1.752581834793091042e+00 -6.298629641532897949e-01 1.100000000000000000e+01
-2.459662199020386186e+00 2.062438964843750000e+00 -6.239454150199890137e-01 1.200000000000000000e+01
-2.959870815277100053e+00 2.483626365661621094e+00 -6.119716167449951172e-01 9.000000000000000000e+00
-3.768633842468262163e+00 3.164501667022705078e+00 -6.042281985282897949e-01 9.000000000000000000e+00
-5.130552768707275391e+00 4.309624671936035156e+00 -5.862095355987548828e-01 5.000000000000000000e+00
-7.869085311889648438e+00 6.614656925201416016e+00 -5.387463569641113281e-01 2.000000000000000000e+00
-1.805916309356689009e+00 1.523418188095092995e+00 -6.330713629722595215e-01 2.000000000000000000e+01
-2.087715864181518999e+00 1.762383818626404031e+00 -6.307627558708190918e-01 1.100000000000000000e+01
-2.444947957992554155e+00 2.064678907394409180e+00 -6.220373511314392090e-01 1.200000000000000000e+01
-2.951183080673218218e+00 2.493943214416503906e+00 -6.119716167449951172e-01 9.000000000000000000e+00
-3.763627767562866211e+00 3.182764768600463867e+00 -6.052031517028808594e-01 9.000000000000000000e+00
-5.118520259857177734e+00 4.330080986022949219e+00 -5.865581631660461426e-01 5.000000000000000000e+00
-7.815460205078125000e+00 6.616275310516357422e+00 -5.366529226303100586e-01 2.000000000000000000e+00
-1.806476712226867898e+00 1.534715890884398970e+00 -6.351419091224670410e-01 2.300000000000000000e+01
-2.069673776626586914e+00 1.759562611579895020e+00 -6.271635293960571289e-01 1.200000000000000000e+01
-2.437726020812987837e+00 2.073200702667235884e+00 -6.220373511314392090e-01 1.100000000000000000e+01
-2.936442375183105025e+00 2.499108314514160156e+00 -6.107201576232910156e-01 9.000000000000000000e+00
-3.746449947357178178e+00 3.190734386444091797e+00 -6.042281985282897949e-01 9.000000000000000000e+00
-5.098824501037597656e+00 4.344045162200927734e+00 -5.860351920127868652e-01 4.000000000000000000e+00
-7.822714805603027344e+00 6.669432163238525391e+00 -5.387463569641113281e-01 2.000000000000000000e+00
-1.796704769134521040e+00 1.537244558334351030e+00 -6.335890293121337891e-01 2.200000000000000000e+01
-2.062038898468018022e+00 1.765509009361267090e+00 -6.267136335372924805e-01 1.300000000000000000e+01
-2.430474519729613814e+00 2.081697225570679155e+00 -6.220373511314392090e-01 1.100000000000000000e+01
-2.927700996398925781e+00 2.509343147277832031e+00 -6.107201576232910156e-01 9.000000000000000000e+00
-3.732275724411011186e+00 3.201207637786864790e+00 -6.037407517433166504e-01 9.000000000000000000e+00
-5.070021152496337891e+00 4.350140571594238281e+00 -5.844663977622985840e-01 5.000000000000000000e+00
-7.787263870239257812e+00 6.686288833618164062e+00 -5.379089713096618652e-01 2.000000000000000000e+00
-1.769405937194823863e+01 1.520318031311034979e+01 -4.071995615959166925e-01 3.000000000000000000e+00
-1.788669824600219949e+00 1.540672659873961958e+00 -6.325537562370300293e-01 2.100000000000000000e+01
-2.057648897171020952e+00 1.773609519004821999e+00 -6.271635293960571289e-01 1.400000000000000000e+01
-2.417610406875609907e+00 2.084617376327515093e+00 -6.205108761787414551e-01 1.100000000000000000e+01
-2.925345897674560991e+00 2.524199962615966797e+00 -6.119716167449951172e-01 9.000000000000000000e+00
-3.723142147064208984e+00 3.214864253997803178e+00 -6.039844751358032227e-01 1.100000000000000000e+01
-5.045012950897216797e+00 4.357812404632568359e+00 -5.832462310791015625e-01 5.000000000000000000e+00
-7.771092414855957031e+00 6.717300415039063388e+00 -5.383276343345642090e-01 2.000000000000000000e+00
-1.778903007507323997e+00 1.543109178543091042e+00 -6.310008168220520020e-01 2.300000000000000000e+01
-2.060275077819824219e+00 1.788446068763732910e+00 -6.298629641532897949e-01 1.300000000000000000e+01
-2.407354354858397993e+00 2.090469360351562944e+00 -6.197476387023925781e-01 1.200000000000000000e+01
-2.912043809890747070e+00 2.530508995056151900e+00 -6.110330224037170410e-01 8.000000000000000000e+00
-3.708901643753052202e+00 3.225235700607299805e+00 -6.034969687461853027e-01 1.100000000000000000e+01
-5.010229110717773438e+00 4.358397006988525391e+00 -5.809801816940307617e-01 5.000000000000000000e+00
-7.747597217559813565e+00 6.744385242462158203e+00 -5.383276343345642090e-01 2.000000000000000000e+00
-1.776415467262268066e+00 1.551851272583008035e+00 -6.320360898971557617e-01 2.300000000000000000e+01
-2.052552461624145952e+00 1.794344305992126021e+00 -6.294130682945251465e-01 1.300000000000000000e+01
-2.402998447418212891e+00 2.101444482803345171e+00 -6.205108761787414551e-01 1.100000000000000000e+01
-2.892787218093872070e+00 2.531552076339722124e+00 -6.088429093360900879e-01 9.000000000000000000e+00
-3.688660383224486861e+00 3.230315446853638139e+00 -6.020345687866210938e-01 9.000000000000000000e+00
-4.993485927581787109e+00 4.374546527862548828e+00 -5.808058977127075195e-01 5.000000000000000000e+00
-7.699978351593017578e+00 6.750322341918945312e+00 -5.366529226303100586e-01 2.000000000000000000e+00
-1.778239846229553001e+00 1.564422845840454102e+00 -6.346243023872375488e-01 2.100000000000000000e+01
-2.041888475418090820e+00 1.797634959220886008e+00 -6.280633211135864258e-01 1.300000000000000000e+01
-2.397121667861938032e+00 2.111117362976074219e+00 -6.208924651145935059e-01 1.200000000000000000e+01
-2.888378858566284180e+00 2.545552730560303178e+00 -6.097815632820129395e-01 8.000000000000000000e+00
-3.686295032501221147e+00 3.251049757003784180e+00 -6.034969687461853027e-01 9.000000000000000000e+00
-4.987150192260742188e+00 4.399858951568604404e+00 -5.818517208099365234e-01 4.000000000000000000e+00
-7.616478443145751953e+00 6.724285125732421875e+00 -5.324659943580627441e-01 2.000000000000000000e+00
-1.775660157203674094e+00 1.573182702064513938e+00 -6.356595754623413086e-01 2.200000000000000000e+01
-2.029768466949462891e+00 1.799580335617064986e+00 -6.262637376785278320e-01 1.400000000000000000e+01
-2.386800289154053178e+00 2.116866588592528853e+00 -6.201292276382446289e-01 1.200000000000000000e+01
-2.886862516403197798e+00 2.562175750732421875e+00 -6.113458871841430664e-01 9.000000000000000000e+00
-3.660082101821898970e+00 3.250715494155883789e+00 -6.010596156120300293e-01 9.000000000000000000e+00
-4.961335182189941406e+00 4.407977581024169922e+00 -5.806315541267395020e-01 5.000000000000000000e+00
-7.637738704681395596e+00 6.790642738342285156e+00 -5.356062054634094238e-01 2.000000000000000000e+00
-1.761508941650391069e+00 1.571654558181762917e+00 -6.325537562370300293e-01 2.100000000000000000e+01
-2.027835369110106978e+00 1.810548305511475053e+00 -6.276134252548217773e-01 1.500000000000000000e+01
-2.373539447784423828e+00 2.119953870773314986e+00 -6.186027526855468750e-01 1.200000000000000000e+01
-2.879374265670775923e+00 2.573553562164307085e+00 -6.116587519645690918e-01 8.000000000000000000e+00
-3.651671886444091797e+00 3.266118526458739790e+00 -6.015470623970031738e-01 9.000000000000000000e+00
-4.953342437744140625e+00 4.431911468505859375e+00 -5.815030932426452637e-01 5.000000000000000000e+00
-7.587204933166503906e+00 6.793281078338623047e+00 -5.337221026420593262e-01 2.000000000000000000e+00
-1.749375462532043013e+00 1.570727467536926047e+00 -6.299655437469482422e-01 2.000000000000000000e+01
-2.025036573410034180e+00 1.819514870643615945e+00 -6.285132169723510742e-01 1.300000000000000000e+01
-2.365407705307006836e+00 2.126087903976439986e+00 -6.182211637496948242e-01 1.200000000000000000e+01
-2.869806289672852007e+00 2.581265687942504883e+00 -6.113458871841430664e-01 9.000000000000000000e+00
-3.635491371154785156e+00 3.272262334823607954e+00 -6.005721092224121094e-01 9.000000000000000000e+00
-4.915704250335693359e+00 4.426120281219482422e+00 -5.787141323089599609e-01 5.000000000000000000e+00
-7.583631038665770596e+00 6.833127021789550781e+00 -5.349781513214111328e-01 2.000000000000000000e+00
-1.745314955711364968e+00 1.578119993209839089e+00 -6.304832100868225098e-01 2.100000000000000000e+01
-2.014337778091431108e+00 1.822649955749511941e+00 -6.271635293960571289e-01 1.300000000000000000e+01
-2.353605270385742188e+00 2.130379199981689009e+00 -6.170762777328491211e-01 1.200000000000000000e+01
-2.846137762069702148e+00 2.578006029129027876e+00 -6.082171797752380371e-01 9.000000000000000000e+00
-3.629930019378662109e+00 3.290265321731566939e+00 -6.015470623970031738e-01 9.000000000000000000e+00
-4.901700496673583984e+00 4.444590568542479581e+00 -5.788884162902832031e-01 4.000000000000000000e+00
-7.553816318511962891e+00 6.854188442230224609e+00 -5.345594286918640137e-01 2.000000000000000000e+00
-1.690076446533203125e+01 1.534619140625000000e+01 -3.984733521938323975e-01 3.000000000000000000e+00
-1.746382236480712891e+00 1.591315627098083052e+00 -6.330713629722595215e-01 2.300000000000000000e+01
-2.003004550933837891e+00 1.826431870460510032e+00 -6.258138418197631836e-01 1.600000000000000000e+01
-2.346858263015747070e+00 2.140723705291748047e+00 -6.174579262733459473e-01 1.100000000000000000e+01
-2.837677001953125000e+00 2.590247154235839844e+00 -6.085300445556640625e-01 9.000000000000000000e+00
-3.602612733840941939e+00 3.290790796279906782e+00 -5.991097092628479004e-01 9.000000000000000000e+00
-4.874302387237548828e+00 4.453970909118652344e+00 -5.776682496070861816e-01 4.000000000000000000e+00
-7.468484878540039062e+00 6.829231262207031250e+00 -5.303725600242614746e-01 2.000000000000000000e+00
-1.739393472671509011e+00 1.596095919609070046e+00 -6.325537562370300293e-01 2.400000000000000000e+01
-1.993746280670166016e+00 1.830776453018188032e+00 -6.249140501022338867e-01 1.600000000000000000e+01
-2.343708992004394975e+00 2.152887105941772017e+00 -6.186027526855468750e-01 1.200000000000000000e+01
-2.830072402954102007e+00 2.601473569869995117e+00 -6.088429093360900879e-01 9.000000000000000000e+00
-3.594025850296020952e+00 3.306034088134766069e+00 -5.995971560478210449e-01 9.000000000000000000e+00
-4.861658096313476562e+00 4.473656654357910156e+00 -5.780168771743774414e-01 5.000000000000000000e+00
-7.471046924591063565e+00 6.879611968994140625e+00 -5.322566628456115723e-01 2.000000000000000000e+00
-1.731532096862792969e+00 1.598931193351746050e+00 -6.315184831619262695e-01 2.100000000000000000e+01
-1.993709802627563032e+00 1.842321157455443892e+00 -6.267136335372924805e-01 1.500000000000000000e+01
-2.323958873748778853e+00 2.148245573043822798e+00 -6.151682138442993164e-01 1.100000000000000000e+01
-2.823335886001586914e+00 2.611692905426024947e+00 -6.091558337211608887e-01 9.000000000000000000e+00
-3.566140890121459961e+00 3.301126718521118164e+00 -5.966722965240478516e-01 9.000000000000000000e+00
-4.835884571075438565e+00 4.478078365325927734e+00 -5.766223669052124023e-01 5.000000000000000000e+00
-7.414237499237061435e+00 6.870468139648438388e+00 -5.297445654869079590e-01 2.000000000000000000e+00
-1.717451930046081987e+00 1.597072362899780051e+00 -6.284126639366149902e-01 1.900000000000000000e+01
-1.988693356513977051e+00 1.850596785545348899e+00 -6.271635293960571289e-01 1.400000000000000000e+01
-2.319319963455200195e+00 2.159019947052001953e+00 -6.159314513206481934e-01 1.200000000000000000e+01
-2.809865951538085938e+00 2.617492914199829102e+00 -6.082171797752380371e-01 9.000000000000000000e+00
-3.572020530700684038e+00 3.329797744750977007e+00 -5.995971560478210449e-01 9.000000000000000000e+00
-4.810023784637451172e+00 4.485419750213623047e+00 -5.754022002220153809e-01 5.000000000000000000e+00
-7.384369373321533203e+00 6.890856266021729404e+00 -5.293258428573608398e-01 2.000000000000000000e+00
-1.714686870574950950e+00 1.605698704719543013e+00 -6.294479370117187500e-01 1.600000000000000000e+01
-1.982221484184264915e+00 1.857527375221251997e+00 -6.271635293960571289e-01 1.300000000000000000e+01
-2.313201904296875000e+00 2.168445348739624023e+00 -6.163130402565002441e-01 1.100000000000000000e+01
-2.786304950714110884e+00 2.613770484924315962e+00 -6.050885319709777832e-01 9.000000000000000000e+00
-3.569059371948242188e+00 3.350397825241088867e+00 -6.010596156120300293e-01 9.000000000000000000e+00
-4.791432380676270419e+00 4.499454498291015625e+00 -5.750535726547241211e-01 5.000000000000000000e+00
-7.357359886169433594e+00 6.913855075836181641e+00 -5.291165113449096680e-01 2.000000000000000000e+00
-1.626617240905762074e+01 1.529633712768555043e+01 -3.897471427917479914e-01 3.000000000000000000e+00
-1.713287949562072976e+00 1.615650415420532005e+00 -6.310008168220520020e-01 1.800000000000000000e+01
-1.965804219245911089e+00 1.855072975158690962e+00 -6.240141987800598145e-01 1.500000000000000000e+01
-2.307046175003052202e+00 2.177854537963867188e+00 -6.166946887969970703e-01 1.100000000000000000e+01
-2.777164220809936968e+00 2.623480558395386186e+00 -6.050885319709777832e-01 9.000000000000000000e+00
-3.531376600265502930e+00 3.338289499282836914e+00 -5.966722965240478516e-01 9.000000000000000000e+00
-4.765563964843750000e+00 4.506569862365722656e+00 -5.738334059715270996e-01 5.000000000000000000e+00
-7.350589275360107422e+00 6.955968856811523438e+00 -5.303725600242614746e-01 2.000000000000000000e+00
-1.710439562797545943e+00 1.624281644821166992e+00 -6.320360898971557617e-01 1.800000000000000000e+01
-1.952253699302672896e+00 1.855211615562438965e+00 -6.217647194862365723e-01 1.400000000000000000e+01
-2.300852775573730025e+00 2.187247037887572798e+00 -6.170762777328491211e-01 1.200000000000000000e+01
-2.773714542388916016e+00 2.638604879379272017e+00 -6.063399910926818848e-01 9.000000000000000000e+00
-3.511075496673583984e+00 3.342383861541748047e+00 -5.952098965644836426e-01 9.000000000000000000e+00
-4.759903907775878906e+00 4.532795429229736328e+00 -5.750535726547241211e-01 5.000000000000000000e+00
-7.268428325653076172e+00 6.926470279693604404e+00 -5.261856913566589355e-01 2.000000000000000000e+00
-1.601427268981933949e+01 1.527151870727539062e+01 -3.862566649913787842e-01 3.000000000000000000e+00
-1.694985985755919966e+00 1.620896100997925027e+00 -6.284126639366149902e-01 1.600000000000000000e+01
-1.948581814765929954e+00 1.864709615707397017e+00 -6.226645112037658691e-01 1.100000000000000000e+01
-2.273349285125731978e+00 2.176258563995360884e+00 -6.117336153984069824e-01 1.100000000000000000e+01
-2.767340183258057085e+00 2.651003837585449219e+00 -6.069657206535339355e-01 9.000000000000000000e+00
-3.499387025833129883e+00 3.354619264602661133e+00 -5.952098965644836426e-01 9.000000000000000000e+00
-4.725358009338378906e+00 4.531455516815186435e+00 -5.727875232696533203e-01 4.000000000000000000e+00
-7.238441944122313565e+00 6.946268081665039062e+00 -5.257670283317565918e-01 2.000000000000000000e+00
-1.692385077476501021e+00 1.629187583923340066e+00 -6.294479370117187500e-01 1.600000000000000000e+01
-1.955018639564513938e+00 1.883329033851623979e+00 -6.267136335372924805e-01 9.000000000000000000e+00
-2.276015758514403853e+00 2.193321466445922852e+00 -6.144049763679504395e-01 1.200000000000000000e+01
-2.751424312591553178e+00 2.653309822082519975e+00 -6.054013967514038086e-01 9.000000000000000000e+00
-3.496814250946044922e+00 3.374476194381713867e+00 -5.966722965240478516e-01 9.000000000000000000e+00
-4.713171958923339844e+00 4.549868106842041016e+00 -5.731361508369445801e-01 4.000000000000000000e+00
-7.198130130767822266e+00 6.953581809997558594e+00 -5.245109796524047852e-01 2.000000000000000000e+00
-1.682526588439940962e+00 1.631051182746886985e+00 -6.278949975967407227e-01 1.700000000000000000e+01
-1.937242746353148970e+00 1.879286766052246094e+00 -6.231144070625305176e-01 7.000000000000000000e+00
-2.268345832824707031e+00 2.201252698898314986e+00 -6.144049763679504395e-01 1.200000000000000000e+01
-2.729391574859619141e+00 2.650512456893920898e+00 -6.025855541229248047e-01 7.000000000000000000e+00
-3.485013723373413086e+00 3.386661767959595171e+00 -5.966722965240478516e-01 9.000000000000000000e+00
-4.685832500457763672e+00 4.555181980133056641e+00 -5.717417001724243164e-01 6.000000000000000000e+00
-7.156634330749511719e+00 6.961953163146972656e+00 -5.232548713684082031e-01 2.000000000000000000e+00
-1.679873824119568093e+00 1.639320135116576926e+00 -6.289302706718444824e-01 1.700000000000000000e+01
-1.925423264503479004e+00 1.880254507064818892e+00 -6.213148236274719238e-01 7.000000000000000000e+00
-2.263842344284058061e+00 2.211506605148314986e+00 -6.151682138442993164e-01 1.200000000000000000e+01
-2.727649927139281782e+00 2.666453123092650923e+00 -6.041498780250549316e-01 8.000000000000000000e+00
-3.462411880493164062e+00 3.387094497680664062e+00 -5.947223901748657227e-01 9.000000000000000000e+00
-4.667853355407714844e+00 4.567908763885498047e+00 -5.713930726051330566e-01 6.000000000000000000e+00
-7.133508205413818359e+00 6.985647201538085938e+00 -5.232548713684082031e-01 2.000000000000000000e+00
-1.679652810096740945e+00 1.650590300559998003e+00 -6.310008168220520020e-01 1.900000000000000000e+01
-1.928574562072753906e+00 1.896528601646422896e+00 -6.244641542434692383e-01 7.000000000000000000e+00
-2.249111175537108931e+00 2.212511539459228960e+00 -6.132600903511047363e-01 1.200000000000000000e+01
-2.722548961639403853e+00 2.680115461349486861e+00 -6.050885319709777832e-01 9.000000000000000000e+00
-3.447739362716674805e+00 3.396373748779296875e+00 -5.942349433898925781e-01 9.000000000000000000e+00
-4.646203517913818359e+00 4.578580856323242188e+00 -5.706958174705505371e-01 4.000000000000000000e+00
-7.128989696502686435e+00 7.030138492584229404e+00 -5.247203111648559570e-01 2.000000000000000000e+00
-1.672218918800354004e+00 1.655376315116882102e+00 -6.304832100868225098e-01 1.600000000000000000e+01
-1.928532600402832031e+00 1.910441756248473899e+00 -6.267136335372924805e-01 9.000000000000000000e+00
-2.236803293228148970e+00 2.216594219207764116e+00 -6.121152639389038086e-01 1.100000000000000000e+01
-2.712707519531250000e+00 2.690076112747191939e+00 -6.050885319709777832e-01 9.000000000000000000e+00
-3.440903902053833008e+00 3.414580583572388139e+00 -5.952098965644836426e-01 9.000000000000000000e+00
-4.623734951019287109e+00 4.589964866638183594e+00 -5.699985623359680176e-01 4.000000000000000000e+00
-7.074836254119873047e+00 7.028069019317626953e+00 -5.226268768310546875e-01 2.000000000000000000e+00
-1.651380538940429910e+00 1.646200656890868919e+00 -6.247891783714294434e-01 1.700000000000000000e+01
-1.927370786666869895e+00 1.922667145729064941e+00 -6.285132169723510742e-01 1.200000000000000000e+01
-2.224883317947388139e+00 2.220228433609008789e+00 -6.109703779220581055e-01 1.200000000000000000e+01
-2.694914102554320845e+00 2.691154003143310991e+00 -6.032112836837768555e-01 9.000000000000000000e+00
-3.409305572509766069e+00 3.406926393508911133e+00 -5.917975306510925293e-01 9.000000000000000000e+00
-4.599230289459229404e+00 4.597625255584716797e+00 -5.689526796340942383e-01 3.000000000000000000e+00
-7.038964271545410156e+00 7.041421890258789062e+00 -5.217894911766052246e-01 2.000000000000000000e+00
-1.656531333923340066e+00 1.662904262542725053e+00 -6.289302706718444824e-01 1.700000000000000000e+01
-1.905524492263793945e+00 1.914191126823425071e+00 -6.235643029212951660e-01 1.400000000000000000e+01
-2.222658872604370117e+00 2.233547449111938032e+00 -6.124968528747558594e-01 1.200000000000000000e+01
-2.677146434783935991e+00 2.692140340805054155e+00 -6.013340950012207031e-01 9.000000000000000000e+00
-3.414183616638184038e+00 3.435703039169311968e+00 -5.947223901748657227e-01 9.000000000000000000e+00
-4.583153724670410156e+00 4.613651275634765625e+00 -5.689526796340942383e-01 4.000000000000000000e+00
-6.966501235961914062e+00 7.017756462097167969e+00 -5.182306170463562012e-01 2.000000000000000000e+00
-1.650716662406920943e+00 1.668676495552062988e+00 -6.289302706718444824e-01 1.700000000000000000e+01
-1.898831129074096902e+00 1.920831084251404031e+00 -6.235643029212951660e-01 1.400000000000000000e+01
-2.221748828887939009e+00 2.248274803161621094e+00 -6.144049763679504395e-01 1.300000000000000000e+01
-2.678836822509766069e+00 2.712713479995727983e+00 -6.038370132446289062e-01 9.000000000000000000e+00
-3.388226509094237837e+00 3.433470487594604048e+00 -5.922850370407104492e-01 9.000000000000000000e+00
-4.565621852874755859e+00 4.628203392028808594e+00 -5.687783956527709961e-01 4.000000000000000000e+00
-6.925136566162109375e+00 7.024962902069091797e+00 -5.169745683670043945e-01 2.000000000000000000e+00
-1.646528124809264915e+00 1.675519227981566939e+00 -6.294479370117187500e-01 1.900000000000000000e+01
-1.895181775093079057e+00 1.929898023605346902e+00 -6.244641542434692383e-01 1.400000000000000000e+01
-2.207404375076293945e+00 2.248624801635742188e+00 -6.124968528747558594e-01 1.200000000000000000e+01
-2.662909746170043945e+00 2.714531183242797852e+00 -6.022726893424987793e-01 9.000000000000000000e+00
-3.369874000549315962e+00 3.437599420547484907e+00 -5.910663008689880371e-01 8.000000000000000000e+00
-4.560010433197020596e+00 4.653278827667236328e+00 -5.699985623359680176e-01 6.000000000000000000e+00
-6.912981986999511719e+00 7.059304714202880859e+00 -5.178119540214538574e-01 2.000000000000000000e+00
-1.636621713638306108e+00 1.677108645439147949e+00 -6.278949975967407227e-01 1.800000000000000000e+01
-1.888433694839477983e+00 1.936501741409301980e+00 -6.244641542434692383e-01 1.400000000000000000e+01
-2.196800947189331055e+00 2.253504753112792969e+00 -6.117336153984069824e-01 1.200000000000000000e+01
-2.657553195953369141e+00 2.728054761886597124e+00 -6.032112836837768555e-01 9.000000000000000000e+00
-3.353699922561645952e+00 3.445074319839477983e+00 -5.903350710868835449e-01 9.000000000000000000e+00
-4.534013271331787109e+00 4.659173011779785156e+00 -5.687783956527709961e-01 6.000000000000000000e+00
-6.899437904357910156e+00 7.094847679138183594e+00 -5.186493396759033203e-01 2.000000000000000000e+00
-1.622691154479980025e+00 1.674487352371216042e+00 -6.247891783714294434e-01 1.700000000000000000e+01
-1.885729432106018066e+00 1.947281479835510032e+00 -6.258138418197631836e-01 1.500000000000000000e+01
-2.182093620300292969e+00 2.254106521606444868e+00 -6.098255515098571777e-01 1.100000000000000000e+01
-2.646641016006470171e+00 2.735894918441772017e+00 -6.028984189033508301e-01 9.000000000000000000e+00
-3.351311922073363814e+00 3.466750621795653853e+00 -5.920412540435791016e-01 8.000000000000000000e+00
-4.520491123199462891e+00 4.677836418151854581e+00 -5.691270232200622559e-01 7.000000000000000000e+00
-6.857981204986572266e+00 7.101647377014160156e+00 -5.173932909965515137e-01 2.000000000000000000e+00
-1.620854854583740012e+00 1.684317350387573020e+00 -6.263421177864074707e-01 1.600000000000000000e+01
-1.877569913864135964e+00 1.952447414398192915e+00 -6.253639459609985352e-01 1.400000000000000000e+01
-2.178293943405150923e+00 2.265955686569213867e+00 -6.109703779220581055e-01 1.100000000000000000e+01
-2.627495288848876953e+00 2.735144853591918945e+00 -6.007083654403686523e-01 9.000000000000000000e+00
-3.346063852310181108e+00 3.485588073730469194e+00 -5.932599902153015137e-01 9.000000000000000000e+00
-4.483441829681395596e+00 4.672024250030517578e+00 -5.665123462677001953e-01 6.000000000000000000e+00
-6.838679313659667969e+00 7.131309032440186435e+00 -5.178119540214538574e-01 2.000000000000000000e+00
-1.623270153999329057e+00 1.698061704635619895e+00 -6.294479370117187500e-01 1.900000000000000000e+01
-1.860316276550292969e+00 1.947390079498291016e+00 -6.217647194862365723e-01 1.400000000000000000e+01
-2.172123670578002930e+00 2.274586439132689986e+00 -6.113520264625549316e-01 1.100000000000000000e+01
-2.623865842819213867e+00 2.749559402465819868e+00 -6.019598245620727539e-01 9.000000000000000000e+00
-3.319417238235474077e+00 3.480862140655518022e+00 -5.905788540840148926e-01 8.000000000000000000e+00
-4.459675788879395419e+00 4.678213596343994141e+00 -5.654664635658264160e-01 6.000000000000000000e+00
-6.828769683837890625e+00 7.168408870697020596e+00 -5.188586711883544922e-01 2.000000000000000000e+00
-1.621322989463805930e+00 1.707920908927917036e+00 -6.310008168220520020e-01 1.900000000000000000e+01
-5.852738189697266336e+01 6.167499160766602273e+01 1.484117746353148970e+00 2.000000000000000000e+00
-1.856189608573914018e+00 1.956699490547179954e+00 -6.226645112037658691e-01 1.300000000000000000e+01
-2.166872262954711914e+00 2.285003900527954102e+00 -6.121152639389038086e-01 1.100000000000000000e+01
-2.614252090454102007e+00 2.758701562881470171e+00 -6.019598245620727539e-01 9.000000000000000000e+00
-3.304516553878784180e+00 3.489545106887816939e+00 -5.900913476943969727e-01 8.000000000000000000e+00
-4.457015514373779297e+00 4.708221435546875000e+00 -5.672096014022827148e-01 6.000000000000000000e+00
-6.762529373168945312e+00 7.148674488067626953e+00 -5.157185196876525879e-01 2.000000000000000000e+00
-1.607698082923888938e+00 1.704855084419250044e+00 -6.278949975967407227e-01 1.900000000000000000e+01
-1.849690794944762962e+00 1.962844133377074973e+00 -6.226645112037658691e-01 1.200000000000000000e+01
-2.151206016540526900e+00 2.283602714538574219e+00 -6.098255515098571777e-01 1.100000000000000000e+01
-2.615921497344971147e+00 2.778862237930297852e+00 -6.044628024101257324e-01 9.000000000000000000e+00
-3.292926788330078125e+00 3.500484228134154829e+00 -5.900913476943969727e-01 8.000000000000000000e+00
-4.433188915252686435e+00 4.714266777038574219e+00 -5.661637187004089355e-01 7.000000000000000000e+00
-6.738786220550537109e+00 7.171060562133789062e+00 -5.157185196876525879e-01 2.000000000000000000e+00
-1.595134854316710982e+00 1.703406095504760964e+00 -6.253067851066589355e-01 1.900000000000000000e+01
-1.854811549186706987e+00 1.982094883918761985e+00 -6.267136335372924805e-01 1.200000000000000000e+01
-2.145904064178466797e+00 2.293965339660644975e+00 -6.105887889862060547e-01 1.200000000000000000e+01
-2.596762895584106001e+00 2.777875185012816939e+00 -6.022726893424987793e-01 9.000000000000000000e+00
-3.277977466583251953e+00 3.509056091308594194e+00 -5.896039009094238281e-01 8.000000000000000000e+00
-4.400388240814208984e+00 4.712238311767578125e+00 -5.640719532966613770e-01 4.000000000000000000e+00
-6.691911220550537109e+00 7.171175956726074219e+00 -5.140437483787536621e-01 2.000000000000000000e+00
-1.413703632354735973e+01 1.516011524200438920e+01 -3.618232905864716131e-01 3.000000000000000000e+00
-1.587863564491271973e+00 1.707549095153809038e+00 -6.247891783714294434e-01 1.700000000000000000e+01
-1.838595628738403098e+00 1.978564500808716042e+00 -6.235643029212951660e-01 1.100000000000000000e+01
-2.129866361618041992e+00 2.292811632156372070e+00 -6.082990765571594238e-01 1.200000000000000000e+01
-2.580330848693848100e+00 2.779683828353881836e+00 -6.007083654403686523e-01 9.000000000000000000e+00
-3.273808717727661133e+00 3.529209136962891069e+00 -5.910663008689880371e-01 8.000000000000000000e+00
-4.378493309020996094e+00 4.721726417541503906e+00 -5.633746981620788574e-01 6.000000000000000000e+00
-6.688559055328369141e+00 7.217931270599365234e+00 -5.157185196876525879e-01 2.000000000000000000e+00
-1.408403205871582031e+01 1.520937061309813920e+01 -3.618232905864716131e-01 3.000000000000000000e+00
-1.587135910987854004e+00 1.718758463859558105e+00 -6.268597245216369629e-01 1.800000000000000000e+01
-1.826391696929932085e+00 1.979241728782654031e+00 -6.217647194862365723e-01 1.400000000000000000e+01
-2.132499217987060991e+00 2.311776638031005859e+00 -6.113520264625549316e-01 1.200000000000000000e+01
-2.566595554351807085e+00 2.784316778182982954e+00 -5.997697114944458008e-01 9.000000000000000000e+00
-3.257434844970703125e+00 3.536235094070435014e+00 -5.903350710868835449e-01 8.000000000000000000e+00
-4.360635280609130859e+00 4.735515594482421875e+00 -5.632004141807556152e-01 4.000000000000000000e+00
-6.630865097045898438e+00 7.205961704254150391e+00 -5.132063627243041992e-01 2.000000000000000000e+00
-1.585043549537658913e+00 1.728559732437134011e+00 -6.284126639366149902e-01 1.900000000000000000e+01
-1.816838622093200906e+00 1.982731461524962935e+00 -6.208649277687072754e-01 1.400000000000000000e+01
-2.117786169052124023e+00 2.311968088150023970e+00 -6.094439029693603516e-01 1.200000000000000000e+01
-2.563529729843140093e+00 2.800544261932373047e+00 -6.013340950012207031e-01 9.000000000000000000e+00
-3.228993177413939986e+00 3.530007362365723100e+00 -5.874102115631103516e-01 9.000000000000000000e+00
-4.358868122100830078e+00 4.766882419586181641e+00 -5.651178359985351562e-01 4.000000000000000000e+00
-6.616449356079101562e+00 7.240859031677246094e+00 -5.140437483787536621e-01 2.000000000000000000e+00
-1.569895386695862038e+00 1.724083185195923074e+00 -6.247891783714294434e-01 1.900000000000000000e+01
-1.811218142509460005e+00 1.990502715110779031e+00 -6.213148236274719238e-01 1.500000000000000000e+01
-2.107060909271239790e+00 2.316441774368286133e+00 -6.086806654930114746e-01 1.200000000000000000e+01
-2.559053182601929155e+00 2.815322637557982954e+00 -6.025855541229248047e-01 9.000000000000000000e+00
-3.227329254150391069e+00 3.553012371063231978e+00 -5.893601179122924805e-01 8.000000000000000000e+00
-4.320772171020507812e+00 4.758467674255371094e+00 -5.623288750648498535e-01 6.000000000000000000e+00
-6.556238651275634766e+00 7.225453853607177734e+00 -5.113223195075988770e-01 2.000000000000000000e+00
-1.561276316642761008e+00 1.726686716079711914e+00 -6.237539052963256836e-01 1.600000000000000000e+01
-1.817323803901671919e+00 2.011271953582764116e+00 -6.258138418197631836e-01 1.500000000000000000e+01
-2.104226112365723100e+00 2.329610347747803178e+00 -6.102071404457092285e-01 1.200000000000000000e+01
-2.535974502563477007e+00 2.809574604034423828e+00 -5.994568467140197754e-01 9.000000000000000000e+00
-3.214907169342041016e+00 3.564256191253662109e+00 -5.893601179122924805e-01 9.000000000000000000e+00
-4.298799037933349609e+00 4.767602443695068359e+00 -5.616316199302673340e-01 6.000000000000000000e+00
-6.485521316528320312e+00 7.197846412658691406e+00 -5.077634453773498535e-01 2.000000000000000000e+00
-1.559111595153809038e+00 1.736438512802124023e+00 -6.253067851066589355e-01 1.900000000000000000e+01
-1.801182031631469949e+00 2.007450103759766069e+00 -6.226645112037658691e-01 1.300000000000000000e+01
-2.093459606170653853e+00 2.334018230438231978e+00 -6.094439029693603516e-01 1.200000000000000000e+01
-2.520878076553345171e+00 2.812525749206542969e+00 -5.982053875923156738e-01 9.000000000000000000e+00
-3.194499492645264116e+00 3.566584587097167969e+00 -5.878977179527282715e-01 8.000000000000000000e+00
-4.282130718231201172e+00 4.782578945159912109e+00 -5.616316199302673340e-01 6.000000000000000000e+00
-6.476337432861328125e+00 7.238302707672119141e+00 -5.090194940567016602e-01 2.000000000000000000e+00
