-5.225440487265586853e-03 -7.128341197967529297e-01 -1.910084486007689875e-01 7.000000000000000000e+00
-2.475227974355221142e-02 -3.223121166229248047e+00 -7.441380620002746582e-01 2.000000000000000000e+00
-3.042209148406982075e-02 -3.873381376266479048e+00 -7.529323101043701172e-01 9.000000000000000000e+00
-4.041259363293647766e-02 -4.926423549652099609e+00 -7.802951335906982422e-01 7.000000000000000000e+00
-3.578293323516846258e-01 -4.271173095703125000e+01 5.244525432586669922e+00 3.000000000000000000e+01
-6.058922782540320656e-02 -7.084535121917724609e+00 -8.699033856391906738e-01 1.000000000000000000e+00
-2.300408631563186923e-01 -2.534617042541503906e+01 -1.328391194343566895e+00 1.100000000000000000e+01
-7.713663857430219650e-03 -7.128115296363830566e-01 -1.910084486007689875e-01 7.000000000000000000e+00
-3.608999028801918030e-02 -3.230809450149536133e+00 -7.459377050399780273e-01 9.000000000000000000e+00
-4.376435652375221252e-02 -3.857546567916870117e+00 -7.498793601989746094e-01 9.000000000000000000e+00
-5.786286294460297325e-02 -4.947980403900145596e+00 -7.837366461753845215e-01 9.000000000000000000e+00
-8.517506718635559082e-02 -7.072371006011962891e+00 -8.684409260749816895e-01 1.000000000000000000e+00
-3.182631433010100763e-01 -2.532524299621582031e+01 -1.327344536781311035e+00 1.100000000000000000e+01
-1.069944165647030050e-02 -7.475500106811523438e-01 -2.003259360790252963e-01 6.000000000000000000e+00
-4.736740142107009888e-02 -3.230664014816284180e+00 -7.459377050399780273e-01 7.000000000000000000e+00
-5.743331089615821838e-02 -3.871111631393433061e+00 -7.525506615638732910e-01 9.000000000000000000e+00
-7.480425387620925903e-02 -4.926021575927734375e+00 -7.802951335906982422e-01 9.000000000000000000e+00
-1.099850684404373030e-01 -7.079969882965087891e+00 -8.694158792495727539e-01 1.000000000000000000e+00
-4.066627919673920233e-01 -2.532397651672362926e+01 -1.327344536781311035e+00 1.100000000000000000e+01
-1.311024371534585953e-02 -7.436473369598388672e-01 -1.992906630039215088e-01 6.000000000000000000e+00
-5.783519521355628967e-02 -3.216850042343140093e+00 -7.427883744239807129e-01 2.000000000000000000e+00
-7.044823467731475830e-02 -3.880714416503905806e+00 -7.544587850570678711e-01 9.000000000000000000e+00
-9.084676951169967651e-02 -4.909945964813232422e+00 -7.777921557426452637e-01 9.000000000000000000e+00
-1.335373222827911099e-01 -7.083535671234130859e+00 -8.699033856391906738e-01 1.000000000000000000e+00
-4.909474253654479980e-01 -2.533846473693848012e+01 -1.328181862831115945e+00 1.100000000000000000e+01
-1.603233441710472107e-02 -7.590484023094177246e-01 -2.034317702054976862e-01 6.000000000000000000e+00
-6.902191042900085449e-02 -3.214680433273314986e+00 -7.423384785652160645e-01 7.000000000000000000e+00
-8.412148058414459229e-02 -3.886333227157593218e+00 -7.556036114692687988e-01 9.000000000000000000e+00
-1.082457527518271984e-01 -4.921448230743408203e+00 -7.796693444252014160e-01 7.000000000000000000e+00
-1.588834673166275024e-01 -7.110810756683349609e+00 -8.733156919479370117e-01 1.000000000000000000e+00
-5.776570439338684082e-01 -2.526072120666503906e+01 -1.324204325675963911e+00 1.100000000000000000e+01
-1.820644736289978027e-02 -7.396751642227172852e-01 -1.982553899288176935e-01 6.000000000000000000e+00
-8.009692281484603882e-02 -3.208575487136840820e+00 -7.409887909889221191e-01 3.000000000000000000e+00
-9.689741581678390503e-02 -3.854613780975341797e+00 -7.494977116584777832e-01 9.000000000000000000e+00
-1.257764697074890137e-01 -4.934863567352294922e+00 -7.818594574928283691e-01 9.000000000000000000e+00
-1.832937002182007113e-01 -7.094337463378906250e+00 -8.713657855987548828e-01 1.000000000000000000e+00
-6.653035879135131836e-01 -2.523858451843262074e+01 -1.323157668113708052e+00 1.100000000000000000e+01
-2.111394889652729034e-02 -7.511936426162719727e-01 -2.013612240552901944e-01 6.000000000000000000e+00
-9.151818603277206421e-02 -3.216068029403686968e+00 -7.427883744239807129e-01 7.000000000000000000e+00
-1.104081273078918041e-01 -3.856214523315430132e+00 -7.498793601989746094e-01 9.000000000000000000e+00
-1.431732624769211093e-01 -4.940318107604979581e+00 -7.827980518341064453e-01 7.000000000000000000e+00
-2.077072560787200928e-01 -7.081748962402343750e+00 -8.699033856391906738e-01 1.000000000000000000e+00
-7.520874738693237305e-01 -2.519218826293944957e+01 -1.320854902267456055e+00 1.100000000000000000e+01
-2.349190413951874126e-02 -7.433918118476867676e-01 -1.992906630039215088e-01 6.000000000000000000e+00
-1.032416447997093062e-01 -3.231311082839965820e+00 -7.463876008987426758e-01 9.000000000000000000e+00
-1.238681524991988997e-01 -3.855805635452270952e+00 -7.498793601989746094e-01 8.000000000000000000e+00
-1.602890938520432074e-01 -4.935839653015136719e+00 -7.821723222732543945e-01 7.000000000000000000e+00
-2.325561493635177890e-01 -7.084949016571044922e+00 -8.703908324241638184e-01 1.000000000000000000e+00
-8.346945643424987793e-01 -2.502971839904785156e+01 -1.312481164932250977e+00 1.100000000000000000e+01
-2.608668245375156056e-02 -7.433052659034729004e-01 -1.992906630039215088e-01 6.000000000000000000e+00
-1.144513711333274980e-01 -3.228983402252196822e+00 -7.459377050399780273e-01 9.000000000000000000e+00
-1.380255371332169134e-01 -3.874969959259033203e+00 -7.536955475807189941e-01 7.000000000000000000e+00
-1.770913600921631137e-01 -4.923405647277832031e+00 -7.802951335906982422e-01 9.000000000000000000e+00
-2.577181160449982245e-01 -7.095996856689453125e+00 -8.718532919883728027e-01 1.000000000000000000e+00
-9.235302209854125977e-01 -2.506657028198241832e+01 -1.314574599266052024e+00 1.100000000000000000e+01
-2.868114225566386830e-02 -7.432096600532531738e-01 -1.992906630039215088e-01 6.000000000000000000e+00
-1.249636560678482056e-01 -3.209091663360596147e+00 -7.414386868476867676e-01 7.000000000000000000e+00
-1.516276001930237094e-01 -3.876426219940185991e+00 -7.540771365165710449e-01 7.000000000000000000e+00
-1.943540722131729126e-01 -4.924731254577636719e+00 -7.806079983711242676e-01 9.000000000000000000e+00
-2.829600274562836248e-01 -7.106955051422119141e+00 -8.733156919479370117e-01 1.000000000000000000e+00
-1.015370368957519975e+00 -2.517095756530762074e+01 -1.320226788520812988e+00 1.100000000000000000e+01
-3.192513063549994728e-02 -7.585461735725402832e-01 -2.034317702054976862e-01 6.000000000000000000e+00
-3.726352378726006248e-02 -8.780914545059204102e-01 -2.029058486223221103e-01 9.000000000000000000e+00
-1.649071872234343927e-01 -3.869988918304442915e+00 -7.529323101043701172e-01 9.000000000000000000e+00
-2.117977738380432129e-01 -4.929943561553955078e+00 -7.815465927124023438e-01 7.000000000000000000e+00
-3.058764934539794922e-01 -7.062293052673339844e+00 -8.679534792900085449e-01 1.000000000000000000e+00
-1.109874725341797097e+00 -2.531890678405762074e+01 -1.328181862831115945e+00 1.100000000000000000e+01
-3.298927098512650230e-02 -7.236928343772888184e-01 -1.941142827272414884e-01 7.000000000000000000e+00
-3.952362760901451111e-02 -8.604358434677124023e-01 -1.988567262887954989e-01 2.000000000000000000e+01
-1.774202436208724976e-01 -3.847816944122314009e+00 -7.487344741821289062e-01 1.000000000000000000e+01
-2.300136238336563110e-01 -4.950880050659179688e+00 -7.849881649017333984e-01 9.000000000000000000e+00
-3.316404521465302069e-01 -7.084977149963378906e+00 -8.708783388137817383e-01 1.000000000000000000e+00
-1.195603370666503906e+00 -2.525901603698730113e+01 -1.325251102447509988e+00 1.100000000000000000e+01
-2.134385585784912109e+00 -4.492625045776367188e+01 1.038374042510985973e+01 1.300000000000000000e+01
-3.551523014903069236e-02 -7.235732674598693848e-01 -1.941142827272414884e-01 7.000000000000000000e+00
-4.300794005393981934e-02 -8.700245022773742676e-01 -2.011062353849411011e-01 9.000000000000000000e+00
-1.916287392377853116e-01 -3.862860918045043945e+00 -7.517874240875244141e-01 1.000000000000000000e+01
-2.464069575071335116e-01 -4.932290554046630859e+00 -7.821723222732543945e-01 7.000000000000000000e+00
-2.138651609420775923e+00 -4.265965652465820312e+01 5.244525432586669922e+00 3.000000000000000000e+01
-3.565691113471984863e-01 -7.087741374969482422e+00 -8.713657855987548828e-01 1.000000000000000000e+00
-1.281941413879394975e+00 -2.521878433227539062e+01 -1.323366999626159890e+00 1.100000000000000000e+01
-2.291194438934326172e+00 -4.491852569580078125e+01 1.038374042510985973e+01 1.300000000000000000e+01
-3.864940628409385681e-02 -7.350200414657592773e-01 -1.972201168537139893e-01 7.000000000000000000e+00
-1.704784482717514038e-01 -3.220656156539916992e+00 -7.445880174636840820e-01 6.000000000000000000e+00
-2.049032449722290039e-01 -3.858247518539429155e+00 -7.510241866111755371e-01 9.000000000000000000e+00
-2.630951106548308771e-01 -4.921537399291992188e+00 -7.806079983711242676e-01 9.000000000000000000e+00
-3.813077807426453192e-01 -7.086453914642333984e+00 -8.713657855987548828e-01 1.000000000000000000e+00
-1.368880033493041992e+00 -2.519421386718750000e+01 -1.322320222854614036e+00 1.100000000000000000e+01
-2.469188213348389116e+00 -4.529942321777343750e+01 1.047372150421142933e+01 1.300000000000000000e+01
-4.164757207036017678e-02 -7.425959110260009766e-01 -1.992906630039215088e-01 6.000000000000000000e+00
-1.816097944974899014e-01 -3.218095779418944868e+00 -7.441380620002746582e-01 8.000000000000000000e+00
-2.193684279918670932e-01 -3.875149726867675781e+00 -7.544587850570678711e-01 8.000000000000000000e+00
-2.807222306728363037e-01 -4.928477764129638672e+00 -7.818594574928283691e-01 9.000000000000000000e+00
-4.064961075782775879e-01 -7.093007087707520419e+00 -8.723407387733459473e-01 1.000000000000000000e+00
-1.451049923896789995e+00 -2.508958625793457031e+01 -1.317086696624756081e+00 1.100000000000000000e+01
-2.602017879486083984e+00 -4.485474395751953125e+01 1.037294292449950994e+01 1.300000000000000000e+01
-2.724986314773560014e+00 -4.669261169433593750e+01 1.253253555297851918e+01 1.300000000000000000e+01
-4.446927830576896667e-02 -7.463029026985168457e-01 -2.003259360790252963e-01 6.000000000000000000e+00
-1.930751204490661899e-01 -3.221332788467406782e+00 -7.450379133224487305e-01 1.000000000000000000e+01
-2.327760905027390081e-01 -3.872400760650635210e+00 -7.540771365165710449e-01 8.000000000000000000e+00
-2.986394166946411133e-01 -4.939298629760742188e+00 -7.837366461753845215e-01 9.000000000000000000e+00
-4.305298626422882080e-01 -7.079656124114990234e+00 -8.708783388137817383e-01 1.000000000000000000e+00
-1.543755769729614036e+00 -2.516809463500976918e+01 -1.321482896804810014e+00 1.100000000000000000e+01
-2.761445760726929155e+00 -4.489207077026367188e+01 1.038374042510985973e+01 1.300000000000000000e+01
-4.658753424882888794e-02 -7.384310364723205566e-01 -1.982553899288176935e-01 6.000000000000000000e+00
-2.044418752193450928e-01 -3.222584009170531782e+00 -7.454878091812133789e-01 9.000000000000000000e+00
-2.456686645746231079e-01 -3.861768007278441939e+00 -7.521690726280212402e-01 7.000000000000000000e+00
-3.158789575099945068e-01 -4.938226222991943359e+00 -7.837366461753845215e-01 9.000000000000000000e+00
-4.565139710903167725e-01 -7.097919940948486328e+00 -8.733156919479370117e-01 1.000000000000000000e+00
-1.632633328437804954e+00 -2.517849731445312855e+01 -1.322320222854614036e+00 1.100000000000000000e+01
-5.057238042354583740e-02 -7.614037394523620605e-01 -2.044670432806015015e-01 6.000000000000000000e+00
-2.155167162418364923e-01 -3.227721452713013139e+00 -7.468374967575073242e-01 8.000000000000000000e+00
-2.584733963012694757e-01 -3.860932111740111861e+00 -7.521690726280212402e-01 5.000000000000000000e+00
-3.319877088069915771e-01 -4.933209419250488281e+00 -7.831109166145324707e-01 9.000000000000000000e+00
-2.995404958724976030e+00 -4.439490509033203125e+01 5.463402748107910156e+00 3.600000000000000000e+01
-4.803169667720795233e-01 -7.100328445434570312e+00 -8.738031983375549316e-01 1.000000000000000000e+00
-1.719107747077941895e+00 -2.521678352355957031e+01 -1.324623107910156028e+00 1.100000000000000000e+01
-4.972612857818604210e-02 -7.111167907714843750e-01 -1.910084486007689875e-01 7.000000000000000000e+00
-2.254160940647124967e-01 -3.207510232925415039e+00 -7.423384785652160645e-01 7.000000000000000000e+00
-2.729148268699645996e-01 -3.873715162277222124e+00 -7.548403739929199219e-01 6.000000000000000000e+00
-3.472525775432587225e-01 -4.904434680938720703e+00 -7.787307500839233398e-01 9.000000000000000000e+00
-5.053805708885192871e-01 -7.102568626403808594e+00 -8.742906451225280762e-01 1.000000000000000000e+00
-1.805263876914978027e+00 -2.518473052978515980e+01 -1.323262333869934082e+00 1.100000000000000000e+01
-2.368978261947632113e-01 -3.210590600967406782e+00 -7.432382702827453613e-01 4.000000000000000000e+00
-2.870141863822937012e-01 -3.880570650100708008e+00 -7.563668489456176758e-01 7.000000000000000000e+00
-3.661268651485443115e-01 -4.926831722259520596e+00 -7.824851870536804199e-01 9.000000000000000000e+00
-5.286920666694641113e-01 -7.080965518951416016e+00 -8.718532919883728027e-01 1.000000000000000000e+00
-1.894661545753479004e+00 -2.519819259643555043e+01 -1.324308991432189941e+00 1.100000000000000000e+01
-2.488543540239334106e-01 -3.219458818435668945e+00 -7.454878091812133789e-01 1.000000000000000000e+00
-2.985867857933043878e-01 -3.854099035263061968e+00 -7.514058351516723633e-01 8.000000000000000000e+00
-3.831692039966583252e-01 -4.923554420471191406e+00 -7.821723222732543945e-01 9.000000000000000000e+00
-5.534060597419738770e-01 -7.079076766967773438e+00 -8.718532919883728027e-01 1.000000000000000000e+00
-1.977280259132385032e+00 -2.512372779846191051e+01 -1.320750236511230025e+00 1.100000000000000000e+01
-2.607187032699584961e-01 -3.226340293884276900e+00 -7.472873926162719727e-01 3.000000000000000000e+00
-3.129891455173491877e-01 -3.864774465560913086e+00 -7.536955475807189941e-01 8.000000000000000000e+00
-4.003532826900482178e-01 -4.922186851501464844e+00 -7.821723222732543945e-01 9.000000000000000000e+00
-5.777900218963623047e-01 -7.073144912719726562e+00 -8.713657855987548828e-01 1.000000000000000000e+00
-2.056783676147460938e+00 -2.501714515686035156e+01 -1.315516591072082964e+00 1.100000000000000000e+01
-3.790682077407836914e+00 -4.591070938110352273e+01 1.234359836578368963e+01 1.300000000000000000e+01
-2.724703848361968994e-01 -3.231235980987548828e+00 -7.486370801925659180e-01 6.000000000000000000e+00
-3.269737362861632746e-01 -3.869527101516724077e+00 -7.548403739929199219e-01 9.000000000000000000e+00
-4.175324738025664728e-01 -4.920759201049804688e+00 -7.821723222732543945e-01 7.000000000000000000e+00
-6.034875512123107910e-01 -7.082952499389648438e+00 -8.728282451629638672e-01 1.000000000000000000e+00
-2.144097328186035156e+00 -2.500981330871582031e+01 -1.315516591072082964e+00 1.100000000000000000e+01
-3.860286235809326172e+00 -4.493613433837891336e+01 1.041253471374512074e+01 1.300000000000000000e+01
-3.951248645782471147e+00 -4.590104675292968750e+01 1.234463310241699041e+01 1.300000000000000000e+01
-2.827738821506500244e-01 -3.212744474411011186e+00 -7.445880174636840820e-01 7.000000000000000000e+00
-3.404641747474669855e-01 -3.860480070114136186e+00 -7.533138990402221680e-01 9.000000000000000000e+00
-4.346940219402313232e-01 -4.909357547760009766e+00 -7.806079983711242676e-01 9.000000000000000000e+00
-6.297953128814697266e-01 -7.084647655487061435e+00 -8.733156919479370117e-01 1.000000000000000000e+00
-2.241796731948852983e+00 -2.506942367553710938e+01 -1.319075465202331987e+00 1.100000000000000000e+01
-4.132240295410156250e+00 -4.602864074707031250e+01 1.238293838500976918e+01 1.300000000000000000e+01
-2.945196330547332764e-01 -3.217559814453125000e+00 -7.459377050399780273e-01 8.000000000000000000e+00
-3.550134599208831787e-01 -3.870998382568358931e+00 -7.556036114692687988e-01 9.000000000000000000e+00
-4.516471326351165771e-01 -4.905843257904052734e+00 -7.802951335906982422e-01 9.000000000000000000e+00
-6.537908315658569336e-01 -7.074499607086181641e+00 -8.723407387733459473e-01 1.000000000000000000e+00
-2.330770492553710938e+00 -2.507735443115234020e+01 -1.319912791252136008e+00 1.100000000000000000e+01
-4.055044174194335938e+00 -4.346460342407227273e+01 -7.619720697402954102e-01 1.100000000000000000e+01
-4.352695465087890625e+00 -4.656714630126953125e+01 1.253201770782471058e+01 1.300000000000000000e+01
-3.048196732997893732e-01 -3.212685346603393999e+00 -7.450379133224487305e-01 8.000000000000000000e+00
-3.672908842563629150e-01 -3.863936424255371094e+00 -7.544587850570678711e-01 9.000000000000000000e+00
-4.692263305187224787e-01 -4.918083667755126953e+00 -7.824851870536804199e-01 9.000000000000000000e+00
-6.783825159072875977e-01 -7.084148883819580078e+00 -8.738031983375549316e-01 1.000000000000000000e+00
-2.411237239837646040e+00 -2.504165458679198863e+01 -1.318447351455688032e+00 1.100000000000000000e+01
-4.498968601226806641e+00 -4.655324172973632812e+01 1.253201770782471058e+01 1.300000000000000000e+01
-7.898807525634765625e-02 -8.055827021598815918e-01 -2.168903648853302002e-01 5.000000000000000000e+00
-3.164138793945313055e-01 -3.215480566024779829e+00 -7.459377050399780273e-01 9.000000000000000000e+00
-3.801984786987305243e-01 -3.856769561767578125e+00 -7.533138990402221680e-01 9.000000000000000000e+00
-4.860018491744995117e-01 -4.912484169006347656e+00 -7.818594574928283691e-01 9.000000000000000000e+00
-7.034988999366760254e-01 -7.085688591003417969e+00 -8.742906451225280762e-01 1.000000000000000000e+00
-2.499427556991577148e+00 -2.504103469848633168e+01 -1.318866133689879927e+00 1.100000000000000000e+01
-4.467927932739257812e+00 -4.468394851684570312e+01 1.036754417419433949e+01 1.300000000000000000e+01
-4.684547424316406250e+00 -4.676792144775391336e+01 1.259413433074950994e+01 1.400000000000000000e+01
-8.179959654808044434e-02 -8.053020238876342773e-01 -2.168903648853302002e-01 5.000000000000000000e+00
-3.290193378925322931e-01 -3.227927446365356001e+00 -7.490870356559753418e-01 9.000000000000000000e+00
-3.934593796730042059e-01 -3.853465795516968218e+00 -7.529323101043701172e-01 8.000000000000000000e+00
-5.033479928970336914e-01 -4.912723064422607422e+00 -7.821723222732543945e-01 7.000000000000000000e+00
-7.274162173271179199e-01 -7.075290679931640625e+00 -8.733156919479370117e-01 1.000000000000000000e+00
-2.587643146514893022e+00 -2.504010581970214844e+01 -1.319284796714782937e+00 1.100000000000000000e+01
-3.390586376190186102e-01 -3.215131282806396040e+00 -7.463876008987426758e-01 9.000000000000000000e+00
-4.069080948829650879e-01 -3.852068901062012163e+00 -7.529323101043701172e-01 8.000000000000000000e+00
-5.179951786994934082e-01 -4.887363433837890625e+00 -7.784178853034973145e-01 7.000000000000000000e+00
-7.546280622482299805e-01 -7.096395969390869141e+00 -8.762405514717102051e-01 1.000000000000000000e+00
-4.532251834869384766e+00 -4.254991149902343750e+01 6.777366638183593750e+00 1.500000000000000000e+01
-2.678004980087279829e+00 -2.505872344970703125e+01 -1.320750236511230025e+00 1.100000000000000000e+01
-3.494349122047423761e-01 -3.206179141998291016e+00 -7.445880174636840820e-01 9.000000000000000000e+00
-4.214170873165131170e-01 -3.860383272171020952e+00 -7.548403739929199219e-01 9.000000000000000000e+00
-5.350520610809326172e-01 -4.885525703430175781e+00 -7.784178853034973145e-01 7.000000000000000000e+00
-4.679111957550048828e+00 -4.265587234497070312e+01 5.268898963928222656e+00 3.100000000000000000e+01
-7.789609432220458984e-01 -7.089772224426270419e+00 -8.757531046867370605e-01 1.000000000000000000e+00
-2.768528223037720171e+00 -2.507701492309569957e+01 -1.322215557098388894e+00 1.100000000000000000e+01
-4.952309608459472656e+00 -4.478579330444335938e+01 1.040263652801514027e+01 1.300000000000000000e+01
-3.604065477848052979e-01 -3.203003168106079102e+00 -7.441380620002746582e-01 9.000000000000000000e+00
-4.353294968605042059e-01 -3.862790584564208984e+00 -7.556036114692687988e-01 9.000000000000000000e+00
-5.543215274810791016e-01 -4.903256893157958984e+00 -7.815465927124023438e-01 9.000000000000000000e+00
-8.023619651794433594e-01 -7.075175285339354581e+00 -8.742906451225280762e-01 1.000000000000000000e+00
-2.860116243362427202e+00 -2.510291862487792969e+01 -1.324099659919738992e+00 1.100000000000000000e+01
-3.713602721691132147e-01 -3.199790000915526900e+00 -7.436881661415100098e-01 9.000000000000000000e+00
-4.465437829494475763e-01 -3.841746330261230025e+00 -7.517874240875244141e-01 9.000000000000000000e+00
-5.707474350929260254e-01 -4.895405769348145419e+00 -7.806079983711242676e-01 9.000000000000000000e+00
-8.261318206787109375e-01 -7.064445018768311435e+00 -8.733156919479370117e-01 1.000000000000000000e+00
-2.949588537216186968e+00 -2.510865020751953125e+01 -1.324937105178833008e+00 1.100000000000000000e+01
-5.375967025756835938e+00 -4.569459915161132812e+01 1.062218856811523082e+01 1.300000000000000000e+01
-3.834530115127562921e-01 -3.206213951110839844e+00 -7.454878091812133789e-01 9.000000000000000000e+00
-4.611186683177947998e-01 -3.849910736083983931e+00 -7.536955475807189941e-01 9.000000000000000000e+00
-5.871253013610839844e-01 -4.887499809265136719e+00 -7.796693444252014160e-01 7.000000000000000000e+00
-8.522109985351562500e-01 -7.073343276977539062e+00 -8.747781515121459961e-01 1.000000000000000000e+00
-5.173225879669188565e+00 -4.287471389770507812e+01 6.839940547943115234e+00 1.500000000000000000e+01
-3.036256313323975053e+00 -2.509027099609375000e+01 -1.324518322944640891e+00 2.300000000000000000e+01
-5.592175960540770596e+00 -4.614372634887695312e+01 1.073106479644775035e+01 1.300000000000000000e+01
-3.936897814273834229e-01 -3.197119474411011186e+00 -7.436881661415100098e-01 9.000000000000000000e+00
-4.762365221977233887e-01 -3.861917018890380859e+00 -7.563668489456176758e-01 9.000000000000000000e+00
-6.036974191665649414e-01 -4.881499767303466797e+00 -7.790436148643493652e-01 7.000000000000000000e+00
-5.639714241027832031e+00 -4.553750610351563211e+01 5.634019851684570312e+00 4.000000000000000000e+01
-8.803169727325439453e-01 -7.097905158996582031e+00 -8.781905174255371094e-01 1.000000000000000000e+00
-3.120856761932373047e+00 -2.505573463439941051e+01 -1.323262333869934082e+00 1.100000000000000000e+01
-5.735846996307373047e+00 -4.598469543457031250e+01 1.069867229461669922e+01 1.300000000000000000e+01
-4.043575823307036798e-01 -3.191859006881713867e+00 -7.427883744239807129e-01 9.000000000000000000e+00
-4.889729619026184082e-01 -3.854388236999512163e+00 -7.552220225334167480e-01 8.000000000000000000e+00
-6.202347874641418457e-01 -4.875443458557128906e+00 -7.784178853034973145e-01 7.000000000000000000e+00
-9.010686874389648438e-01 -7.063282966613770419e+00 -8.742906451225280762e-01 1.000000000000000000e+00
-3.215150833129882812e+00 -2.509817886352539062e+01 -1.326088428497314009e+00 1.100000000000000000e+01
-5.588916778564453125e+00 -4.350781631469727273e+01 -7.656719684600830078e-01 1.100000000000000000e+01
-4.165576100349426270e-01 -3.194220304489136186e+00 -7.436881661415100098e-01 9.000000000000000000e+00
-5.020798444747924805e-01 -3.844783306121826172e+00 -7.536955475807189941e-01 8.000000000000000000e+00
-6.391258835792541504e-01 -4.880972385406494141e+00 -7.796693444252014160e-01 7.000000000000000000e+00
-9.274676442146301270e-01 -7.063869476318359375e+00 -8.747781515121459961e-01 1.000000000000000000e+00
-3.308684825897216797e+00 -2.509810638427734020e+01 -1.326716542243957964e+00 1.100000000000000000e+01
-5.748343467712402344e+00 -4.348704147338867188e+01 -7.656719684600830078e-01 1.100000000000000000e+01
-4.292574524879456122e-01 -3.204335689544678178e+00 -7.463876008987426758e-01 9.000000000000000000e+00
-5.149755477905273438e-01 -3.839115619659423828e+00 -7.529323101043701172e-01 8.000000000000000000e+00
-6.540533304214477539e-01 -4.863049507141113281e+00 -7.771664261817932129e-01 7.000000000000000000e+00
-9.515889286994934082e-01 -7.056654453277587891e+00 -8.742906451225280762e-01 1.000000000000000000e+00
-3.394665718078612837e+00 -2.507452774047851918e+01 -1.326088428497314009e+00 1.100000000000000000e+01
-4.393507540225983221e-01 -3.199033498764038086e+00 -7.454878091812133789e-01 9.000000000000000000e+00
-5.282386541366577148e-01 -3.841276645660399947e+00 -7.536955475807189941e-01 9.000000000000000000e+00
-6.712553501129150391e-01 -4.868681430816650391e+00 -7.784178853034973145e-01 7.000000000000000000e+00
-9.755280613899230957e-01 -7.057392597198486328e+00 -8.747781515121459961e-01 1.000000000000000000e+00
-3.483836412429810014e+00 -2.510665702819823863e+01 -1.328391194343566895e+00 1.100000000000000000e+01
-4.510585665702819824e-01 -3.201339721679687944e+00 -7.463876008987426758e-01 9.000000000000000000e+00
-5.408212542533874512e-01 -3.833577394485474077e+00 -7.525506615638732910e-01 9.000000000000000000e+00
-6.882461309432983398e-01 -4.866308689117431641e+00 -7.784178853034973145e-01 7.000000000000000000e+00
-1.002386331558227983e+00 -7.069667816162109375e+00 -8.767280578613281250e-01 1.000000000000000000e+00
-3.565262556076049805e+00 -2.505084037780762074e+01 -1.326088428497314009e+00 1.100000000000000000e+01
-4.600016176700592041e-01 -3.184315919876099077e+00 -7.427883744239807129e-01 9.000000000000000000e+00
-5.564478635787963867e-01 -3.847210645675659180e+00 -7.556036114692687988e-01 9.000000000000000000e+00
-7.057954072952270508e-01 -4.867786407470703125e+00 -7.790436148643493652e-01 7.000000000000000000e+00
-1.025059342384337935e+00 -7.052374839782714844e+00 -8.750218749046325684e-01 3.000000000000000000e+00
-3.659027576446533203e+00 -2.508172225952148082e+01 -1.328391194343566895e+00 1.100000000000000000e+01
-4.716848433017731268e-01 -3.186546325683594194e+00 -7.436881661415100098e-01 9.000000000000000000e+00
-5.695859789848327637e-01 -3.843302726745605025e+00 -7.552220225334167480e-01 8.000000000000000000e+00
-7.245244979858398438e-01 -4.877016544342041016e+00 -7.809208631515502930e-01 7.000000000000000000e+00
-1.049962878227234109e+00 -7.050717353820800781e+00 -8.752655982971191406e-01 1.000000000000000000e+00
-3.740062236785889116e+00 -2.502534103393555043e+01 -1.326088428497314009e+00 1.100000000000000000e+01
-4.839734137058258057e-01 -3.192587375640869141e+00 -7.454878091812133789e-01 9.000000000000000000e+00
-5.806413888931274414e-01 -3.825762748718262163e+00 -7.521690726280212402e-01 8.000000000000000000e+00
-7.415440678596496582e-01 -4.874457836151123047e+00 -7.809208631515502930e-01 7.000000000000000000e+00
-1.075166463851928933e+00 -7.050933837890625000e+00 -8.757531046867370605e-01 1.000000000000000000e+00
-3.842499494552611861e+00 -2.511084747314453125e+01 -1.331322073936461958e+00 1.100000000000000000e+01
-4.957122802734375000e-01 -3.194729804992675781e+00 -7.463876008987426758e-01 9.000000000000000000e+00
-5.964031815528869629e-01 -3.839232683181763139e+00 -7.552220225334167480e-01 8.000000000000000000e+00
-7.588585019111633301e-01 -4.873791694641113281e+00 -7.812337279319763184e-01 9.000000000000000000e+00
-1.102833151817321999e+00 -7.066751480102539062e+00 -8.781905174255371094e-01 1.000000000000000000e+00
-3.931983232498168945e+00 -2.510911941528319957e+01 -1.331950068473815918e+00 1.100000000000000000e+01
-5.074719786643981934e-01 -3.196829319000244141e+00 -7.472873926162719727e-01 9.000000000000000000e+00
-6.082602739334106445e-01 -3.827432870864868164e+00 -7.533138990402221680e-01 9.000000000000000000e+00
-7.730700969696044922e-01 -4.853555679321289062e+00 -7.784178853034973145e-01 7.000000000000000000e+00
-1.123113036155700906e+00 -7.035415172576904297e+00 -8.747781515121459961e-01 1.000000000000000000e+00
-4.001916885375976562e+00 -2.498480415344237926e+01 -1.326088428497314009e+00 1.100000000000000000e+01
-5.142565965652465820e-01 -3.168108463287353960e+00 -7.409887909889221191e-01 9.000000000000000000e+00
-6.235062479972839355e-01 -3.836913347244263139e+00 -7.556036114692687988e-01 9.000000000000000000e+00
-7.912775874137878418e-01 -4.858626365661621094e+00 -7.796693444252014160e-01 7.000000000000000000e+00
-1.147664308547974077e+00 -7.031451702117919922e+00 -8.747781515121459961e-01 1.000000000000000000e+00
-4.098788738250732422e+00 -2.502981185913085938e+01 -1.329228639602660911e+00 1.100000000000000000e+01
-5.265880227088928223e-01 -3.173984050750731978e+00 -7.427883744239807129e-01 9.000000000000000000e+00
-6.346440911293029785e-01 -3.821156263351439986e+00 -7.529323101043701172e-01 9.000000000000000000e+00
-8.082325458526611328e-01 -4.855834960937500000e+00 -7.796693444252014160e-01 7.000000000000000000e+00
-1.174814581871032937e+00 -7.043066978454589844e+00 -8.767280578613281250e-01 1.000000000000000000e+00
-4.196682929992675781e+00 -2.507838821411133168e+01 -1.332578063011168990e+00 1.100000000000000000e+01
-5.396180152893066406e-01 -3.183654546737670898e+00 -7.454878091812133789e-01 9.000000000000000000e+00
-6.496206521987915039e-01 -3.828595638275146040e+00 -7.548403739929199219e-01 9.000000000000000000e+00
-8.258398771286010742e-01 -4.856878757476806641e+00 -7.802951335906982422e-01 6.000000000000000000e+00
-1.196724772453308105e+00 -7.023268222808837891e+00 -8.747781515121459961e-01 3.000000000000000000e+00
-4.286889553070068359e+00 -2.507933616638183949e+01 -1.333415508270263894e+00 1.100000000000000000e+01
-5.520572066307067871e-01 -3.189432382583618164e+00 -7.472873926162719727e-01 9.000000000000000000e+00
-6.626458168029785156e-01 -3.824370384216309038e+00 -7.544587850570678711e-01 9.000000000000000000e+00
-8.370437622070312500e-01 -4.820879936218261719e+00 -7.749763131141662598e-01 3.000000000000000000e+00
-1.222594380378722922e+00 -7.026871204376220703e+00 -8.757531046867370605e-01 1.000000000000000000e+00
-4.375780105590820312e+00 -2.507208824157714844e+01 -1.333834171295166016e+00 1.100000000000000000e+01
-5.611526966094970703e-01 -3.175971746444702148e+00 -7.445880174636840820e-01 9.000000000000000000e+00
-6.763332486152648926e-01 -3.823967218399047852e+00 -7.548403739929199219e-01 9.000000000000000000e+00
-8.711025714874267578e-01 -4.915182113647460938e+00 -7.906197905540466309e-01 1.000000000000000000e+00
-7.945883274078369141e+00 -4.478902435302733664e+01 5.585271835327148438e+00 3.900000000000000000e+01
-1.249197840690613015e+00 -7.034287452697753906e+00 -8.772155046463012695e-01 1.000000000000000000e+00
-4.454864978790283203e+00 -2.500946998596191051e+01 -1.331322073936461958e+00 1.100000000000000000e+01
-5.722354650497436523e-01 -3.173993587493896040e+00 -7.445880174636840820e-01 9.000000000000000000e+00
-6.903746128082275391e-01 -3.825447082519530806e+00 -7.556036114692687988e-01 8.000000000000000000e+00
-8.784123063087463379e-01 -4.857683658599854404e+00 -7.818594574928283691e-01 3.000000000000000000e+00
-1.270205259323119895e+00 -7.010351181030273438e+00 -8.747781515121459961e-01 3.000000000000000000e+00
-1.891575694084167036e+00 -1.042936134338379084e+01 -9.273371100425720215e-01 2.000000000000000000e+00
-4.544280052185058594e+00 -2.500555801391601918e+01 -1.331950068473815918e+00 2.300000000000000000e+01
-5.833112597465515137e-01 -3.171976804733275923e+00 -7.445880174636840820e-01 9.000000000000000000e+00
-7.047899961471557617e-01 -3.828806400299071822e+00 -7.567484974861145020e-01 1.000000000000000000e+00
-8.953634500503540039e-01 -4.854588031768798828e+00 -7.818594574928283691e-01 4.000000000000000000e+00
-1.296832680702209029e+00 -7.017587184906005859e+00 -8.762405514717102051e-01 1.000000000000000000e+00
-1.899702310562134011e+00 -1.026988124847411932e+01 -9.137408137321472168e-01 2.000000000000000000e+00
-4.641001224517822266e+00 -2.504060173034667969e+01 -1.334671497344970925e+00 2.300000000000000000e+01
-5.950982570648193359e-01 -3.173752069473267046e+00 -7.454878091812133789e-01 9.000000000000000000e+00
-9.126687645912170410e-01 -4.853374481201171875e+00 -7.821723222732543945e-01 7.000000000000000000e+00
-1.316175103187561035e+00 -6.985706806182861328e+00 -8.728282451629638672e-01 1.000000000000000000e+00
-1.939970135688781960e+00 -1.028668212890625000e+01 -9.158325195312500000e-01 2.000000000000000000e+00
-4.737280845642089844e+00 -2.507135009765625000e+01 -1.337183713912964089e+00 1.100000000000000000e+01
-6.076363921165466309e-01 -3.179311752319335938e+00 -7.472873926162719727e-01 6.000000000000000000e+00
-9.273735880851745605e-01 -4.838518619537354404e+00 -7.802951335906982422e-01 7.000000000000000000e+00
-1.344295263290405051e+00 -7.000564575195313388e+00 -8.752655982971191406e-01 1.000000000000000000e+00
-1.960070610046386941e+00 -1.019767189025879084e+01 -9.085114598274230957e-01 4.000000000000000000e+00
-4.820235252380371094e+00 -2.503112602233887074e+01 -1.335927605628967063e+00 1.100000000000000000e+01
-9.404713511466979980e-01 -4.815864562988281250e+00 -7.771664261817932129e-01 9.000000000000000000e+00
-1.371772766113281028e+00 -7.011414527893066406e+00 -8.772155046463012695e-01 1.000000000000000000e+00
-1.974978804588318093e+00 -1.008518409729004084e+01 -8.990986347198486328e-01 1.200000000000000000e+01
-4.902966499328613281e+00 -2.499062919616698863e+01 -1.334671497344970925e+00 1.100000000000000000e+01
-9.568907618522644043e-01 -4.810614585876464844e+00 -7.768535614013671875e-01 6.000000000000000000e+00
-1.392359375953674094e+00 -6.987115383148193359e+00 -8.747781515121459961e-01 1.000000000000000000e+00
-2.002376317977904829e+00 -1.003915023803710938e+01 -8.956124186515808105e-01 8.000000000000000000e+00
-5.010520935058593750e+00 -2.507520675659180043e+01 -1.340114474296570046e+00 2.300000000000000000e+01
-9.823041558265686035e-01 -4.849838733673095703e+00 -7.837366461753845215e-01 3.000000000000000000e+00
-1.415950894355773926e+00 -6.978321552276611328e+00 -8.742906451225280762e-01 1.000000000000000000e+00
-2.048510313034058061e+00 -1.008677101135254084e+01 -9.004931449890136719e-01 1.200000000000000000e+01
-5.091648101806640625e+00 -2.502624893188476918e+01 -1.338439702987670898e+00 1.100000000000000000e+01
-1.008002877235413042e+00 -4.888943195343017578e+00 -7.906197905540466309e-01 1.000000000000000000e+00
-1.437891960144042969e+00 -6.961672306060791016e+00 -8.728282451629638672e-01 1.000000000000000000e+00
-2.092177629470825195e+00 -1.012053203582764027e+01 -9.041537046432495117e-01 1.200000000000000000e+01
-5.176544666290283203e+00 -2.499658966064453125e+01 -1.337811708450316939e+00 1.100000000000000000e+01
-1.025062322616576926e+00 -4.885395050048828125e+00 -7.906197905540466309e-01 1.000000000000000000e+00
-1.463000655174254927e+00 -6.960495948791503906e+00 -8.733156919479370117e-01 1.000000000000000000e+00
-2.130363225936890093e+00 -1.012681579589843928e+01 -9.053738713264465332e-01 4.000000000000000000e+00
-5.261296749114990234e+00 -2.496664237976073863e+01 -1.337183713912964089e+00 1.100000000000000000e+01
-1.042109370231627974e+00 -4.881786823272705078e+00 -7.906197905540466309e-01 1.000000000000000000e+00
-1.486458182334899902e+00 -6.951464176177979404e+00 -8.728282451629638672e-01 3.000000000000000000e+00
-2.155692338943481001e+00 -1.007255935668944957e+01 -9.011904001235961914e-01 8.000000000000000000e+00
-5.359299659729003906e+00 -2.499889945983887074e+01 -1.339905142784119096e+00 1.100000000000000000e+01
-1.052437543869018999e+00 -4.847233295440673828e+00 -7.856138944625854492e-01 3.000000000000000000e+00
-1.511136174201965110e+00 -6.948173046112061435e+00 -8.730719685554504395e-01 3.000000000000000000e+00
-2.192957639694213867e+00 -1.007470703125000000e+01 -9.020619392395019531e-01 1.000000000000000000e+01
-5.421851634979248047e+00 -2.486685752868651988e+01 -1.333834171295166016e+00 1.100000000000000000e+01
-1.065944194793700950e+00 -4.828098773956298828e+00 -7.831109166145324707e-01 4.000000000000000000e+00
-1.532808780670166016e+00 -6.931226253509520596e+00 -8.716095685958862305e-01 3.000000000000000000e+00
-2.219500541687012163e+00 -1.002808475494384943e+01 -8.985757231712341309e-01 1.000000000000000000e+01
-5.557036399841308594e+00 -2.506617164611816051e+01 -1.345557451248168945e+00 1.100000000000000000e+01
-1.082790851593018022e+00 -4.824348449707031250e+00 -7.831109166145324707e-01 4.000000000000000000e+00
-1.557429313659667969e+00 -6.927770137786865234e+00 -8.718532919883728027e-01 1.000000000000000000e+00
-2.241808652877808061e+00 -9.963905334472656250e+00 -8.935206532478332520e-01 6.000000000000000000e+00
-5.638352394104003906e+00 -2.501934242248535156e+01 -1.344092011451720969e+00 2.300000000000000000e+01
-1.093913197517395020e+00 -4.795502662658691406e+00 -7.790436148643493652e-01 6.000000000000000000e+00
-1.584255218505858931e+00 -6.933903217315673828e+00 -8.733156919479370117e-01 1.000000000000000000e+00
-2.255257606506348100e+00 -9.862791061401367188e+00 -8.851537108421325684e-01 1.000000000000000000e+00
-5.726543903350830078e+00 -2.500340270996094105e+01 -1.344301342964171919e+00 1.100000000000000000e+01
-1.106301069259643999e+00 -4.780495166778563565e+00 -7.771664261817932129e-01 7.000000000000000000e+00
-1.603341460227966087e+00 -6.917288780212402344e+00 -8.718532919883728027e-01 1.000000000000000000e+00
-2.293434858322143999e+00 -9.886711120605468750e+00 -8.879427313804626465e-01 3.000000000000000000e+00
-5.811393737792968750e+00 -2.501252555847167969e+01 -1.345766782760619895e+00 2.300000000000000000e+01
-1.121173024177551047e+00 -4.768912792205811435e+00 -7.759149670600891113e-01 7.000000000000000000e+00
-1.628842473030090110e+00 -6.917446613311767578e+00 -8.725845217704772949e-01 3.000000000000000000e+00
-2.274006605148314986e+00 -9.649811744689941406e+00 -8.673739433288574219e-01 3.000000000000000000e+00
-5.888575077056884766e+00 -2.494932174682616832e+01 -1.343464016914367898e+00 2.300000000000000000e+01
-1.137726187705994096e+00 -4.760928630828857422e+00 -7.752892374992370605e-01 7.000000000000000000e+00
-1.652799010276793990e+00 -6.905638694763183594e+00 -8.718532919883728027e-01 1.000000000000000000e+00
-2.334421157836914062e+00 -9.746041297912597656e+00 -8.767867684364318848e-01 7.000000000000000000e+00
-5.988365650177001953e+00 -2.496253013610839844e+01 -1.345348119735717995e+00 1.100000000000000000e+01
-1.159462213516234907e+00 -4.778044700622558594e+00 -7.787307500839233398e-01 9.000000000000000000e+00
-1.674081325531006081e+00 -6.888253211975097656e+00 -8.703908324241638184e-01 3.000000000000000000e+00
-2.402799606323242188e+00 -9.879158020019531250e+00 -8.895115256309509277e-01 7.000000000000000000e+00
-6.085864067077636719e+00 -2.498416709899901988e+01 -1.347650885581969993e+00 1.100000000000000000e+01
-1.172825813293457031e+00 -4.760541915893554688e+00 -7.765406966209411621e-01 7.000000000000000000e+00
-1.700493335723876953e+00 -6.892004489898681641e+00 -8.716095685958862305e-01 3.000000000000000000e+00
-2.415776968002318892e+00 -9.783666610717773438e+00 -8.816674947738647461e-01 5.000000000000000000e+00
-6.182627201080322266e+00 -2.500154876708984020e+01 -1.349744319915771040e+00 1.200000000000000000e+01
-1.187519192695617898e+00 -4.748753547668457031e+00 -7.752892374992370605e-01 7.000000000000000000e+00
-1.721647024154663086e+00 -6.874472618103027344e+00 -8.701471090316772461e-01 3.000000000000000000e+00
-1.126567363739014027e+01 -4.495012283325195312e+01 7.339592456817626953e+00 1.500000000000000000e+01
-2.360790729522705078e+00 -9.419572830200195312e+00 -8.495941758155822754e-01 5.000000000000000000e+00
-6.267916202545166016e+00 -2.497206497192383168e+01 -1.349325656890868919e+00 1.100000000000000000e+01
-1.207003712654113992e+00 -4.756067752838134766e+00 -7.771664261817932129e-01 7.000000000000000000e+00
-1.740743160247802956e+00 -6.849182128906250000e+00 -8.677096962928771973e-01 3.000000000000000000e+00
-2.370574712753295898e+00 -9.320522308349609375e+00 -8.414015173912048340e-01 4.000000000000000000e+00
-6.357018470764160156e+00 -2.495777702331542969e+01 -1.349744319915771040e+00 1.200000000000000000e+01
-1.223598122596740945e+00 -4.751825332641601562e+00 -7.771664261817932129e-01 9.000000000000000000e+00
-1.764145016670227051e+00 -6.841141700744628906e+00 -8.674659729003906250e-01 3.000000000000000000e+00
-2.407575607299805132e+00 -9.329553604125976562e+00 -8.429703712463378906e-01 9.000000000000000000e+00
-6.464088439941406250e+00 -2.501278305053710938e+01 -1.353931188583374023e+00 1.200000000000000000e+01
-1.236854314804076926e+00 -4.738184928894042969e+00 -7.756021022796630859e-01 9.000000000000000000e+00
-1.789833664894104004e+00 -6.846777439117431641e+00 -8.689284324645996094e-01 3.000000000000000000e+00
-2.437491893768310991e+00 -9.317663192749023438e+00 -8.426217436790466309e-01 9.000000000000000000e+00
-6.538899898529052734e+00 -2.496029663085937855e+01 -1.352256417274475098e+00 1.200000000000000000e+01
-1.257430911064147949e+00 -4.749115467071533203e+00 -7.781050205230712891e-01 9.000000000000000000e+00
-1.807617425918579102e+00 -6.817462444305419922e+00 -8.660035729408264160e-01 1.000000000000000000e+00
-2.462337255477904829e+00 -9.280211448669433594e+00 -8.400070667266845703e-01 4.000000000000000000e+00
-6.631116390228270596e+00 -2.495662307739258168e+01 -1.353303194046020952e+00 1.200000000000000000e+01
-1.270527601242064986e+00 -4.725175857543945312e+00 -7.749763131141662598e-01 9.000000000000000000e+00
-1.841006875038146973e+00 -6.837306976318359375e+00 -8.694158792495727539e-01 1.000000000000000000e+00
-2.472553014755249023e+00 -9.176423072814941406e+00 -8.314657807350158691e-01 3.000000000000000000e+00
-6.735218524932861328e+00 -2.496183013916015980e+01 -1.354977965354918990e+00 1.200000000000000000e+01
-1.290131330490112083e+00 -4.732147216796875000e+00 -7.768535614013671875e-01 9.000000000000000000e+00
-1.852314949035644975e+00 -6.784878730773925781e+00 -8.635661602020263672e-01 6.000000000000000000e+00
-2.479366302490233931e+00 -9.075482368469238281e+00 -8.230988383293151855e-01 1.000000000000000000e+00
-6.817040443420410156e+00 -2.491890335083008168e+01 -1.353931188583374023e+00 1.200000000000000000e+01
-1.306042551994323953e+00 -4.731878757476806641e+00 -7.774792909622192383e-01 9.000000000000000000e+00
-1.200463581085205078e+01 -4.346401214599608664e+01 5.536524295806884766e+00 3.800000000000000000e+01
-1.864102244377136008e+00 -6.744585514068604404e+00 -8.591789007186889648e-01 9.000000000000000000e+00
-2.520612001419066939e+00 -9.113736152648925781e+00 -8.272823095321655273e-01 1.000000000000000000e+00
-6.927276134490966797e+00 -2.501285171508789062e+01 -1.360211491584778054e+00 1.200000000000000000e+01
-1.319358706474303977e+00 -4.715877056121826172e+00 -7.756021022796630859e-01 9.000000000000000000e+00
-1.878530383110045943e+00 -6.705542087554931641e+00 -8.550353050231933594e-01 1.100000000000000000e+01
-6.991873741149902344e+00 -2.490775489807128906e+01 -1.355815291404723899e+00 1.200000000000000000e+01
-1.340122938156127930e+00 -4.726446628570556641e+00 -7.781050205230712891e-01 9.000000000000000000e+00
-1.897046089172363059e+00 -6.681757450103759766e+00 -8.528416752815246582e-01 9.000000000000000000e+00
-7.078775405883789062e+00 -2.488319778442383168e+01 -1.355815291404723899e+00 1.200000000000000000e+01
-1.352249264717102051e+00 -4.706551551818847656e+00 -7.756021022796630859e-01 9.000000000000000000e+00
-1.918162941932678001e+00 -6.667463779449462891e+00 -8.518667221069335938e-01 9.000000000000000000e+00
-7.183293342590332031e+00 -2.491974830627441051e+01 -1.359164834022521973e+00 1.200000000000000000e+01
-1.371982574462891069e+00 -4.713182449340820312e+00 -7.774792909622192383e-01 9.000000000000000000e+00
-1.931981801986693892e+00 -6.628329277038574219e+00 -8.477231264114379883e-01 8.000000000000000000e+00
-3.281345367431641069e+00 -1.125047683715819957e+01 -1.025300145149230957e+00 2.000000000000000000e+00
-7.280313968658447266e+00 -2.492903137207030895e+01 -1.361048936843872070e+00 1.200000000000000000e+01
-1.370813655853270951e+01 -4.690856170654296875e+01 1.128264522552490057e+01 1.400000000000000000e+01
-1.385074019432068093e+00 -4.696996212005615234e+00 -7.756021022796630859e-01 9.000000000000000000e+00
-1.938805222511291948e+00 -6.566333770751953125e+00 -8.406547307968139648e-01 6.000000000000000000e+00
-3.309306144714355025e+00 -1.120073986053466975e+01 -1.021813869476317915e+00 2.000000000000000000e+00
-7.372953891754150391e+00 -2.492261886596680043e+01 -1.362095594406127930e+00 1.200000000000000000e+01
-1.384413719177245916e+01 -4.676699829101563211e+01 1.126014995574950994e+01 1.400000000000000000e+01
-1.402026534080504927e+00 -4.694025516510009766e+00 -7.759149670600891113e-01 9.000000000000000000e+00
-1.937256813049315962e+00 -6.477746009826660156e+00 -8.301739692687988281e-01 6.000000000000000000e+00
-7.459905147552490234e+00 -2.489673042297362926e+01 -1.362095594406127930e+00 1.200000000000000000e+01
-1.420118927955626997e+00 -4.694775581359863281e+00 -7.768535614013671875e-01 9.000000000000000000e+00
-1.949499130249022993e+00 -6.436746597290039062e+00 -8.257866501808166504e-01 8.000000000000000000e+00
-7.553724765777587891e+00 -2.489347267150878906e+01 -1.363351702690124956e+00 2.400000000000000000e+01
-1.139541506767272949e+00 -3.722624540328979048e+00 -7.567484974861145020e-01 1.000000000000000000e+00
-1.429791450500488059e+00 -4.664986610412597656e+00 -7.727862596511840820e-01 1.000000000000000000e+01
-1.950365304946898970e+00 -6.355545997619628906e+00 -8.162808418273925781e-01 1.000000000000000000e+01
-7.655478477478027344e+00 -2.489998435974121094e+01 -1.365235805511475053e+00 2.400000000000000000e+01
-1.432747077941895064e+01 -4.654326629638671875e+01 -8.500369191169738770e-01 1.300000000000000000e+01
-1.169965147972106934e+00 -3.774881601333618164e+00 -7.681970000267028809e-01 1.000000000000000000e+00
-1.451335668563842995e+00 -4.676946640014648438e+00 -7.756021022796630859e-01 9.000000000000000000e+00
-1.948978781700134055e+00 -6.272871017456054688e+00 -8.065313100814819336e-01 1.000000000000000000e+01
-3.437742471694945845e+00 -1.105770969390868963e+01 -1.013098359107970969e+00 2.000000000000000000e+00
-7.732851028442382812e+00 -2.484259796142578125e+01 -1.363561034202575906e+00 1.200000000000000000e+01
-1.454875373840332031e+01 -4.668197250366210938e+01 -8.534924983978271484e-01 1.300000000000000000e+01
-1.161916971206665039e+00 -3.705415010452270952e+00 -7.548403739929199219e-01 2.000000000000000000e+00
-1.466836929321289062e+00 -4.672108173370361328e+00 -7.756021022796630859e-01 9.000000000000000000e+00
-1.944767951965332031e+00 -6.186836719512938565e+00 -7.962942719459533691e-01 1.200000000000000000e+01
-3.494717359542847124e+00 -1.111086845397949041e+01 -1.019024968147278054e+00 2.000000000000000000e+00
-7.821188926696777344e+00 -2.483586692810058949e+01 -1.364607691764831987e+00 1.200000000000000000e+01
-1.181971669197082964e+00 -3.723791599273682085e+00 -7.594197988510131836e-01 4.000000000000000000e+00
-1.485529780387877974e+00 -4.674489974975585938e+00 -7.768535614013671875e-01 9.000000000000000000e+00
-1.945888161659240945e+00 -6.115694522857666016e+00 -7.880071997642517090e-01 1.000000000000000000e+01
-7.896916389465332031e+00 -2.477416229248046875e+01 -1.362723588943481001e+00 1.200000000000000000e+01
-1.191960453987122026e+00 -3.710297346115111861e+00 -7.575117349624633789e-01 5.000000000000000000e+00
-1.496999025344849077e+00 -4.654232025146484375e+00 -7.743505835533142090e-01 9.000000000000000000e+00
-1.948361158370971902e+00 -6.050289154052734375e+00 -7.804512977600097656e-01 1.200000000000000000e+01
-3.563645362854003906e+00 -1.105965137481688920e+01 -1.016584634780884011e+00 2.000000000000000000e+00
-8.005421638488769531e+00 -2.481487464904785156e+01 -1.366491794586182085e+00 1.200000000000000000e+01
-1.203083634376526101e+00 -3.700512886047362837e+00 -7.563668489456176758e-01 6.000000000000000000e+00
-1.509567737579345925e+00 -4.637707710266113281e+00 -7.724733948707580566e-01 9.000000000000000000e+00
-1.955937147140502930e+00 -6.001928806304931641e+00 -7.750890254974365234e-01 1.300000000000000000e+01
-3.571345806121826172e+00 -1.095243263244629084e+01 -1.007869005203247070e+00 2.000000000000000000e+00
-8.119265556335449219e+00 -2.487031936645508168e+01 -1.371097326278686968e+00 1.200000000000000000e+01
