2.050275611877441051e+01 -3.053183078765869141e+00 -3.618232905864716131e-01 3.000000000000000000e+00
3.472844696044921875e+01 -5.171612739562988281e+00 9.408072471618652344e+00 7.000000000000000000e+00
2.382308959960937944e+00 -3.577389419078826904e-01 -6.454946994781494141e-01 1.900000000000000000e+01
2.753729104995727983e+00 -4.144961237907410223e-01 -6.429101228713989258e-01 1.500000000000000000e+01
3.216789960861206055e+00 -4.847710430622100830e-01 -6.323410272598266602e-01 1.300000000000000000e+01
3.881043910980225053e+00 -5.862598419189453125e-01 -6.216705441474914551e-01 1.000000000000000000e+01
4.985311031341552734e+00 -7.548474073410034180e-01 -6.190962791442871094e-01 1.000000000000000000e+01
6.583351135253906250e+00 -9.979889392852783203e-01 -5.825489759445190430e-01 5.000000000000000000e+00
3.424358749389647727e+01 -5.197196960449218750e+00 6.732504367828369141e+00 5.900000000000000000e+01
1.032120132446289062e+01 -1.568306088447571023e+00 -5.471200942993164062e-01 2.000000000000000000e+00
4.003999328613281250e+01 -6.091224670410156250e+00 9.350315093994140625e+00 1.200000000000000000e+01
2.059136199951171875e+01 -3.136210680007935014e+00 -3.635685443878173828e-01 3.000000000000000000e+00
4.194553375244141336e+01 -6.388602256774902344e+00 1.136888504028319957e+01 1.100000000000000000e+01
2.382955074310303178e+00 -3.663461208343505859e-01 -6.460123658180236816e-01 2.100000000000000000e+01
3.762119293212891336e+01 -5.790455341339111328e+00 6.644130945205688477e-01 3.100000000000000000e+01
2.744561433792113814e+00 -4.229187667369843084e-01 -6.411104798316955566e-01 1.600000000000000000e+01
3.217018604278564009e+00 -4.962961375713347834e-01 -6.327226161956787109e-01 1.300000000000000000e+01
3.877021551132202148e+00 -5.995017886161804199e-01 -6.213576793670654297e-01 1.100000000000000000e+01
3.654496765136718750e+01 -5.657459735870361328e+00 4.540607929229736328e+00 1.900000000000000000e+01
4.972837448120117188e+00 -7.707246541976928711e-01 -6.178775429725646973e-01 9.000000000000000000e+00
3.526515197753906250e+01 -5.471939563751220703e+00 5.652289867401123047e+00 1.300000000000000000e+01
6.611328601837158203e+00 -1.025851011276244895e+00 -5.853379964828491211e-01 6.000000000000000000e+00
1.033934593200683949e+01 -1.608007431030272993e+00 -5.483761429786682129e-01 2.000000000000000000e+00
4.227686309814453125e+01 -6.597702980041503906e+00 1.146516609191895064e+01 1.100000000000000000e+01
2.387386798858643022e+00 -3.755625784397125244e-01 -6.475652456283569336e-01 1.900000000000000000e+01
3.769951629638671875e+01 -5.937297344207763672e+00 6.661583781242370605e-01 3.100000000000000000e+01
2.748843193054199219e+00 -4.334070086479187012e-01 -6.424602270126342773e-01 1.400000000000000000e+01
3.215266466140747070e+00 -5.075225830078125000e-01 -6.327226161956787109e-01 1.200000000000000000e+01
3.880758523941040039e+00 -6.139574646949768066e-01 -6.222962737083435059e-01 1.000000000000000000e+01
4.964234828948974609e+00 -7.871457338333129883e-01 -6.171463727951049805e-01 1.000000000000000000e+01
3.563602447509766336e+01 -5.656944274902343750e+00 5.714863777160645419e+00 1.300000000000000000e+01
6.641159057617188388e+00 -1.054232716560363992e+00 -5.883012413978576660e-01 6.000000000000000000e+00
3.420646667480468750e+01 -5.436133861541748047e+00 6.732504367828369141e+00 5.900000000000000000e+01
1.032578086853026988e+01 -1.642833352088928001e+00 -5.479574799537658691e-01 2.000000000000000000e+00
3.677187728881835938e+01 -5.863573074340820312e+00 9.977474212646484375e+00 8.000000000000000000e+00
2.397505283355712891e+00 -3.857350349426270086e-01 -6.506710648536682129e-01 1.800000000000000000e+01
2.747313737869263139e+00 -4.429996311664580744e-01 -6.424602270126342773e-01 1.400000000000000000e+01
3.777948379516602273e+01 -6.091876983642578125e+00 2.005513906478881836e+00 2.100000000000000000e+01
3.209599018096923828e+00 -5.181171298027038574e-01 -6.319593787193298340e-01 1.200000000000000000e+01
3.886391878128052202e+00 -6.287620663642883301e-01 -6.235477924346923828e-01 1.000000000000000000e+01
3.844454193115233664e+01 -6.226656913757324219e+00 4.781909465789794922e+00 2.000000000000000000e+01
4.967335700988770419e+00 -8.054225444793701172e-01 -6.178775429725646973e-01 1.000000000000000000e+01
6.615805625915527344e+00 -1.073896765708922896e+00 -5.863838195800781250e-01 6.000000000000000000e+00
3.699327087402343750e+01 -6.011481761932373047e+00 7.285087585449218750e+00 6.200000000000000000e+01
1.037123775482177912e+01 -1.687205314636230025e+00 -5.506789088249206543e-01 2.000000000000000000e+00
3.492316436767578125e+01 -5.687598228454589844e+00 8.168872833251953125e+00 1.000000000000000000e+01
2.075475502014160156e+01 -3.383845090866088867e+00 -3.670590221881865900e-01 3.000000000000000000e+00
3.542032623291016336e+01 -5.774912834167479581e+00 9.616163253784179688e+00 7.000000000000000000e+00
2.377081871032714844e+00 -3.909662961959838867e-01 -6.454946994781494141e-01 1.800000000000000000e+01
5.993179321289063211e+01 -9.867918014526367188e+00 1.060198783874511941e+00 6.100000000000000000e+01
2.751518964767456055e+00 -4.535376727581024170e-01 -6.438099145889282227e-01 1.200000000000000000e+01
3.215519189834595171e+00 -5.305961370468139648e-01 -6.334858536720275879e-01 1.100000000000000000e+01
3.888071298599243164e+00 -6.429688334465026855e-01 -6.241735219955444336e-01 1.000000000000000000e+01
3.752169036865233664e+01 -6.211675643920898438e+00 4.669789314270020419e+00 2.000000000000000000e+01
4.984077453613281250e+00 -8.260024189949035645e-01 -6.203149557113647461e-01 1.000000000000000000e+01
6.606120109558104581e+00 -1.096005439758301003e+00 -5.858609080314636230e-01 8.000000000000000000e+00
1.034558296203612926e+01 -1.720121622085571067e+00 -5.496321916580200195e-01 2.000000000000000000e+00
2.079015731811523082e+01 -3.464160203933715820e+00 -3.678967356681823730e-01 3.000000000000000000e+00
3.484251022338867188e+01 -5.811883449554443359e+00 9.465012550354003906e+00 7.000000000000000000e+00
2.369987249374390093e+00 -3.983009457588195801e-01 -6.439417600631713867e-01 1.600000000000000000e+01
5.969978332519531250e+01 -1.004388236999512074e+01 1.056708335876465066e+00 6.200000000000000000e+01
2.747997283935546875e+00 -4.628158509731292725e-01 -6.433600187301635742e-01 1.200000000000000000e+01
3.793298721313477273e+01 -6.388647556304931641e+00 2.015980958938599077e+00 2.200000000000000000e+01
3.221391201019287109e+00 -5.431227087974548340e-01 -6.350123286247253418e-01 1.200000000000000000e+01
3.872168779373168945e+00 -6.542332172393798828e-01 -6.219834089279174805e-01 1.100000000000000000e+01
3.739212799072266336e+01 -6.324405193328857422e+00 4.656383991241455078e+00 4.000000000000000000e+01
4.981163978576660156e+00 -8.433951139450073242e-01 -6.203149557113647461e-01 9.000000000000000000e+00
3.538007354736328125e+01 -5.996795654296875000e+00 5.683577060699462891e+00 1.300000000000000000e+01
6.610111713409423828e+00 -1.120390176773071067e+00 -5.865581631660461426e-01 6.000000000000000000e+00
1.035920619964599965e+01 -1.759568452835083008e+00 -5.506789088249206543e-01 2.000000000000000000e+00
3.406803131103516336e+01 -5.792761325836181641e+00 7.978114128112792969e+00 1.000000000000000000e+01
2.092776107788085938e+01 -3.562212228775023970e+00 -3.705494999885559082e-01 3.000000000000000000e+00
3.480677413940429688e+01 -5.930875301361083984e+00 9.460871696472167969e+00 7.000000000000000000e+00
2.385861396789550781e+00 -4.086799323558806818e-01 -6.486005187034606934e-01 1.700000000000000000e+01
2.740767955780028853e+00 -4.704575836658477783e-01 -6.420103311538696289e-01 1.200000000000000000e+01
3.215799093246459961e+00 -5.525753498077392578e-01 -6.342490911483764648e-01 1.100000000000000000e+01
3.877881288528441939e+00 -6.677355766296386719e-01 -6.232349276542663574e-01 1.000000000000000000e+01
3.749922943115233664e+01 -6.463762283325195312e+00 4.672226905822753906e+00 2.000000000000000000e+01
4.980445861816406250e+00 -8.593772053718566895e-01 -6.205586791038513184e-01 1.000000000000000000e+01
6.612449169158936435e+00 -1.142168283462523970e+00 -5.870810747146606445e-01 8.000000000000000000e+00
3.780106735229492188e+01 -6.536172866821289062e+00 7.456815719604492188e+00 6.200000000000000000e+01
1.040479564666748047e+01 -1.800960779190063032e+00 -5.534003973007202148e-01 2.000000000000000000e+00
3.409190750122070312e+01 -5.907079696655273438e+00 7.988011837005615234e+00 1.000000000000000000e+01
2.090070343017578125e+01 -3.625206947326660156e+00 -3.702702522277832031e-01 3.000000000000000000e+00
3.489836502075195312e+01 -6.059362411499023438e+00 9.490894317626953125e+00 7.000000000000000000e+00
2.392032146453856978e+00 -4.183368980884552002e-01 -6.506710648536682129e-01 1.800000000000000000e+01
5.982883071899414062e+01 -1.047408580780028942e+01 1.060198783874511941e+00 6.100000000000000000e+01
2.746786832809447798e+00 -4.813673198223114014e-01 -6.438099145889282227e-01 1.300000000000000000e+01
3.221585750579833984e+00 -5.651541352272033691e-01 -6.357755661010742188e-01 1.200000000000000000e+01
3.871635675430297852e+00 -6.805838346481323242e-01 -6.226091980934143066e-01 1.000000000000000000e+01
3.843050765991210938e+01 -6.762504100799561435e+00 4.791171550750732422e+00 2.000000000000000000e+01
4.963730812072753906e+00 -8.743464350700378418e-01 -6.188524961471557617e-01 9.000000000000000000e+00
6.631967544555664062e+00 -1.169394731521606001e+00 -5.891728401184082031e-01 5.000000000000000000e+00
1.035910987854004084e+01 -1.830319166183471902e+00 -5.513069629669189453e-01 2.000000000000000000e+00
2.092730331420898082e+01 -3.705114364624022993e+00 -3.709683418273925781e-01 3.000000000000000000e+00
3.478759765625000000e+01 -6.165298938751220703e+00 9.466565132141113281e+00 2.100000000000000000e+01
2.379146337509154829e+00 -4.246474206447600763e-01 -6.475652456283569336e-01 1.800000000000000000e+01
2.748926401138306108e+00 -4.916386306285858154e-01 -6.447097063064575195e-01 1.300000000000000000e+01
3.207998037338256836e+00 -5.743202567100524902e-01 -6.334858536720275879e-01 1.100000000000000000e+01
3.888679981231689009e+00 -6.975821256637573242e-01 -6.257378458976745605e-01 1.100000000000000000e+01
3.836368179321289062e+01 -6.888891696929931641e+00 4.785809040069580078e+00 2.000000000000000000e+01
4.976278781890869141e+00 -8.944772481918334961e-01 -6.208024621009826660e-01 9.000000000000000000e+00
3.735620498657227273e+01 -6.714711666107177734e+00 6.011463642120361328e+00 1.300000000000000000e+01
6.661180496215820312e+00 -1.198535561561584029e+00 -5.921361446380615234e-01 8.000000000000000000e+00
1.041948699951172053e+01 -1.878516674041748047e+00 -5.548658370971679688e-01 2.000000000000000000e+00
3.426462554931641336e+01 -6.183702945709229404e+00 8.038400650024414062e+00 2.000000000000000000e+01
2.073123359680176137e+01 -3.745081186294556108e+00 -3.677222132682799738e-01 1.000000000000000000e+01
3.526694488525391336e+01 -6.370946407318115234e+00 9.602704048156738281e+00 7.000000000000000000e+00
2.377649545669556108e+00 -4.329496026039124090e-01 -6.475652456283569336e-01 1.900000000000000000e+01
5.975424957275391336e+01 -1.089151096343993963e+01 1.060198783874511941e+00 6.100000000000000000e+01
2.745276451110839844e+00 -5.008814334869384766e-01 -6.442598104476928711e-01 1.300000000000000000e+01
3.217561721801757812e+00 -5.876311063766479492e-01 -6.357755661010742188e-01 1.100000000000000000e+01
3.888164281845093218e+00 -7.115074992179870605e-01 -6.260507106781005859e-01 1.100000000000000000e+01
4.980936527252197266e+00 -9.132742881774902344e-01 -6.217774152755737305e-01 9.000000000000000000e+00
6.651077270507813388e+00 -1.220701098442078081e+00 -5.916131734848022461e-01 5.000000000000000000e+00
1.046393871307373047e+01 -1.924267888069153054e+00 -5.575872659683227539e-01 2.000000000000000000e+00
3.413933944702147727e+01 -6.284220695495604581e+00 8.014105796813964844e+00 1.000000000000000000e+01
2.083799743652344105e+01 -3.839527606964110884e+00 -3.698514103889464777e-01 3.000000000000000000e+00
3.531555175781250000e+01 -6.513478279113770419e+00 9.622374534606933594e+00 7.000000000000000000e+00
2.376123905181885210e+00 -4.412465095520020086e-01 -6.475652456283569336e-01 2.000000000000000000e+01
5.971586990356445312e+01 -1.110002613067626953e+01 1.060198783874511941e+00 6.100000000000000000e+01
2.745427131652832031e+00 -5.108176469802856445e-01 -6.447097063064575195e-01 1.300000000000000000e+01
3.223211050033568892e+00 -6.002967357635498047e-01 -6.373020410537719727e-01 1.100000000000000000e+01
3.870122194290161133e+00 -7.221764922142028809e-01 -6.235477924346923828e-01 1.300000000000000000e+01
4.985523223876953125e+00 -9.321147203445434570e-01 -6.227523684501647949e-01 9.000000000000000000e+00
6.636983394622802734e+00 -1.242077708244323953e+00 -5.907416343688964844e-01 5.000000000000000000e+00
1.045715808868408025e+01 -1.960782170295715110e+00 -5.575872659683227539e-01 2.000000000000000000e+00
3.329361724853516336e+01 -6.248775959014892578e+00 7.820648193359375000e+00 1.900000000000000000e+01
1.977695465087890980e+01 -3.715448856353760210e+00 -3.512471318244934082e-01 1.000000000000000000e+01
3.529375839233397727e+01 -6.630553245544433594e+00 9.622374534606933594e+00 7.000000000000000000e+00
2.382161617279053178e+00 -4.509754180908203125e-01 -6.496357917785644531e-01 1.900000000000000000e+01
2.730225086212158203e+00 -5.178557634353637695e-01 -6.415604352951049805e-01 1.100000000000000000e+01
3.221096038818358931e+00 -6.115441918373107910e-01 -6.373020410537719727e-01 1.100000000000000000e+01
3.877280473709106001e+00 -7.375270128250122070e-01 -6.251121163368225098e-01 1.200000000000000000e+01
4.982239246368408203e+00 -9.495117664337158203e-01 -6.227523684501647949e-01 1.000000000000000000e+01
3.815577697753906250e+01 -7.278603553771972656e+00 6.152254581451416016e+00 1.400000000000000000e+01
6.646306991577148438e+00 -1.267850875854491965e+00 -5.919618010520935059e-01 6.000000000000000000e+00
1.048948478698729936e+01 -2.004771232604980025e+00 -5.596807003021240234e-01 2.000000000000000000e+00
3.323140716552733664e+01 -6.357264995574951172e+00 7.811200618743895596e+00 1.900000000000000000e+01
1.980510902404785156e+01 -3.792358160018920898e+00 -3.519801199436187744e-01 6.000000000000000000e+00
3.541341400146483664e+01 -6.787504196166992188e+00 9.661714553833007812e+00 7.000000000000000000e+00
2.386263608932495117e+00 -4.603858590126038153e-01 -6.511887311935424805e-01 1.900000000000000000e+01
2.728400945663452148e+00 -5.273829102516174316e-01 -6.415604352951049805e-01 1.300000000000000000e+01
3.218941688537598100e+00 -6.227841973304748535e-01 -6.373020410537719727e-01 1.100000000000000000e+01
3.884378910064696822e+00 -7.529363036155700684e-01 -6.266764402389526367e-01 1.100000000000000000e+01
4.973048210144042969e+00 -9.657619595527648926e-01 -6.220211386680603027e-01 1.000000000000000000e+01
3.611471557617188211e+01 -7.013448238372802734e+00 5.826870918273925781e+00 1.300000000000000000e+01
6.657487392425537109e+00 -1.294084429740905984e+00 -5.933563113212585449e-01 6.000000000000000000e+00
1.048242282867431996e+01 -2.041374206542969194e+00 -5.596807003021240234e-01 2.000000000000000000e+00
3.323005676269531250e+01 -6.477326869964599609e+00 7.816149234771729404e+00 9.000000000000000000e+00
2.082805061340332031e+01 -4.063654899597167969e+00 -3.704098761081696112e-01 1.000000000000000000e+01
2.375164031982421875e+00 -4.668497443199158270e-01 -6.486005187034606934e-01 1.700000000000000000e+01
2.741839647293090820e+00 -5.399156212806701660e-01 -6.451596021652221680e-01 1.300000000000000000e+01
3.210969686508179155e+00 -6.328776478767395020e-01 -6.361572146415710449e-01 1.200000000000000000e+01
3.889478921890258789e+00 -7.680214047431945801e-01 -6.279279589653015137e-01 1.000000000000000000e+01
3.752485656738281250e+01 -7.416510105133056641e+00 4.696600914001464844e+00 2.000000000000000000e+01
4.979383468627929688e+00 -9.850413799285888672e-01 -6.232398152351379395e-01 9.000000000000000000e+00
6.672473907470703125e+00 -1.321185469627379927e+00 -5.950993895530700684e-01 6.000000000000000000e+00
1.051049709320068004e+01 -2.084947347640991211e+00 -5.615648031234741211e-01 2.000000000000000000e+00
3.327414321899414062e+01 -6.606564998626708984e+00 7.831895828247070312e+00 1.900000000000000000e+01
2.035870742797851918e+01 -4.045905113220214844e+00 -3.623119592666625977e-01 6.000000000000000000e+00
3.664600372314453125e+01 -7.289343833923339844e+00 1.001163864135742010e+01 8.000000000000000000e+00
2.375414371490478960e+00 -4.755169749259948730e-01 -6.491181850433349609e-01 1.900000000000000000e+01
2.741848945617675781e+00 -5.498663783073425293e-01 -6.456094980239868164e-01 1.500000000000000000e+01
3.206815958023070845e+00 -6.436957716941833496e-01 -6.357755661010742188e-01 1.200000000000000000e+01
3.886774301528931108e+00 -7.815935611724853516e-01 -6.279279589653015137e-01 1.000000000000000000e+01
3.762717819213867188e+01 -7.573302745819091797e+00 4.712687492370604581e+00 2.000000000000000000e+01
4.983698844909667969e+00 -1.003984808921813965e+00 -6.242147684097290039e-01 9.000000000000000000e+00
3.846609878540039062e+01 -7.749139785766601562e+00 6.214828491210938388e+00 1.400000000000000000e+01
6.640478610992431641e+00 -1.338955283164978027e+00 -5.926590561866760254e-01 5.000000000000000000e+00
1.048749351501465021e+01 -2.118459463119506836e+00 -5.607274174690246582e-01 2.000000000000000000e+00
3.368828964233397727e+01 -6.811109066009520596e+00 7.934923648834229404e+00 9.000000000000000000e+00
1.970551109313964844e+01 -3.987646579742432085e+00 -3.509329855442047119e-01 6.000000000000000000e+00
3.530756378173828125e+01 -7.144908428192138672e+00 9.652397155761718750e+00 7.000000000000000000e+00
2.373739957809447798e+00 -4.838058054447174072e-01 -6.491181850433349609e-01 2.200000000000000000e+01
2.739912748336791992e+00 -5.594338178634643555e-01 -6.456094980239868164e-01 1.500000000000000000e+01
3.210319995880126953e+00 -6.560650467872619629e-01 -6.369204521179199219e-01 1.200000000000000000e+01
3.876281261444091797e+00 -7.935713529586791992e-01 -6.266764402389526367e-01 1.000000000000000000e+01
3.760829162597656250e+01 -7.706193923950195312e+00 4.713662624359130859e+00 2.000000000000000000e+01
4.995720863342285156e+00 -1.024565577507019043e+00 -6.261646747589111328e-01 9.000000000000000000e+00
3.805043029785156250e+01 -7.810631752014160156e+00 6.152254581451416016e+00 1.400000000000000000e+01
6.665039539337158203e+00 -1.368136167526244895e+00 -5.952737331390380859e-01 5.000000000000000000e+00
3.507709884643554688e+01 -7.206674098968505859e+00 6.960711956024169922e+00 6.000000000000000000e+01
1.051916122436523082e+01 -2.163100481033325195e+00 -5.628208518028259277e-01 2.000000000000000000e+00
3.382082366943358664e+01 -6.960875034332275391e+00 7.971815586090087891e+00 1.000000000000000000e+01
1.814224243164062855e+01 -3.737268686294556108e+00 -3.233232796192169189e-01 9.000000000000000000e+00
3.578820800781250000e+01 -7.378817081451416016e+00 9.791124343872070312e+00 7.000000000000000000e+00
2.375819921493529829e+00 -4.928735792636870783e-01 -6.501534581184387207e-01 2.200000000000000000e+01
2.730311393737792969e+00 -5.674084424972534180e-01 -6.438099145889282227e-01 1.500000000000000000e+01
3.221465349197388139e+00 -6.700657606124877930e-01 -6.395917534828186035e-01 1.400000000000000000e+01
3.877355337142943892e+00 -8.079031705856323242e-01 -6.273022294044494629e-01 1.000000000000000000e+01
3.699817657470703125e+01 -7.715844631195068359e+00 4.640541076660156250e+00 1.900000000000000000e+01
4.986284255981445312e+00 -1.040780901908874956e+00 -6.254334449768066406e-01 1.000000000000000000e+01
6.666074275970458984e+00 -1.392615437507628950e+00 -5.957966446876525879e-01 6.000000000000000000e+00
1.048808765411376953e+01 -2.194896697998046875e+00 -5.615648031234741211e-01 2.000000000000000000e+00
1.813887214660644887e+01 -3.802625656127930132e+00 -3.234978020191193182e-01 3.000000000000000000e+00
3.568791198730468750e+01 -7.481599330902099609e+00 9.770419120788574219e+00 7.000000000000000000e+00
2.381645679473876953e+00 -5.027598142623901367e-01 -6.522240042686462402e-01 2.100000000000000000e+01
2.734033823013306108e+00 -5.781450867652893066e-01 -6.451596021652221680e-01 1.400000000000000000e+01
3.213344573974608931e+00 -6.800871491432189941e-01 -6.384469270706176758e-01 1.300000000000000000e+01
3.891903400421143022e+00 -8.251199722290039062e-01 -6.301180124282836914e-01 1.100000000000000000e+01
4.988446235656738281e+00 -1.059417009353637917e+00 -6.261646747589111328e-01 1.000000000000000000e+01
6.676763057708740234e+00 -1.419189810752869096e+00 -5.971911549568176270e-01 5.000000000000000000e+00
1.047645473480224965e+01 -2.230661630630493164e+00 -5.613554716110229492e-01 2.000000000000000000e+00
1.798076629638671875e+01 -3.835051774978638139e+00 -3.209148347377777100e-01 3.000000000000000000e+00
3.722835922241210938e+01 -7.947093486785888672e+00 1.020005893707275035e+01 8.000000000000000000e+00
2.374298810958861861e+00 -5.094390511512756348e-01 -6.506710648536682129e-01 2.000000000000000000e+01
2.735912084579468218e+00 -5.880272388458251953e-01 -6.460594534873962402e-01 1.400000000000000000e+01
3.203394174575806108e+00 -6.890877485275268555e-01 -6.369204521179199219e-01 1.300000000000000000e+01
3.891076803207397017e+00 -8.384375572204589844e-01 -6.304308772087097168e-01 1.100000000000000000e+01
3.750754165649414062e+01 -8.088862419128417969e+00 4.711225032806395596e+00 2.000000000000000000e+01
4.981025218963623047e+00 -1.075115919113158958e+00 -6.256772279739379883e-01 9.000000000000000000e+00
3.632814407348632812e+01 -7.841149806976318359e+00 5.886315822601318359e+00 1.300000000000000000e+01
6.668125152587890625e+00 -1.440481543540955034e+00 -5.968425273895263672e-01 5.000000000000000000e+00
1.055489158630370916e+01 -2.283976793289185014e+00 -5.659610033035278320e-01 2.000000000000000000e+00
3.659280395507813211e+01 -7.925015926361083984e+00 8.643969535827636719e+00 1.100000000000000000e+01
1.801485252380371094e+01 -3.904823541641234907e+00 -3.217525780200958252e-01 3.000000000000000000e+00
3.788288879394531250e+01 -8.211336135864257812e+00 1.038640785217284979e+01 8.000000000000000000e+00
2.361181497573852983e+00 -5.152525305747985840e-01 -6.475652456283569336e-01 1.900000000000000000e+01
2.737650394439696822e+00 -5.984060764312744141e-01 -6.469592452049255371e-01 1.300000000000000000e+01
3.202887296676636186e+00 -7.006850242614746094e-01 -6.373020410537719727e-01 1.200000000000000000e+01
3.888126373291016069e+00 -8.520148396492004395e-01 -6.304308772087097168e-01 1.000000000000000000e+01
4.992753028869628906e+00 -1.095901131629944070e+00 -6.276271343231201172e-01 9.000000000000000000e+00
6.655272483825683594e+00 -1.462038874626159890e+00 -5.961452722549438477e-01 5.000000000000000000e+00
1.061317443847656072e+01 -2.335399866104125977e+00 -5.695198774337768555e-01 2.000000000000000000e+00
3.644311904907227273e+01 -8.025876045227050781e+00 8.615175247192382812e+00 1.100000000000000000e+01
2.366912603378295898e+00 -5.251653194427490234e-01 -6.496357917785644531e-01 1.900000000000000000e+01
2.739349603652954102e+00 -6.088041663169860840e-01 -6.478590369224548340e-01 1.400000000000000000e+01
3.210003852844237837e+00 -7.139922380447387695e-01 -6.392101049423217773e-01 1.200000000000000000e+01
3.877416372299193892e+00 -8.638634681701660156e-01 -6.291794180870056152e-01 1.000000000000000000e+01
5.002459526062011719e+00 -1.116348862648010032e+00 -6.293333172798156738e-01 1.000000000000000000e+01
6.681240081787109375e+00 -1.492209792137145996e+00 -5.989342927932739258e-01 6.000000000000000000e+00
1.060885620117188033e+01 -2.373304605484008789e+00 -5.697292089462280273e-01 2.000000000000000000e+00
3.637304306030272727e+01 -8.143671035766601562e+00 8.605278015136718750e+00 1.100000000000000000e+01
1.867011070251464844e+01 -4.183529376983642578e+00 -3.339692354202271063e-01 6.000000000000000000e+00
3.874457168579102273e+01 -8.681740760803222656e+00 1.063901519775390980e+01 9.000000000000000000e+00
2.365064859390258789e+00 -5.334241390228271484e-01 -6.496357917785644531e-01 1.900000000000000000e+01
4.580051803588867188e+01 -1.033839321136474965e+01 8.195649981498718262e-01 5.400000000000000000e+01
2.722001075744628906e+00 -6.149272322654724121e-01 -6.442598104476928711e-01 1.400000000000000000e+01
3.213236808776855025e+00 -7.264917492866516113e-01 -6.403549909591674805e-01 1.100000000000000000e+01
3.885936737060546875e+00 -8.800107240676879883e-01 -6.310566067695617676e-01 1.200000000000000000e+01
5.002404212951660156e+00 -1.134682178497314009e+00 -6.298207640647888184e-01 1.000000000000000000e+01
3.614628601074218750e+01 -8.205600738525390625e+00 5.870672702789306641e+00 1.300000000000000000e+01
6.685705661773681641e+00 -1.517727971076965110e+00 -5.998058319091796875e-01 7.000000000000000000e+00
1.060829734802245916e+01 -2.412093162536621094e+00 -5.701479315757751465e-01 3.000000000000000000e+00
1.870998764038085938e+01 -4.261108398437500000e+00 -3.349465727806090753e-01 3.000000000000000000e+00
3.788750076293945312e+01 -8.635648727416992188e+00 1.041229057312012074e+01 8.000000000000000000e+00
2.382018566131591797e+00 -5.459926724433898926e-01 -6.548121571540832520e-01 1.900000000000000000e+01
2.719837903976439986e+00 -6.244250535964965820e-01 -6.442598104476928711e-01 1.400000000000000000e+01
3.208767890930175781e+00 -7.372639775276184082e-01 -6.399733424186706543e-01 1.200000000000000000e+01
3.882841348648070845e+00 -8.935697674751281738e-01 -6.310566067695617676e-01 1.100000000000000000e+01
4.990675449371337891e+00 -1.150353431701659934e+00 -6.288458108901977539e-01 1.000000000000000000e+01
3.604813003540039062e+01 -8.315739631652832031e+00 5.859409332275390625e+00 1.300000000000000000e+01
6.697839736938476562e+00 -1.545086860656738059e+00 -6.013746261596679688e-01 5.000000000000000000e+00
1.059981346130370916e+01 -2.449108362197875977e+00 -5.701479315757751465e-01 3.000000000000000000e+00
1.806962394714355113e+01 -4.181668281555175781e+00 -3.237421512603759766e-01 1.200000000000000000e+01
3.776454925537108664e+01 -8.739462852478027344e+00 1.038640785217284979e+01 8.000000000000000000e+00
2.368809223175048828e+00 -5.516750216484069824e-01 -6.517063379287719727e-01 2.000000000000000000e+01
2.723335027694702148e+00 -6.352432966232299805e-01 -6.456094980239868164e-01 1.200000000000000000e+01
3.190880060195922852e+00 -7.448897361755371094e-01 -6.369204521179199219e-01 1.200000000000000000e+01
3.889316082000731978e+00 -9.093666672706604004e-01 -6.326209902763366699e-01 1.100000000000000000e+01
4.274953079223632812e+01 -1.000319957733153942e+01 5.390768527984619141e+00 3.400000000000000000e+01
4.986629486083984375e+00 -1.167767047882080078e+00 -6.288458108901977539e-01 1.000000000000000000e+01
3.594964599609375000e+01 -8.425293922424316406e+00 5.848145961761474609e+00 1.300000000000000000e+01
6.676887035369873047e+00 -1.564820289611815962e+00 -5.999801158905029297e-01 3.000000000000000000e+00
3.495919418334960938e+01 -8.199604988098144531e+00 6.979793071746826172e+00 6.000000000000000000e+01
1.059119987487792969e+01 -2.486093759536743164e+00 -5.701479315757751465e-01 3.000000000000000000e+00
3.847881317138671875e+01 -9.039296150207519531e+00 9.125364303588867188e+00 1.200000000000000000e+01
1.807049179077148082e+01 -4.248378753662109375e+00 -3.240213692188262939e-01 1.200000000000000000e+01
3.669949340820313211e+01 -8.628064155578613281e+00 1.010170745849609020e+01 8.000000000000000000e+00
2.355686664581298828e+00 -5.568607449531555176e-01 -6.486005187034606934e-01 2.000000000000000000e+01
2.732591629028319868e+00 -6.469644904136657715e-01 -6.483089327812194824e-01 1.500000000000000000e+01
3.197944164276123047e+00 -7.577301859855651855e-01 -6.388285160064697266e-01 1.300000000000000000e+01
3.882435083389281782e+00 -9.213469028472900391e-01 -6.319952607154846191e-01 1.100000000000000000e+01
4.249980926513671875e+01 -1.009353351593017933e+01 5.363469600677490234e+00 3.300000000000000000e+01
4.998179912567138672e+00 -1.187969207763672097e+00 -6.307957172393798828e-01 1.000000000000000000e+01
6.683290958404541016e+00 -1.589719295501708984e+00 -6.010259985923767090e-01 5.000000000000000000e+00
1.065672683715819957e+01 -2.538790464401245117e+00 -5.741254687309265137e-01 3.000000000000000000e+00
3.782686996459960938e+01 -9.018608093261718750e+00 8.977796554565429688e+00 1.200000000000000000e+01
1.796682929992676137e+01 -4.286930561065673828e+00 -3.224157691001892090e-01 9.000000000000000000e+00
2.364999294281005859e+00 -5.677860975265502930e-01 -6.517063379287719727e-01 1.900000000000000000e+01
2.724632263183594194e+00 -6.551323533058166504e-01 -6.469592452049255371e-01 1.400000000000000000e+01
3.210549831390380859e+00 -7.725629806518554688e-01 -6.418814659118652344e-01 1.100000000000000000e+01
3.869593381881713867e+00 -9.325793981552124023e-01 -6.304308772087097168e-01 1.000000000000000000e+01
5.007510185241699219e+00 -1.208669185638427956e+00 -6.325019001960754395e-01 1.000000000000000000e+01
3.737382125854492188e+01 -9.027870178222656250e+00 6.089680671691895419e+00 1.400000000000000000e+01
6.662207603454589844e+00 -1.609296202659606934e+00 -5.996314883232116699e-01 3.000000000000000000e+00
1.058179664611816051e+01 -2.560006141662598100e+00 -5.705665946006774902e-01 3.000000000000000000e+00
3.778758239746093750e+01 -9.148759841918945312e+00 8.975996971130371094e+00 1.200000000000000000e+01
2.014592361450194957e+01 -4.881256580352783203e+00 -3.618232905864716131e-01 3.000000000000000000e+00
2.366756677627563032e+00 -5.769531130790710449e-01 -6.527416110038757324e-01 1.900000000000000000e+01
4.231631851196289062e+01 -1.032343101501465021e+01 7.602966427803039551e-01 4.400000000000000000e+01
2.710970163345336914e+00 -6.618658900260925293e-01 -6.442598104476928711e-01 1.400000000000000000e+01
3.200204849243164062e+00 -7.819012999534606934e-01 -6.403549909591674805e-01 1.200000000000000000e+01
3.873989582061768022e+00 -9.479591846466064453e-01 -6.316823959350585938e-01 1.000000000000000000e+01
5.003260612487792969e+00 -1.226141333580017090e+00 -6.325019001960754395e-01 9.000000000000000000e+00
6.675899982452392578e+00 -1.637287497520446999e+00 -6.013746261596679688e-01 5.000000000000000000e+00
1.060383033752441051e+01 -2.604550361633300781e+00 -5.722413659095764160e-01 3.000000000000000000e+00
3.775163269042968750e+01 -9.279676437377929688e+00 8.975096702575683594e+00 1.200000000000000000e+01
2.012876319885253906e+01 -4.951549053192138672e+00 -3.618232905864716131e-01 3.000000000000000000e+00
3.915996170043945312e+01 -9.633105278015136719e+00 1.080569553375243963e+01 9.000000000000000000e+00
2.360977888107299805e+00 -5.842829346656799316e-01 -6.517063379287719727e-01 1.800000000000000000e+01
2.719992399215697798e+00 -6.741377115249633789e-01 -6.469592452049255371e-01 1.400000000000000000e+01
3.197456121444702148e+00 -7.930673360824584961e-01 -6.403549909591674805e-01 1.100000000000000000e+01
3.885993957519530806e+00 -9.652858972549438477e-01 -6.341853141784667969e-01 1.000000000000000000e+01
4.987391948699951172e+00 -1.240723133087157981e+00 -6.310394406318664551e-01 1.000000000000000000e+01
6.701077938079833984e+00 -1.668282032012939009e+00 -6.041635870933532715e-01 3.000000000000000000e+00
1.067994308471680043e+01 -2.662808895111083984e+00 -5.768468976020812988e-01 3.000000000000000000e+00
3.597949981689453125e+01 -8.977366447448730469e+00 8.561186790466308594e+00 1.100000000000000000e+01
2.366418600082397017e+00 -5.944032669067382812e-01 -6.537768840789794922e-01 2.000000000000000000e+01
2.719512462615966797e+00 -6.841035485267639160e-01 -6.474091410636901855e-01 1.500000000000000000e+01
3.192764520645142046e+00 -8.037444353103637695e-01 -6.399733424186706543e-01 1.100000000000000000e+01
3.886431455612183061e+00 -9.798104763031005859e-01 -6.348110437393188477e-01 1.000000000000000000e+01
3.636483001708983664e+01 -9.174708366394042969e+00 4.604955196380615234e+00 1.900000000000000000e+01
5.002277851104736328e+00 -1.262984275817871094e+00 -6.334768533706665039e-01 9.000000000000000000e+00
6.687487125396729404e+00 -1.689710736274719016e+00 -6.034663915634155273e-01 6.000000000000000000e+00
3.643015289306641336e+01 -9.211481094360351562e+00 7.304168224334716797e+00 6.200000000000000000e+01
1.066283798217773082e+01 -2.698112726211547852e+00 -5.764282345771789551e-01 3.000000000000000000e+00
3.547944259643554688e+01 -8.984268188476562500e+00 8.449611663818359375e+00 1.100000000000000000e+01
1.806223487854003906e+01 -4.577157497406005859e+00 -3.252430558204650879e-01 3.000000000000000000e+00
4.028473281860352273e+01 -1.021605110168457031e+01 1.113594818115234020e+01 1.000000000000000000e+01
2.341865301132202148e+00 -5.969339609146118164e-01 -6.475652456283569336e-01 1.800000000000000000e+01
2.728436946868896040e+00 -6.964842677116394043e-01 -6.501085758209228516e-01 1.500000000000000000e+01
3.199450254440308061e+00 -8.173139691352844238e-01 -6.418814659118652344e-01 1.100000000000000000e+01
3.877246379852294922e+00 -9.919019341468811035e-01 -6.338724493980407715e-01 1.100000000000000000e+01
5.003607273101806641e+00 -1.281915783882140891e+00 -6.342080831527709961e-01 1.000000000000000000e+01
6.698917865753173828e+00 -1.717497467994689941e+00 -6.050351858139038086e-01 5.000000000000000000e+00
1.069204521179199041e+01 -2.745250463485718218e+00 -5.785216689109802246e-01 3.000000000000000000e+00
3.581025314331054688e+01 -9.201172828674316406e+00 8.535992622375488281e+00 1.100000000000000000e+01
1.646192932128905895e+01 -4.232830524444580078e+00 -2.966909110546112061e-01 2.000000000000000000e+00
3.651075363159179688e+01 -9.394747734069824219e+00 1.010170745849609020e+01 8.000000000000000000e+00
2.347460269927978960e+00 -6.062203645706176758e-01 -6.496357917785644531e-01 1.700000000000000000e+01
4.226866912841796875e+01 -1.092355060577392933e+01 7.620418667793273926e-01 4.500000000000000000e+01
2.722462177276610884e+00 -7.040765881538391113e-01 -6.492087244987487793e-01 1.500000000000000000e+01
3.196866750717163086e+00 -8.273612856864929199e-01 -6.418814659118652344e-01 1.100000000000000000e+01
3.872199058532714844e+00 -1.003582119941710982e+00 -6.335595846176147461e-01 1.100000000000000000e+01
3.603032684326171875e+01 -9.344917297363281250e+00 4.570343971252441406e+00 1.900000000000000000e+01
5.009162902832031250e+00 -1.300122261047363059e+00 -6.354267597198486328e-01 9.000000000000000000e+00
3.645082473754882812e+01 -9.460768699645996094e+00 5.964533329010009766e+00 1.300000000000000000e+01
6.678061962127686435e+00 -1.734527230262755904e+00 -6.036406755447387695e-01 5.000000000000000000e+00
1.068336772918700994e+01 -2.778826951980590820e+00 -5.785216689109802246e-01 3.000000000000000000e+00
3.570196151733397727e+01 -9.293010711669921875e+00 8.517096519470214844e+00 1.100000000000000000e+01
3.627542495727539062e+01 -9.455801963806152344e+00 1.004476737976074041e+01 8.000000000000000000e+00
2.360280275344849077e+00 -6.183274388313293457e-01 -6.537768840789794922e-01 1.900000000000000000e+01
2.719987869262694868e+00 -7.135754823684692383e-01 -6.492087244987487793e-01 1.500000000000000000e+01
3.201555013656616211e+00 -8.405094742774963379e-01 -6.434079408645629883e-01 1.200000000000000000e+01
3.876314163208007812e+00 -1.019101619720458984e+00 -6.348110437393188477e-01 1.000000000000000000e+01
3.593605422973632812e+01 -9.454467773437500000e+00 4.562544345855712891e+00 1.900000000000000000e+01
4.996915340423583984e+00 -1.315577983856200950e+00 -6.344518065452575684e-01 9.000000000000000000e+00
6.700866222381591797e+00 -1.765441417694092019e+00 -6.062553524971008301e-01 6.000000000000000000e+00
1.067360305786132990e+01 -2.816102027893065962e+00 -5.785216689109802246e-01 3.000000000000000000e+00
4.235812377929688211e+01 -1.118359088897705078e+01 1.011424922943115057e+01 1.300000000000000000e+01
3.624219894409179688e+01 -9.582368850708007812e+00 1.004476737976074041e+01 8.000000000000000000e+00
2.359974622726439986e+00 -6.270586848258972168e-01 -6.542945504188537598e-01 1.900000000000000000e+01
4.238463211059570312e+01 -1.126975727081299006e+01 7.655323743820190430e-01 4.500000000000000000e+01
2.715597152709960938e+00 -7.225645780563354492e-01 -6.487588286399841309e-01 1.400000000000000000e+01
3.200498580932617188e+00 -8.521850109100341797e-01 -6.437895298004150391e-01 1.200000000000000000e+01
3.868915796279906782e+00 -1.031608343124390093e+00 -6.341853141784667969e-01 1.100000000000000000e+01
3.602558517456054688e+01 -9.612603187561035156e+00 4.578143596649169922e+00 1.900000000000000000e+01
4.998046398162841797e+00 -1.334548830986022949e+00 -6.351830363273620605e-01 1.000000000000000000e+01
3.576171112060546875e+01 -9.548881530761718750e+00 5.862537860870361328e+00 1.300000000000000000e+01
6.704287052154541016e+00 -1.791392683982848899e+00 -6.071268916130065918e-01 5.000000000000000000e+00
1.068686008453368963e+01 -2.859537839889525923e+00 -5.797777175903320312e-01 3.000000000000000000e+00
3.613558197021483664e+01 -9.682499885559082031e+00 1.002406120300292969e+01 8.000000000000000000e+00
2.357771396636962891e+00 -6.352927088737487793e-01 -6.542945504188537598e-01 1.900000000000000000e+01
4.224849700927733664e+01 -1.139160919189452947e+01 7.637870907783508301e-01 4.500000000000000000e+01
2.707414150238037109e+00 -7.305163741111755371e-01 -6.474091410636901855e-01 1.300000000000000000e+01
3.182341337203979048e+00 -8.592575192451477051e-01 -6.407365798950195312e-01 1.200000000000000000e+01
3.880546331405640093e+00 -1.049231886863708052e+00 -6.366882920265197754e-01 1.100000000000000000e+01
5.001021862030029297e+00 -1.354062318801880105e+00 -6.361579895019531250e-01 1.000000000000000000e+01
6.703762054443359375e+00 -1.816347241401671919e+00 -6.076498627662658691e-01 6.000000000000000000e+00
1.070379924774169922e+01 -2.904146194458007812e+00 -5.812431573867797852e-01 3.000000000000000000e+00
3.600664138793945312e+01 -9.789536476135253906e+00 9.998179435729980469e+00 8.000000000000000000e+00
2.346109628677368164e+00 -6.413828730583190918e-01 -6.517063379287719727e-01 2.000000000000000000e+01
2.715996026992797852e+00 -7.435219287872314453e-01 -6.501085758209228516e-01 1.500000000000000000e+01
3.192425251007080078e+00 -8.745465874671936035e-01 -6.434079408645629883e-01 1.200000000000000000e+01
3.878579616546630859e+00 -1.063970327377318892e+00 -6.370011568069458008e-01 1.200000000000000000e+01
3.640764617919921875e+01 -9.994162559509277344e+00 4.635665893554688388e+00 1.900000000000000000e+01
4.996025085449218750e+00 -1.372382879257201926e+00 -6.361579895019531250e-01 1.000000000000000000e+01
6.704744338989257812e+00 -1.843017935752869096e+00 -6.083470582962036133e-01 5.000000000000000000e+00
3.623099517822266336e+01 -9.966073036193847656e+00 7.304168224334716797e+00 6.200000000000000000e+01
1.073929882049561080e+01 -2.956079244613647017e+00 -5.837552547454833984e-01 3.000000000000000000e+00
2.614873886108398082e+01 -7.207473278045654297e+00 -4.734488725662230890e-01 4.000000000000000000e+00
3.553644943237304688e+01 -9.795042037963867188e+00 9.877052307128906250e+00 7.000000000000000000e+00
2.349441528320312944e+00 -6.511162519454956055e-01 -6.532592773437500000e-01 1.900000000000000000e+01
2.711506366729735884e+00 -7.524769306182861328e-01 -6.496586203575134277e-01 1.600000000000000000e+01
3.198811292648314986e+00 -8.883115053176879883e-01 -6.453160047531127930e-01 1.200000000000000000e+01
3.591085433959960938e+01 -9.979213714599609375e+00 3.260844945907593218e+00 4.700000000000000000e+01
3.863423109054564986e+00 -1.074327230453490989e+00 -6.351239085197448730e-01 1.200000000000000000e+01
5.012239933013916016e+00 -1.395671367645263894e+00 -6.388391256332397461e-01 9.000000000000000000e+00
6.696351051330566406e+00 -1.865875840187072976e+00 -6.081727743148803711e-01 7.000000000000000000e+00
1.072891521453857067e+01 -2.993548393249512163e+00 -5.837552547454833984e-01 3.000000000000000000e+00
3.555054473876953125e+01 -9.939268112182617188e+00 9.891028404235839844e+00 1.500000000000000000e+01
2.352964639663695845e+00 -6.600593924522399902e-01 -6.548121571540832520e-01 1.900000000000000000e+01
2.707252740859984907e+00 -7.604646086692810059e-01 -6.492087244987487793e-01 1.500000000000000000e+01
3.205454826354980025e+00 -9.010127186775207520e-01 -6.472241282463073730e-01 1.100000000000000000e+01
3.867635011672974077e+00 -1.088600039482116921e+00 -6.363754272460937500e-01 1.100000000000000000e+01
3.668449783325195312e+01 -1.033227634429931996e+01 4.679539203643798828e+00 2.000000000000000000e+01
5.004009246826171875e+00 -1.410333871841431108e+00 -6.383516192436218262e-01 9.000000000000000000e+00
6.709631919860839844e+00 -1.892311930656433105e+00 -6.099159121513366699e-01 6.000000000000000000e+00
1.071945762634276988e+01 -3.027239561080933061e+00 -5.837552547454833984e-01 3.000000000000000000e+00
3.808167648315429688e+01 -1.076167201995849965e+01 9.136161804199218750e+00 1.200000000000000000e+01
3.549673080444335938e+01 -1.003787136077881037e+01 9.884299278259277344e+00 7.000000000000000000e+00
2.358079195022583008e+00 -6.703818440437316895e-01 -6.568827629089355469e-01 1.800000000000000000e+01
2.706455945968627930e+00 -7.704436182975769043e-01 -6.496586203575134277e-01 1.400000000000000000e+01
3.190961360931396040e+00 -9.089692831039428711e-01 -6.449344158172607422e-01 1.200000000000000000e+01
3.879008293151855025e+00 -1.106428623199462891e+00 -6.388783454895019531e-01 1.100000000000000000e+01
3.691544723510742188e+01 -1.053654289245604936e+01 4.713662624359130859e+00 2.000000000000000000e+01
4.999055862426757812e+00 -1.427792429924011008e+00 -6.383516192436218262e-01 1.000000000000000000e+01
6.731720924377441406e+00 -1.923933982849121094e+00 -6.125305891036987305e-01 3.000000000000000000e+00
3.518446350097656250e+01 -1.006240463256835938e+01 7.113359451293945312e+00 6.100000000000000000e+01
1.076642990112305043e+01 -3.081124305725098100e+00 -5.868954062461853027e-01 3.000000000000000000e+00
3.855720138549804688e+01 -1.105609989166259943e+01 1.074771976470947088e+01 9.000000000000000000e+00
2.357343912124633789e+00 -6.799666285514831543e-01 -6.574003696441650391e-01 1.900000000000000000e+01
2.707222223281859907e+00 -7.819114327430725098e-01 -6.505584716796875000e-01 1.400000000000000000e+01
3.183675527572631836e+00 -9.201247692108154297e-01 -6.441711783409118652e-01 1.300000000000000000e+01
3.878526449203491211e+00 -1.122413039207458052e+00 -6.395040750503540039e-01 1.100000000000000000e+01
3.638658905029296875e+01 -1.053685665130615057e+01 4.651265144348145419e+00 1.900000000000000000e+01
5.001163482666015625e+00 -1.449186921119689941e+00 -6.393265724182128906e-01 9.000000000000000000e+00
6.693666934967041016e+00 -1.940889954566956010e+00 -6.097415685653686523e-01 3.000000000000000000e+00
3.552266693115233664e+01 -1.030684375762938920e+01 7.189682960510253906e+00 6.100000000000000000e+01
1.079288101196289062e+01 -3.133579254150391069e+00 -5.889888405799865723e-01 3.000000000000000000e+00
3.814398956298828125e+01 -1.108185291290283025e+01 9.170354843139648438e+00 1.200000000000000000e+01
3.854239273071289062e+01 -1.120489501953125000e+01 1.075496673583984020e+01 9.000000000000000000e+00
2.338267326354980025e+00 -6.833142042160034180e-01 -6.527416110038757324e-01 1.800000000000000000e+01
2.711957693099976030e+00 -7.935457229614257812e-01 -6.523580551147460938e-01 1.400000000000000000e+01
3.182328462600708008e+00 -9.317839145660400391e-01 -6.445527672767639160e-01 1.200000000000000000e+01
3.868898153305054155e+00 -1.134277582168579102e+00 -6.385654807090759277e-01 1.100000000000000000e+01
3.627339553833007812e+01 -1.064145278930664062e+01 4.641515731811523438e+00 1.900000000000000000e+01
4.996074199676513672e+00 -1.466635346412658913e+00 -6.393265724182128906e-01 9.000000000000000000e+00
6.686851024627686435e+00 -1.964243412017822044e+00 -6.097415685653686523e-01 2.000000000000000000e+00
3.529811477661132812e+01 -1.037541294097900035e+01 7.151521205902099609e+00 6.100000000000000000e+01
1.078187751770020064e+01 -3.171234369277954102e+00 -5.889888405799865723e-01 3.000000000000000000e+00
3.717408370971679688e+01 -1.094092845916748047e+01 8.946303367614746094e+00 1.200000000000000000e+01
2.710085487365723012e+01 -7.981355190277099609e+00 -4.931351840496063232e-01 4.000000000000000000e+00
3.840470504760742188e+01 -1.131768798828125000e+01 1.072804927825927912e+01 9.000000000000000000e+00
2.347224473953247070e+00 -6.939429640769958496e-01 -6.558474898338317871e-01 1.900000000000000000e+01
2.709451198577880859e+00 -8.020616769790649414e-01 -6.523580551147460938e-01 1.300000000000000000e+01
3.181267976760863814e+00 -9.423344731330871582e-01 -6.449344158172607422e-01 1.200000000000000000e+01
3.859634160995482954e+00 -1.144741296768188032e+00 -6.376268863677978516e-01 1.100000000000000000e+01
3.625120162963867188e+01 -1.075874519348145064e+01 4.642978191375732422e+00 1.900000000000000000e+01
5.006665706634520596e+00 -1.486844778060913086e+00 -6.412764787673950195e-01 9.000000000000000000e+00
3.647904205322266336e+01 -1.083329200744629084e+01 6.027107238769531250e+00 1.300000000000000000e+01
6.715024471282958984e+00 -1.995456695556641069e+00 -6.128791570663452148e-01 3.000000000000000000e+00
1.082163333892822088e+01 -3.219900369644165039e+00 -5.917103290557861328e-01 3.000000000000000000e+00
3.883381271362304688e+01 -1.156948280334473012e+01 1.085745906829833984e+01 9.000000000000000000e+00
2.341086626052856001e+00 -7.010237574577331543e-01 -6.548121571540832520e-01 2.000000000000000000e+01
4.804017257690429688e+01 -1.439446544647216975e+01 8.753777742385864258e-01 6.300000000000000000e+01
2.699168443679810014e+00 -8.092758655548095703e-01 -6.505584716796875000e-01 1.400000000000000000e+01
3.191122293472290039e+00 -9.573825597763061523e-01 -6.476057171821594238e-01 1.200000000000000000e+01
3.863182067871094194e+00 -1.160480260848999023e+00 -6.388783454895019531e-01 1.100000000000000000e+01
4.993841171264648438e+00 -1.502025127410888894e+00 -6.403015255928039551e-01 9.000000000000000000e+00
6.698479175567626953e+00 -2.016013383865356001e+00 -6.120076179504394531e-01 3.000000000000000000e+00
1.076060771942139027e+01 -3.242672204971313032e+00 -5.889888405799865723e-01 3.000000000000000000e+00
2.344171524047852007e+00 -7.108732461929321289e-01 -6.563650965690612793e-01 1.900000000000000000e+01
2.696327209472655806e+00 -8.186928033828735352e-01 -6.505584716796875000e-01 1.400000000000000000e+01
3.187761068344116211e+00 -9.685158133506774902e-01 -6.476057171821594238e-01 1.300000000000000000e+01
3.866667270660399947e+00 -1.176257848739624023e+00 -6.401298046112060547e-01 1.100000000000000000e+01
4.980971813201904297e+00 -1.517134189605712891e+00 -6.393265724182128906e-01 9.000000000000000000e+00
6.708553314208984375e+00 -2.044610738754272017e+00 -6.135764122009277344e-01 5.000000000000000000e+00
1.078742885589599965e+01 -3.291872978210449219e+00 -5.910822749137878418e-01 3.000000000000000000e+00
3.901467895507813211e+01 -1.191309452056884943e+01 9.417800903320312500e+00 1.200000000000000000e+01
3.933961486816406250e+01 -1.201982021331786932e+01 1.102206802368164062e+01 1.000000000000000000e+01
2.349062919616699219e+00 -7.213199138641357422e-01 -6.584356427192687988e-01 1.900000000000000000e+01
2.708354473114014116e+00 -8.326812386512756348e-01 -6.541576385498046875e-01 1.400000000000000000e+01
3.176854848861693892e+00 -9.773281812667846680e-01 -6.460792422294616699e-01 1.200000000000000000e+01
3.868201255798339844e+00 -1.191492319107056108e+00 -6.410684585571289062e-01 1.000000000000000000e+01
4.992718219757080078e+00 -1.539776921272278054e+00 -6.415202021598815918e-01 1.100000000000000000e+01
3.587658691406250000e+01 -1.106450176239014027e+01 5.946386814117431641e+00 1.300000000000000000e+01
6.684241294860839844e+00 -2.062728166580200195e+00 -6.120076179504394531e-01 3.000000000000000000e+00
1.080640506744384943e+01 -3.338941574096680132e+00 -5.927570462226867676e-01 3.000000000000000000e+00
