4.388022422790527344e+00 -3.514211654663085938e+00 -6.902679800987243652e-01 1.200000000000000000e+01
6.767817139625549316e-01 -5.422043800354003906e-01 1.373494565486907959e-01 9.000000000000000000e+01
5.782752037048339844e+00 -4.632858276367188388e+00 -6.482644081115722656e-01 5.000000000000000000e+00
6.909180879592895508e-01 -5.537277460098266602e-01 1.721097081899642944e-01 6.300000000000000000e+01
7.069013118743896484e-01 -5.669426918029785156e-01 2.092044800519942960e-01 6.700000000000000000e+01
6.855126023292541504e-01 -5.501820445060729980e-01 2.355253249406815130e-01 1.000000000000000000e+02
1.983499407768249956e+00 -1.596485137939452903e+00 -6.822469830513000488e-01 1.400000000000000000e+01
2.303809404373168945e+00 -1.855622768402100053e+00 -6.829513907432556152e-01 1.100000000000000000e+01
6.967423558235168457e-01 -5.613974928855895996e-01 4.689301550388336182e-02 2.100000000000000000e+01
2.728817939758300781e+00 -2.198734998703002930e+00 -6.811881065368652344e-01 1.200000000000000000e+01
7.120091915130615234e-01 -5.739037394523620605e-01 8.000896871089935303e-02 3.900000000000000000e+01
3.355384111404418945e+00 -2.705520391464232954e+00 -6.826800107955932617e-01 1.100000000000000000e+01
4.393651485443115234e+00 -3.545229911804199219e+00 -6.931928396224975586e-01 1.200000000000000000e+01
6.794969439506530762e-01 -5.482848882675170898e-01 1.382880657911300937e-01 1.000000000000000000e+02
5.827746868133544922e+00 -4.704078674316406250e+00 -6.552368998527526855e-01 9.000000000000000000e+00
6.766642332077026367e-01 -5.463893413543701172e-01 1.690567731857300082e-01 5.700000000000000000e+01
7.078500986099243164e-01 -5.719794034957885742e-01 2.101042866706847867e-01 6.700000000000000000e+01
6.835879683494567871e-01 -5.525715947151184082e-01 2.355253249406815130e-01 1.000000000000000000e+02
1.977914571762084961e+00 -1.603399157524109109e+00 -6.822469830513000488e-01 1.500000000000000000e+01
2.298831462860106978e+00 -1.864880919456481934e+00 -6.834012866020202637e-01 1.200000000000000000e+01
6.870242357254028320e-01 -5.575335025787353516e-01 4.636965692043303749e-02 2.600000000000000000e+01
2.727224111557006836e+00 -2.213195323944091797e+00 -6.827145814895629883e-01 1.100000000000000000e+01
7.146421074867248535e-01 -5.801528096199035645e-01 8.053190261125564575e-02 4.600000000000000000e+01
3.342852830886840820e+00 -2.714725971221923828e+00 -6.820542812347412109e-01 1.000000000000000000e+01
6.917932629585266113e-01 -5.620046854019165039e-01 1.094386726617812972e-01 4.000000000000000000e+00
4.375087261199951172e+00 -3.555537223815917969e+00 -6.922178864479064941e-01 1.200000000000000000e+01
6.820811033248901367e-01 -5.545099973678588867e-01 1.392266750335693082e-01 8.700000000000000000e+01
5.788101673126220703e+00 -4.705540180206298828e+00 -6.526222229003906250e-01 6.000000000000000000e+00
6.671371459960937500e-01 -5.425544381141662598e-01 1.671486794948577881e-01 5.400000000000000000e+01
7.118949890136718750e-01 -5.793671011924743652e-01 2.119038999080657959e-01 3.600000000000000000e+01
6.875497698783874512e-01 -5.599530935287475586e-01 2.375958859920501987e-01 8.900000000000000000e+01
1.981566548347472922e+00 -1.617278337478637917e+00 -6.853528022766113281e-01 1.500000000000000000e+01
2.294143915176392046e+00 -1.873726606369018999e+00 -6.838511824607849121e-01 1.300000000000000000e+01
6.820782423019409180e-01 -5.572813153266906738e-01 4.616031423211097717e-02 3.400000000000000000e+01
2.721390247344971147e+00 -2.223469018936156782e+00 -6.830962300300598145e-01 1.100000000000000000e+01
7.096289396286010742e-01 -5.799977183341979980e-01 8.018328249454498291e-02 4.200000000000000000e+01
3.339949369430541992e+00 -2.730797767639160156e+00 -6.833057403564453125e-01 1.100000000000000000e+01
6.776331067085266113e-01 -5.542414188385009766e-01 1.074887588620185991e-01 4.500000000000000000e+01
4.354054450988770419e+00 -3.562483549118041992e+00 -6.907554268836975098e-01 1.200000000000000000e+01
6.788068413734436035e-01 -5.553991794586181641e-01 1.389138102531433105e-01 8.000000000000000000e+01
5.844929695129395419e+00 -4.784019470214843750e+00 -6.608148217201232910e-01 7.000000000000000000e+00
6.698914170265197754e-01 -5.484950542449951172e-01 1.682935357093811035e-01 3.200000000000000000e+01
6.918814182281494141e-01 -5.669036507606506348e-01 2.065050750970839899e-01 8.000000000000000000e+00
6.977399587631225586e-01 -5.719074606895446777e-01 2.417369931936264038e-01 4.200000000000000000e+01
1.974416732788085938e+00 -1.622958779335021973e+00 -6.848351955413818359e-01 1.400000000000000000e+01
2.292104482650756836e+00 -1.885437130928039995e+00 -6.852009296417236328e-01 1.300000000000000000e+01
6.847555637359619141e-01 -5.634660124778747559e-01 4.647433012723922729e-02 3.600000000000000000e+01
2.710580348968505859e+00 -2.230459928512572798e+00 -6.823329925537109375e-01 1.100000000000000000e+01
7.106766104698181152e-01 -5.850037336349487305e-01 8.053190261125564575e-02 3.400000000000000000e+01
3.347170591354370117e+00 -2.756252288818358931e+00 -6.867473125457763672e-01 1.100000000000000000e+01
6.879518032073974609e-01 -5.667005181312561035e-01 1.094386726617812972e-01 6.500000000000000000e+01
4.359976291656494141e+00 -3.592809200286864790e+00 -6.936802864074707031e-01 1.200000000000000000e+01
6.721938848495483398e-01 -5.541138648986816406e-01 1.379752010107040128e-01 8.200000000000000000e+01
5.825119972229003906e+00 -4.801858425140380859e+00 -6.604661941528320312e-01 7.000000000000000000e+00
6.997809410095214844e-01 -5.770600438117980957e-01 1.763075143098830899e-01 4.000000000000000000e+00
6.956391334533691406e-01 -5.744609832763671875e-01 2.417369931936264038e-01 7.000000000000000000e+00
1.961299180984497070e+00 -1.623681187629699929e+00 -6.822469830513000488e-01 1.400000000000000000e+01
2.284008264541625977e+00 -1.892183423042296919e+00 -6.847510337829589844e-01 1.300000000000000000e+01
6.827844977378845215e-01 -5.658528208732604980e-01 4.647433012723922729e-02 4.300000000000000000e+01
2.705801248550415039e+00 -2.242413520812987837e+00 -6.830962300300598145e-01 1.100000000000000000e+01
6.764197349548339844e-01 -5.607772469520568848e-01 7.687136530876159668e-02 7.700000000000000000e+01
3.323844432830810991e+00 -2.756570339202880859e+00 -6.839314699172973633e-01 1.100000000000000000e+01
6.859694719314575195e-01 -5.690984725952148438e-01 1.094386726617812972e-01 9.100000000000000000e+01
4.362683773040770596e+00 -3.620683908462523970e+00 -6.961176991462707520e-01 1.200000000000000000e+01
6.642724275588989258e-01 -5.512937307357788086e-01 1.367237269878386896e-01 6.600000000000000000e+01
5.811388969421386719e+00 -4.824707984924316406e+00 -6.608148217201232910e-01 7.000000000000000000e+00
1.963038325309752974e+00 -1.636703133583069070e+00 -6.848351955413818359e-01 1.400000000000000000e+01
2.281878471374512163e+00 -1.903889894485474077e+00 -6.861007213592529297e-01 1.200000000000000000e+01
6.884719133377075195e-01 -5.746317505836486816e-01 4.699768871068953774e-02 5.900000000000000000e+01
2.699464559555054155e+00 -2.253103017807006836e+00 -6.834778189659118652e-01 1.000000000000000000e+01
6.652818322181701660e-01 -5.554732680320739746e-01 7.582549750804901123e-02 1.000000000000000000e+02
3.315718173980712891e+00 -2.769422054290771040e+00 -6.842443346977233887e-01 1.100000000000000000e+01
6.809321045875549316e-01 -5.689438581466674805e-01 1.089511960744858066e-01 1.000000000000000000e+02
4.340880393981933594e+00 -3.628252029418944868e+00 -6.946552395820617676e-01 1.200000000000000000e+01
6.698245406150817871e-01 -5.600602626800537109e-01 1.382880657911300937e-01 4.800000000000000000e+01
5.528554439544677734e+00 -4.622589111328125000e+00 -6.304846405982971191e-01 3.000000000000000000e+00
1.961751580238342063e+00 -1.647272348403931108e+00 -6.863881349563598633e-01 1.400000000000000000e+01
2.266267061233520952e+00 -1.904321551322937012e+00 -6.834012866020202637e-01 1.300000000000000000e+01
6.772886514663696289e-01 -5.693206191062927246e-01 4.636965692043303749e-02 6.700000000000000000e+01
2.691583395004272017e+00 -2.262512207031250000e+00 -6.834778189659118652e-01 1.000000000000000000e+01
6.709634065628051758e-01 -5.642035603523254395e-01 7.669705152511596680e-02 1.000000000000000000e+02
3.310565948486328125e+00 -2.784794092178345171e+00 -6.851829290390014648e-01 1.000000000000000000e+01
6.546397805213928223e-01 -5.508674383163452148e-01 1.050513759255408963e-01 1.000000000000000000e+02
4.328188896179199219e+00 -3.643382549285889116e+00 -6.946552395820617676e-01 8.000000000000000000e+00
6.724973320960998535e-01 -5.660947561264038086e-01 1.392266750335693082e-01 4.100000000000000000e+01
5.843097686767578125e+00 -4.920345306396484375e+00 -6.683102250099182129e-01 1.000000000000000000e+00
1.966315269470215066e+00 -1.662842154502869096e+00 -6.900115609169006348e-01 1.600000000000000000e+01
2.267043590545653853e+00 -1.918514966964721902e+00 -6.856508255004882812e-01 1.300000000000000000e+01
6.737728714942932129e-01 -5.703908205032348633e-01 4.626498371362686157e-02 6.700000000000000000e+01
2.682170867919921875e+00 -2.270625352859497070e+00 -6.830962300300598145e-01 9.000000000000000000e+00
6.720307469367980957e-01 -5.691174268722534180e-01 7.704567909240722656e-02 9.300000000000000000e+01
3.309868335723876953e+00 -2.803994417190552202e+00 -6.870601773262023926e-01 1.000000000000000000e+01
6.602849960327148438e-01 -5.595662593841552734e-01 1.062700673937797963e-01 8.900000000000000000e+01
4.350271224975585938e+00 -3.687993049621582031e+00 -7.002612352371215820e-01 1.000000000000000000e+00
6.675036549568176270e-01 -5.658839941024780273e-01 1.386009305715560913e-01 3.300000000000000000e+01
1.953435540199280007e+00 -1.663091897964477983e+00 -6.874234080314636230e-01 1.600000000000000000e+01
2.263635873794556108e+00 -1.928549885749816895e+00 -6.865506172180175781e-01 1.300000000000000000e+01
6.733977794647216797e-01 -5.739175081253051758e-01 4.636965692043303749e-02 7.100000000000000000e+01
2.668649673461914062e+00 -2.274413347244263139e+00 -6.815697550773620605e-01 1.100000000000000000e+01
6.655913591384887695e-01 -5.674649477005004883e-01 7.652274519205093384e-02 8.800000000000000000e+01
3.302054643630981001e+00 -2.816236734390258789e+00 -6.873730421066284180e-01 1.100000000000000000e+01
6.689968109130859375e-01 -5.707717537879943848e-01 1.079762354493141036e-01 5.300000000000000000e+01
6.580126881599426270e-01 -5.617973208427429199e-01 1.370365917682647983e-01 5.000000000000000000e+00
1.944685220718384011e+00 -1.667385697364806907e+00 -6.863881349563598633e-01 1.400000000000000000e+01
2.259848117828369141e+00 -1.938977599143981934e+00 -6.874504089355468750e-01 1.300000000000000000e+01
6.880614161491394043e-01 -5.905736684799194336e-01 4.752104729413986206e-02 8.700000000000000000e+01
2.668143033981322798e+00 -2.290108203887939009e+00 -6.834778189659118652e-01 1.100000000000000000e+01
6.666297316551208496e-01 -5.723806619644165039e-01 7.687136530876159668e-02 7.700000000000000000e+01
3.287708520889281782e+00 -2.823884487152100053e+00 -6.864344477653503418e-01 1.000000000000000000e+01
6.775398850440979004e-01 -5.821592807769775391e-01 1.096824109554291049e-01 3.000000000000000000e+01
7.219519615173339844e-01 -6.207574605941772461e-01 1.508028209209442139e-01 2.000000000000000000e+00
1.938853025436400923e+00 -1.674163699150085005e+00 -6.863881349563598633e-01 1.500000000000000000e+01
2.244219064712523970e+00 -1.939209342002869096e+00 -6.847510337829589844e-01 1.000000000000000000e+01
6.844847202301025391e-01 -5.916657447814941406e-01 4.741637781262397766e-02 1.000000000000000000e+02
2.670529603958129883e+00 -2.308394908905028853e+00 -6.861491203308105469e-01 9.000000000000000000e+00
6.661347746849060059e-01 -5.760073065757751465e-01 7.704567909240722656e-02 8.100000000000000000e+01
3.271855354309082031e+00 -2.830174207687377930e+00 -6.851829290390014648e-01 5.000000000000000000e+00
6.830092668533325195e-01 -5.910155177116394043e-01 1.109011024236678938e-01 2.400000000000000000e+01
7.197807431221008301e-01 -6.232737898826599121e-01 1.508028209209442139e-01 2.000000000000000000e+00
1.940286159515381081e+00 -1.687259674072266069e+00 -6.889762878417968750e-01 1.600000000000000000e+01
2.228615760803223100e+00 -1.939355850219727007e+00 -6.820515990257263184e-01 5.000000000000000000e+00
6.778959631919860840e-01 -5.901173353195190430e-01 4.710236191749572754e-02 1.000000000000000000e+02
2.653570890426636186e+00 -2.309968471527100053e+00 -6.838594675064086914e-01 5.000000000000000000e+00
6.641200780868530273e-01 -5.783290266990661621e-01 7.704567909240722656e-02 7.300000000000000000e+01
3.317066907882689986e+00 -2.889586448669434038e+00 -6.967591047286987305e-01 1.000000000000000000e+00
6.719626188278198242e-01 -5.855710506439208984e-01 1.094386726617812972e-01 8.000000000000000000e+00
1.938744664192199929e+00 -1.697840452194214089e+00 -6.905292272567749023e-01 1.000000000000000000e+01
6.714290976524353027e-01 -5.884130001068115234e-01 4.678834602236747742e-02 1.000000000000000000e+02
6.725829839706420898e-01 -5.898394584655761719e-01 7.826586067676544189e-02 3.100000000000000000e+01
6.878186464309692383e-01 -6.036256551742553711e-01 1.123635321855545044e-01 3.000000000000000000e+00
1.924113035202025923e+00 -1.696930766105652078e+00 -6.874234080314636230e-01 5.000000000000000000e+00
6.707651615142822266e-01 -5.921918153762817383e-01 4.689301550388336182e-02 1.000000000000000000e+02
6.660398840904235840e-01 -5.882269144058227539e-01 7.774291932582855225e-02 7.000000000000000000e+00
6.805105805397033691e-01 -6.022766828536987305e-01 -4.762572050094603798e-02 1.800000000000000000e+01
6.526873111724853516e-01 -5.780584812164306641e-01 -1.521849818527699037e-02 4.000000000000000000e+00
6.673048734664916992e-01 -5.930860638618469238e-01 4.678834602236747742e-02 2.800000000000000000e+01
6.427405476570129395e-01 -5.724596977233886719e-01 -7.530256360769271851e-02 1.500000000000000000e+01
6.813860535621643066e-01 -6.073061823844909668e-01 -4.783506318926811218e-02 6.800000000000000000e+01
6.700661182403564453e-01 -5.976368188858032227e-01 -1.567226089537144054e-02 2.800000000000000000e+01
6.676362752914428711e-01 -5.973552465438842773e-01 1.563735678792000164e-02 1.700000000000000000e+01
6.816008687019348145e-01 -6.100639700889587402e-01 4.793973639607430198e-02 6.000000000000000000e+00
6.665734052658081055e-01 -5.976622104644775391e-01 -1.099261492490768016e-01 4.000000000000000000e+00
6.629862189292907715e-01 -5.946546792984008789e-01 -7.791723310947418213e-02 3.900000000000000000e+01
6.554804444313049316e-01 -5.883354544639587402e-01 -4.616031423211097717e-02 1.000000000000000000e+02
6.709513068199157715e-01 -6.026446223258972168e-01 -1.574207097291946064e-02 9.600000000000000000e+01
6.552509069442749023e-01 -5.901976823806762695e-01 1.539302244782447988e-02 5.200000000000000000e+01
6.529311537742614746e-01 -5.883146524429321289e-01 -2.029058486223221103e-01 4.000000000000000000e+00
6.839178204536437988e-01 -6.164510846138000488e-01 4.825375229120255210e-02 2.000000000000000000e+01
6.503992676734924316e-01 -5.862390398979187012e-01 -1.702016294002532959e-01 4.000000000000000000e+00
6.806632876396179199e-01 -6.137329339981079102e-01 8.018328249454498291e-02 6.000000000000000000e+00
7.177500128746032715e-01 -6.476272940635681152e-01 1.187007427215576033e-01 1.000000000000000000e+00
6.616406440734863281e-01 -5.972092151641845703e-01 -1.094386726617812972e-01 5.500000000000000000e+01
7.361202239990234375e-01 -6.644359230995178223e-01 1.570602059364319125e-01 1.000000000000000000e+00
6.565743088722229004e-01 -5.928442478179931641e-01 -7.739429920911788940e-02 4.700000000000000000e+01
6.401885747909545898e-01 -5.784547328948974609e-01 -4.521826654672622681e-02 1.000000000000000000e+02
6.719157099723815918e-01 -6.075485944747924805e-01 -1.581188105046749115e-02 1.000000000000000000e+02
5.996412038803100586e-01 -5.437214374542236328e-01 -2.168903648853302002e-01 5.000000000000000000e+00
6.502244472503662109e-01 -5.897943377494812012e-01 1.532321330159902920e-02 1.000000000000000000e+02
6.306690573692321777e-01 -5.722570419311523438e-01 -1.966072171926498136e-01 3.300000000000000000e+01
6.670787334442138672e-01 -6.052945256233215332e-01 4.720703139901161194e-02 7.400000000000000000e+01
6.250897645950317383e-01 -5.673934817314147949e-01 -1.640957295894623080e-01 1.700000000000000000e+01
6.711416244506835938e-01 -6.094083786010742188e-01 7.931172847747802734e-02 3.500000000000000000e+01
6.740786433219909668e-01 -6.122899055480957031e-01 -1.442325711250304898e-01 3.000000000000000000e+00
6.919782757759094238e-01 -6.287692785263061523e-01 1.148009225726128041e-01 1.800000000000000000e+01
6.580830216407775879e-01 -5.981799364089965820e-01 -1.091949343681335033e-01 1.000000000000000000e+02
7.219879031181335449e-01 -6.564978957176208496e-01 1.545572578907012939e-01 1.100000000000000000e+01
6.530268192291259766e-01 -5.937921404838562012e-01 -7.721998542547225952e-02 5.500000000000000000e+01
7.159910798072814941e-01 -6.512733697891235352e-01 1.881376653909682950e-01 4.000000000000000000e+00
6.411199569702148438e-01 -5.833742618560791016e-01 -4.542760923504828713e-02 1.000000000000000000e+02
6.505694985389709473e-01 -5.923879146575927734e-01 -1.535811740905045943e-02 1.000000000000000000e+02
5.991662144660949707e-01 -5.471138954162597656e-01 -2.174080014228821078e-01 1.500000000000000000e+01
6.437323689460754395e-01 -5.880144834518432617e-01 1.521849818527699037e-02 1.000000000000000000e+02
6.185974478721618652e-01 -5.652531981468200684e-01 -1.934579014778136929e-01 5.400000000000000000e+01
6.708594560623168945e-01 -6.130084395408630371e-01 4.762572050094603798e-02 9.600000000000000000e+01
6.071655154228210449e-01 -5.550015568733215332e-01 -1.598979383707047064e-01 4.400000000000000000e+01
6.587178111076354980e-01 -6.023358702659606934e-01 7.809154689311981201e-02 8.700000000000000000e+01
6.544464826583862305e-01 -5.986399054527282715e-01 -1.404781490564346036e-01 2.300000000000000000e+01
6.883147358894348145e-01 -6.298407912254333496e-01 1.145571842789649963e-01 4.200000000000000000e+01
6.486696600914001465e-01 -5.937716960906982422e-01 -1.079762354493141036e-01 9.200000000000000000e+01
6.906649470329284668e-01 -6.322128772735595703e-01 1.482998728752135953e-01 3.100000000000000000e+01
6.450724601745605469e-01 -5.906859040260314941e-01 -7.652274519205093384e-02 5.700000000000000000e+01
7.093702554702758789e-01 -6.497903466224670410e-01 1.869928091764450073e-01 2.300000000000000000e+01
6.434972882270812988e-01 -5.896566510200500488e-01 -4.574162513017653725e-02 1.000000000000000000e+02
7.326313853263854980e-01 -6.715682744979858398e-01 2.294500768184661865e-01 3.000000000000000000e+00
6.322852373123168945e-01 -5.797888636589050293e-01 -1.497416477650403976e-02 1.000000000000000000e+02
5.972527861595153809e-01 -5.492020845413208008e-01 -2.174080014228821078e-01 4.100000000000000000e+01
6.416758894920349121e-01 -5.902579426765441895e-01 1.521849818527699037e-02 1.000000000000000000e+02
6.209226250648498535e-01 -5.713677406311035156e-01 -1.948076188564301092e-01 5.100000000000000000e+01
6.540185213088989258e-01 -6.018223762512207031e-01 4.657899960875511169e-02 1.000000000000000000e+02
6.182245016098022461e-01 -5.690842866897583008e-01 -1.633325070142745972e-01 5.200000000000000000e+01
6.522143483161926270e-01 -6.005827188491821289e-01 7.756861299276351929e-02 1.000000000000000000e+02
6.363708972930908203e-01 -5.861988067626953125e-01 -1.370365917682647983e-01 4.000000000000000000e+01
6.773531436920166016e-01 -6.241685152053833008e-01 1.130947470664978027e-01 6.300000000000000000e+01
6.392951607704162598e-01 -5.893051028251647949e-01 -1.067575439810753007e-01 8.000000000000000000e+01
6.782868504524230957e-01 -6.252478361129760742e-01 1.461097896099091131e-01 4.000000000000000000e+01
6.283595561981201172e-01 -5.794275403022766113e-01 -7.477962970733642578e-02 6.500000000000000000e+01
6.926671862602233887e-01 -6.389510631561279297e-01 1.831766366958617887e-01 3.000000000000000000e+01
6.370316147804260254e-01 -5.878359079360961914e-01 -4.542760923504828713e-02 1.000000000000000000e+02
7.231230735778808594e-01 -6.675124764442443848e-01 2.272005677223206122e-01 1.200000000000000000e+01
6.449488997459411621e-01 -5.955586433410644531e-01 -1.532321330159902920e-02 1.000000000000000000e+02
5.910796523094177246e-01 -5.473457574844360352e-01 -2.158550769090651911e-01 5.700000000000000000e+01
6.337435841560363770e-01 -5.870584845542907715e-01 1.507887896150350918e-02 1.000000000000000000e+02
6.174950003623962402e-01 -5.722071528434753418e-01 -1.943577080965042114e-01 5.800000000000000000e+01
6.607036590576171875e-01 -6.122468113899230957e-01 4.720703139901161194e-02 8.700000000000000000e+01
6.191138625144958496e-01 -5.739081501960754395e-01 -1.640957295894623080e-01 6.300000000000000000e+01
6.501139402389526367e-01 -6.028556823730468750e-01 7.756861299276351929e-02 1.000000000000000000e+02
6.198385953903198242e-01 -5.749824047088623047e-01 -1.339078992605209073e-01 7.500000000000000000e+01
6.693497896194458008e-01 -6.211279630661010742e-01 1.121197938919066966e-01 6.700000000000000000e+01
6.357793211936950684e-01 -5.901825428009033203e-01 -1.065138056874275069e-01 6.500000000000000000e+01
6.688614487648010254e-01 -6.208921074867248535e-01 1.445454508066177091e-01 5.800000000000000000e+01
6.277931332588195801e-01 -5.829731225967407227e-01 -7.495393604040145874e-02 5.600000000000000000e+01
6.803637742996215820e-01 -6.320118308067321777e-01 1.805053055286406916e-01 4.400000000000000000e+01
6.305866241455078125e-01 -5.859771966934204102e-01 -4.511359333992003701e-02 1.000000000000000000e+02
7.150794267654418945e-01 -6.647254228591918945e-01 2.254009544849396030e-01 2.000000000000000000e+01
6.384729146957397461e-01 -5.937210917472839355e-01 -1.521849818527699037e-02 1.000000000000000000e+02
7.257437109947204590e-01 -6.748749017715454102e-01 2.655483484268187921e-01 1.000000000000000000e+00
5.905783176422119141e-01 -5.507231950759887695e-01 -2.163727283477782926e-01 7.100000000000000000e+01
6.287660002708435059e-01 -5.865390300750732422e-01 1.500906981527804981e-02 1.000000000000000000e+02
5.983967781066894531e-01 -5.584046840667724609e-01 -1.889588832855224887e-01 7.200000000000000000e+01
6.483408808708190918e-01 -6.050109267234802246e-01 4.647433012723922729e-02 9.000000000000000000e+01
6.228473186492919922e-01 -5.814245343208312988e-01 -1.656222045421600064e-01 7.100000000000000000e+01
6.378122568130493164e-01 -5.956025719642639160e-01 7.634843140840530396e-02 1.000000000000000000e+02
6.134971976280212402e-01 -5.730971693992614746e-01 -1.329692900180816928e-01 8.700000000000000000e+01
6.497729420661926270e-01 -6.071964502334594727e-01 1.091949343681335033e-01 9.000000000000000000e+01
6.119630932807922363e-01 -5.720642209053039551e-01 -1.028577238321304044e-01 1.000000000000000000e+02
6.681330800056457520e-01 -6.245720386505126953e-01 1.448583155870437900e-01 6.500000000000000000e+01
6.301200985908508301e-01 -5.892435312271118164e-01 -7.547686994075775146e-02 6.200000000000000000e+01
6.781535148620605469e-01 -6.343828439712524414e-01 1.805053055286406916e-01 6.000000000000000000e+01
6.183290481567382812e-01 -5.786221027374267578e-01 -4.438089206814765930e-02 1.000000000000000000e+02
6.956827640533447266e-01 -6.512361764907836914e-01 2.200021296739577970e-01 3.400000000000000000e+01
6.305580735206604004e-01 -5.904787778854370117e-01 -1.507887896150350918e-02 1.000000000000000000e+02
7.218554019927978516e-01 -6.762096285820007324e-01 2.650307118892670233e-01 9.000000000000000000e+00
5.816110968589782715e-01 -5.461691617965698242e-01 -2.137845307588576993e-01 9.100000000000000000e+01
6.252573132514953613e-01 -5.873610973358154297e-01 1.497416477650403976e-02 1.000000000000000000e+02
6.049646139144897461e-01 -5.684970617294311523e-01 -1.916583031415939053e-01 1.000000000000000000e+02
6.388429403305053711e-01 -6.005432605743408203e-01 4.595096781849861145e-02 1.000000000000000000e+02
6.108008623123168945e-01 -5.741823315620422363e-01 -1.629508882761001864e-01 1.000000000000000000e+02
6.458894014358520508e-01 -6.073796153068542480e-01 7.756861299276351929e-02 1.000000000000000000e+02
6.071765422821044922e-01 -5.711746811866760254e-01 -1.320306956768035889e-01 1.000000000000000000e+02
6.490951180458068848e-01 -6.108213067054748535e-01 1.094386726617812972e-01 8.300000000000000000e+01
6.171895265579223633e-01 -5.810001492500305176e-01 -1.040764227509499013e-01 1.000000000000000000e+02
6.601955294609069824e-01 -6.214844584465026855e-01 1.436068415641784946e-01 5.800000000000000000e+01
6.222574710845947266e-01 -5.859758257865905762e-01 -7.477962970733642578e-02 7.300000000000000000e+01
6.730769276618957520e-01 -6.340538263320922852e-01 1.797420680522918979e-01 6.600000000000000000e+01
6.221197247505187988e-01 -5.862559676170349121e-01 -4.479957744479178688e-02 1.000000000000000000e+02
6.877332329750061035e-01 -6.483137011528015137e-01 2.182025164365767878e-01 4.800000000000000000e+01
6.255833506584167480e-01 -5.899323821067810059e-01 -1.500906981527804981e-02 8.200000000000000000e+01
7.238255143165588379e-01 -6.825758814811706543e-01 2.665836215019226074e-01 2.200000000000000000e+01
5.768937468528747559e-01 -5.455413460731506348e-01 -2.127492576837539950e-01 1.000000000000000000e+02
6.232032179832458496e-01 -5.895400643348693848e-01 1.497416477650403976e-02 1.000000000000000000e+02
6.043919324874877930e-01 -5.719447731971740723e-01 -1.921081990003586093e-01 1.000000000000000000e+02
6.294905543327331543e-01 -5.959042906761169434e-01 4.542760923504828713e-02 9.400000000000000000e+01
5.973868966102600098e-01 -5.655134916305541992e-01 -1.598979383707047064e-01 1.000000000000000000e+02
6.350853443145751953e-01 -6.014107465744018555e-01 7.652274519205093384e-02 1.000000000000000000e+02
6.066131591796875000e-01 -5.746491551399230957e-01 -1.323435604572295865e-01 9.400000000000000000e+01
6.411954760551452637e-01 -6.076216101646423340e-01 1.084637120366095941e-01 9.900000000000000000e+01
5.949885845184326172e-01 -5.640313029289245605e-01 -1.006640791893004955e-01 1.000000000000000000e+02
6.378461718559265137e-01 -6.048703789710998535e-01 1.392266750335693082e-01 6.400000000000000000e+01
6.115339994430541992e-01 -5.799185037612915039e-01 -7.373376190662384033e-02 6.000000000000000000e+01
6.737082004547119141e-01 -6.391018033027648926e-01 1.805053055286406916e-01 6.400000000000000000e+01
6.142744421958923340e-01 -5.829247236251831055e-01 -4.438089206814765930e-02 1.000000000000000000e+02
6.727460622787475586e-01 -6.386353373527526855e-01 2.141534090042113980e-01 5.800000000000000000e+01
6.090198159217834473e-01 -5.783423781394958496e-01 -1.466002129018307079e-02 1.000000000000000000e+02
6.989089846611022949e-01 -6.639357209205627441e-01 2.583014070987700861e-01 2.900000000000000000e+01
5.707889795303344727e-01 -5.435550212860107422e-01 -2.111963480710982999e-01 1.000000000000000000e+02
6.182457804679870605e-01 -5.889533162117004395e-01 1.490435469895600926e-02 1.000000000000000000e+02
6.108562946319580078e-01 -5.821173191070556641e-01 -1.948076188564301092e-01 1.000000000000000000e+02
6.317435503005981445e-01 -6.022323369979858398e-01 4.574162513017653725e-02 1.000000000000000000e+02
5.996723175048828125e-01 -5.716592669486999512e-01 -1.610427945852279941e-01 1.000000000000000000e+02
6.228890419006347656e-01 -5.939989686012268066e-01 7.530256360769271851e-02 1.000000000000000000e+02
5.960276126861572266e-01 -5.685820579528808594e-01 -1.304663419723511020e-01 9.500000000000000000e+01
6.376344561576843262e-01 -6.084856390953063965e-01 1.082199737429618974e-01 1.000000000000000000e+02
5.987596511840820312e-01 -5.715876221656799316e-01 -1.016390323638916016e-01 1.000000000000000000e+02
6.401233673095703125e-01 -6.110742688179016113e-01 1.401652842760086060e-01 5.800000000000000000e+01
5.994195938110351562e-01 -5.724176168441772461e-01 -7.251358032226562500e-02 6.400000000000000000e+01
6.629555821418762207e-01 -6.333127617835998535e-01 1.782156080007553101e-01 5.800000000000000000e+01
6.194556951522827148e-01 -5.919647216796875000e-01 -4.490425065159797668e-02 1.000000000000000000e+02
6.733299493789672852e-01 -6.436729431152343750e-01 2.150532007217406949e-01 7.600000000000000000e+01
6.098877787590026855e-01 -5.832288861274719238e-01 -1.472983136773108916e-02 1.000000000000000000e+02
6.925148367881774902e-01 -6.622442007064819336e-01 2.567484974861145020e-01 3.800000000000000000e+01
5.716767907142639160e-01 -5.482183694839477539e-01 -2.122316211462020874e-01 4.600000000000000000e+01
6.089708805084228516e-01 -5.841861367225646973e-01 1.472983136773108916e-02 1.000000000000000000e+02
5.933540463447570801e-01 -5.694037675857543945e-01 -1.898586899042130072e-01 1.000000000000000000e+02
6.281967163085937500e-01 -6.030507087707519531e-01 4.563695564866065979e-02 1.000000000000000000e+02
5.962569117546081543e-01 -5.723894238471984863e-01 -1.606611758470535001e-01 1.000000000000000000e+02
6.208118200302124023e-01 -5.961696505546569824e-01 7.530256360769271851e-02 1.000000000000000000e+02
5.869165062904357910e-01 -5.638167262077331543e-01 -1.289020031690598089e-01 8.800000000000000000e+01
6.312125921249389648e-01 -6.065812706947326660e-01 1.074887588620185991e-01 1.000000000000000000e+02
5.938985943794250488e-01 -5.709227919578552246e-01 -1.011515557765960971e-01 1.000000000000000000e+02
6.393032073974609375e-01 -6.147855520248413086e-01 1.404781490564346036e-01 6.100000000000000000e+01
6.017261147499084473e-01 -5.786495804786682129e-01 -7.303651422262191772e-02 7.200000000000000000e+01
6.522517204284667969e-01 -6.274566054344177246e-01 1.759258955717087070e-01 7.300000000000000000e+01
6.087508201599121094e-01 -5.858139991760253906e-01 -4.427621886134148338e-02 1.000000000000000000e+02
6.682711839675903320e-01 -6.433163881301879883e-01 2.141534090042113980e-01 7.200000000000000000e+01
6.121694445610046387e-01 -5.895155072212219238e-01 -1.483454555273056030e-02 1.000000000000000000e+02
6.803438663482666016e-01 -6.553959846496582031e-01 2.531250119209290106e-01 6.000000000000000000e+01
5.739286541938781738e-01 -5.542364716529846191e-01 -2.137845307588576993e-01 4.500000000000000000e+01
6.026133298873901367e-01 -5.821402668952941895e-01 1.462511625140905033e-02 1.000000000000000000e+02
5.843561887741088867e-01 -5.647005438804626465e-01 -1.876091808080672940e-01 1.000000000000000000e+02
6.189079284667968750e-01 -5.982990264892578125e-01 4.511359333992003701e-02 1.000000000000000000e+02
5.942552685737609863e-01 -5.744673013687133789e-01 -1.606611758470535001e-01 8.700000000000000000e+01
6.201592087745666504e-01 -5.997180938720703125e-01 7.547686994075775146e-02 1.000000000000000000e+02
5.863646268844604492e-01 -5.672354698181152344e-01 -1.292148679494858066e-01 8.000000000000000000e+01
6.133997440338134766e-01 -5.935959219932556152e-01 1.048076376318931996e-01 1.000000000000000000e+02
5.890495777130126953e-01 -5.702309608459472656e-01 -1.006640791893004955e-01 1.000000000000000000e+02
6.344224214553833008e-01 -6.141542792320251465e-01 1.398524045944213867e-01 6.300000000000000000e+01
6.025651693344116211e-01 -5.835185050964355469e-01 -7.338513433933258057e-02 7.000000000000000000e+01
6.430069804191589355e-01 -6.228995323181152344e-01 1.740178018808364868e-01 8.000000000000000000e+01
6.023994088172912598e-01 -5.837656259536743164e-01 -4.396220296621323326e-02 1.000000000000000000e+02
6.604246497154235840e-01 -6.402195692062377930e-01 2.123537957668303888e-01 8.500000000000000000e+01
6.187211871147155762e-01 -6.000014543533325195e-01 -1.504397392272949045e-02 1.000000000000000000e+02
6.684588789939880371e-01 -6.482343077659606934e-01 2.495015561580657959e-01 7.500000000000000000e+01
5.747604370117187500e-01 -5.589300990104675293e-01 -2.148198038339614868e-01 5.000000000000000000e+01
6.063110828399658203e-01 -5.898177027702331543e-01 1.476473547518252979e-02 1.000000000000000000e+02
5.809848308563232422e-01 -5.653777718544006348e-01 -1.871592700481415072e-01 8.200000000000000000e+01
6.110911965370178223e-01 -5.948830842971801758e-01 4.469490796327590942e-02 1.000000000000000000e+02
5.908396244049072266e-01 -5.751686692237854004e-01 -1.602795571088790894e-01 8.200000000000000000e+01
6.209168434143066406e-01 -6.046591997146606445e-01 7.582549750804901123e-02 1.000000000000000000e+02
5.801361203193664551e-01 -5.651435852050781250e-01 -1.282762587070465088e-01 9.600000000000000000e+01
6.241191625595092773e-01 -6.082022786140441895e-01 1.070012822747230946e-01 1.000000000000000000e+02
5.785268545150756836e-01 -5.639696121215820312e-01 -9.920164197683334351e-02 1.000000000000000000e+02
6.236817240715026855e-01 -6.082006096839904785e-01 1.379752010107040128e-01 6.800000000000000000e+01
5.962453484535217285e-01 -5.814452767372131348e-01 -7.286220043897628784e-02 6.300000000000000000e+01
6.394234299659729004e-01 -6.237693428993225098e-01 1.736361831426619928e-01 8.000000000000000000e+01
5.917814373970031738e-01 -5.774953365325927734e-01 -4.333417117595673301e-02 1.000000000000000000e+02
6.526080369949340820e-01 -6.370759010314941406e-01 2.105541825294494906e-01 8.300000000000000000e+01
5.994548797607421875e-01 -5.853921771049499512e-01 -1.462511625140905033e-02 1.000000000000000000e+02
6.743699312210083008e-01 -6.587797403335571289e-01 2.526073753833770752e-01 7.200000000000000000e+01
5.755664110183715820e-01 -5.636363029479980469e-01 -2.158550769090651911e-01 5.200000000000000000e+01
6.071054935455322266e-01 -5.947292447090148926e-01 1.483454555273056030e-02 1.000000000000000000e+02
5.817914605140686035e-01 -5.701302289962768555e-01 -1.880590766668319980e-01 8.100000000000000000e+01
6.075847148895263672e-01 -5.956144332885742188e-01 4.459023475646972656e-02 1.000000000000000000e+02
5.804165005683898926e-01 -5.689814686775207520e-01 -1.579898446798324863e-01 7.400000000000000000e+01
6.059995889663696289e-01 -5.942679643630981445e-01 7.425669580698013306e-02 1.000000000000000000e+02
5.795699954032897949e-01 -5.685485601425170898e-01 -1.285891234874725064e-01 9.400000000000000000e+01
6.205754876136779785e-01 -6.089867949485778809e-01 1.067575439810753007e-01 1.000000000000000000e+02
5.850542783737182617e-01 -5.743293762207031250e-01 -1.006640791893004955e-01 1.000000000000000000e+02
6.132034063339233398e-01 -6.019625067710876465e-01 1.360979825258255005e-01 7.800000000000000000e+01
5.927905440330505371e-01 -5.821270346641540527e-01 -7.268788665533065796e-02 7.300000000000000000e+01
6.428442597389221191e-01 -6.315007805824279785e-01 1.751626580953598022e-01 7.600000000000000000e+01
5.983092784881591797e-01 -5.879569053649902344e-01 -4.396220296621323326e-02 1.000000000000000000e+02
6.448214054107666016e-01 -6.338855028152465820e-01 2.087545841932297030e-01 9.100000000000000000e+01
5.917046070098876953e-01 -5.818726420402526855e-01 -1.448549702763556914e-02 1.000000000000000000e+02
6.625396609306335449e-01 -6.515306830406188965e-01 2.489839196205138883e-01 8.400000000000000000e+01
5.680933594703674316e-01 -5.602161288261413574e-01 -2.137845307588576993e-01 5.200000000000000000e+01
5.964842438697814941e-01 -5.884187817573547363e-01 1.462511625140905033e-02 1.000000000000000000e+02
5.770236253738403320e-01 -5.694199800491333008e-01 -1.871592700481415072e-01 8.200000000000000000e+01
6.055018901824951172e-01 -5.977316498756408691e-01 4.459023475646972656e-02 1.000000000000000000e+02
5.770296454429626465e-01 -5.696247816085815430e-01 -1.576082259416579923e-01 8.700000000000000000e+01
6.010861992835998535e-01 -5.935797691345214844e-01 7.390806823968887329e-02 1.000000000000000000e+02
5.789871811866760254e-01 -5.719563961029052734e-01 -1.289020031690598089e-01 8.800000000000000000e+01
6.269177794456481934e-01 -6.195212006568908691e-01 1.082199737429618974e-01 1.000000000000000000e+02
5.745755434036254883e-01 -5.679947137832641602e-01 -9.920164197683334351e-02 1.000000000000000000e+02
6.095884442329406738e-01 -6.028169989585876465e-01 1.357851177453995029e-01 8.600000000000000000e+01
5.737547874450683594e-01 -5.673813819885253906e-01 -7.059615105390548706e-02 8.200000000000000000e+01
6.308659911155700684e-01 -6.240760087966918945e-01 1.724913269281387052e-01 8.400000000000000000e+01
5.962532758712768555e-01 -5.900418162345886230e-01 -4.396220296621323326e-02 1.000000000000000000e+02
6.467596292495727539e-01 -6.402454376220703125e-01 2.101042866706847867e-01 8.500000000000000000e+01
5.868281126022338867e-01 -5.811204314231872559e-01 -1.441568788141012018e-02 3.300000000000000000e+01
6.519125699996948242e-01 -6.457971930503845215e-01 2.458780854940413874e-01 9.700000000000000000e+01
5.648614764213562012e-01 -5.607359409332275391e-01 -2.132668942213057917e-01 5.700000000000000000e+01
5.860161781311035156e-01 -5.819392204284667969e-01 1.441568788141012018e-02 1.000000000000000000e+02
5.723671317100524902e-01 -5.685835480690002441e-01 -1.862594783306122104e-01 9.800000000000000000e+01
6.063498258590698242e-01 -6.025519371032714844e-01 4.479957744479178688e-02 1.000000000000000000e+02
5.723524093627929688e-01 -5.687674283981323242e-01 -1.568449884653090876e-01 8.200000000000000000e+01
5.934624671936035156e-01 -5.899512171745300293e-01 7.321082055568695068e-02 1.000000000000000000e+02
5.658817291259765625e-01 -5.627300739288330078e-01 -1.263990551233291904e-01 1.000000000000000000e+02
6.136012077331542969e-01 -6.103968024253845215e-01 1.062700673937797963e-01 1.000000000000000000e+02
5.755030512809753418e-01 -5.726974606513977051e-01 -9.968912601470947266e-02 1.000000000000000000e+02
6.076916456222534180e-01 -6.047291159629821777e-01 1.357851177453995029e-01 9.100000000000000000e+01
5.718700885772705078e-01 -5.692809224128723145e-01 -7.059615105390548706e-02 8.200000000000000000e+01
6.301841139793395996e-01 -6.275499463081359863e-01 1.728729456663131991e-01 1.000000000000000000e+02
5.843884944915771484e-01 -5.821489095687866211e-01 -4.322950169444084167e-02 4.300000000000000000e+01
6.473936438560485840e-01 -6.451377868652343750e-01 2.110040932893753052e-01 8.000000000000000000e+01
5.891464948654174805e-01 -5.872985124588012695e-01 -1.452040206640958959e-02 1.000000000000000000e+02
6.512486934661865234e-01 -6.492059230804443359e-01 2.463957369327544888e-01 9.300000000000000000e+01
5.669994950294494629e-01 -5.668016076087951660e-01 -2.148198038339614868e-01 5.700000000000000000e+01
5.924652218818664551e-01 -5.924652218818664551e-01 1.462511625140905033e-02 1.000000000000000000e+02
5.607348084449768066e-01 -5.609306097030639648e-01 -1.831101626157760898e-01 1.000000000000000000e+02
6.028310656547546387e-01 -6.032520532608032227e-01 4.469490796327590942e-02 1.000000000000000000e+02
5.717512965202331543e-01 -5.721505880355834961e-01 -1.572266072034836093e-01 8.900000000000000000e+01
5.984400510787963867e-01 -5.990670323371887207e-01 7.408238202333450317e-02 1.000000000000000000e+02
5.639140009880065918e-01 -5.647019147872924805e-01 -1.263990551233291904e-01 1.000000000000000000e+02
6.030520796775817871e-01 -6.041055321693420410e-01 1.048076376318931996e-01 1.000000000000000000e+02
5.692937970161437988e-01 -5.704873800277709961e-01 -9.895790368318557739e-02 1.000000000000000000e+02
6.167397499084472656e-01 -6.180327534675598145e-01 1.382880657911300937e-01 9.200000000000000000e+01
5.698794722557067871e-01 -5.712736248970031738e-01 -7.059615105390548706e-02 9.200000000000000000e+01
6.155130863189697266e-01 -6.172343492507934570e-01 1.694383919239043912e-01 8.100000000000000000e+01
5.809428095817565918e-01 -5.827707648277282715e-01 -4.312482848763465881e-02 4.700000000000000000e+01
6.355088353157043457e-01 -6.377310752868652344e-01 2.078547775745392123e-01 9.600000000000000000e+01
5.927379727363586426e-01 -5.950183272361755371e-01 -1.466002129018307079e-02 1.000000000000000000e+02
6.435249447822570801e-01 -6.460006833076477051e-01 2.443251758813858032e-01 9.200000000000000000e+01
5.759094357490539551e-01 -5.797417163848876953e-01 -2.189609110355376920e-01 6.700000000000000000e+01
5.918025970458984375e-01 -5.959486365318298340e-01 1.466002129018307079e-02 1.000000000000000000e+02
5.628921389579772949e-01 -5.670335292816162109e-01 -1.844598650932312012e-01 1.000000000000000000e+02
5.908737778663635254e-01 -5.954288840293884277e-01 4.396220296621323326e-02 1.000000000000000000e+02
5.642190575599670410e-01 -5.685686469078063965e-01 -1.557001471519469937e-01 8.500000000000000000e+01
6.075705885887145996e-01 -6.124681234359741211e-01 7.547686994075775146e-02 1.000000000000000000e+02
5.688940882682800293e-01 -5.736801028251647949e-01 -1.279633939266205112e-01 1.000000000000000000e+02
6.009396910667419434e-01 -6.062068939208984375e-01 1.048076376318931996e-01 1.000000000000000000e+02
5.617098212242126465e-01 -5.668309926986694336e-01 -9.798295050859451294e-02 1.000000000000000000e+02
6.047389507293701172e-01 -6.104655265808105469e-01 1.360979825258255005e-01 9.400000000000000000e+01
5.847079753875732422e-01 -5.902448892593383789e-01 -7.268788665533065796e-02 9.100000000000000000e+01
6.230248212814331055e-01 -6.291441321372985840e-01 1.721097081899642944e-01 9.200000000000000000e+01
5.746896862983703613e-01 -5.805368423461914062e-01 -4.281081259250640869e-02 5.000000000000000000e+01
6.223130226135253906e-01 -6.288642287254333496e-01 2.042555510997771939e-01 9.000000000000000000e+01
5.822194218635559082e-01 -5.885539650917053223e-01 -1.445059292018414064e-02 1.000000000000000000e+02
6.548522114753723145e-01 -6.619769930839538574e-01 2.495015561580657959e-01 7.600000000000000000e+01
5.657420754432678223e-01 -5.734967589378356934e-01 -2.158550769090651911e-01 6.500000000000000000e+01
5.911228060722351074e-01 -5.994346141815185547e-01 1.469492632895708084e-02 1.000000000000000000e+02
5.595412850379943848e-01 -5.676071643829345703e-01 -1.840099692344666082e-01 1.000000000000000000e+02
5.929973721504211426e-01 -6.017555594444274902e-01 4.427621886134148338e-02 1.000000000000000000e+02
5.567188858985900879e-01 -5.649412274360656738e-01 -1.541736721992492953e-01 8.100000000000000000e+01
5.942432284355163574e-01 -6.032302975654602051e-01 7.408238202333450317e-02 4.300000000000000000e+01
5.668880939483642578e-01 -5.756624341011047363e-01 -1.279633939266205112e-01 1.000000000000000000e+02
6.043903827667236328e-01 -6.139594912528991699e-01 1.057825908064841947e-01 1.000000000000000000e+02
5.639048814773559570e-01 -5.730329751968383789e-01 -9.871416538953781128e-02 3.300000000000000000e+01
5.984484553337097168e-01 -6.083480715751647949e-01 1.351593732833862027e-01 1.000000000000000000e+02
5.686718225479125977e-01 -5.780788660049438477e-01 -7.094477117061614990e-02 1.000000000000000000e+02
6.304607391357421875e-01 -6.411137580871582031e-01 1.747810393571853915e-01 8.700000000000000000e+01
5.726597309112548828e-01 -5.825393199920654297e-01 -4.281081259250640869e-02 5.000000000000000000e+01
6.201140880584716797e-01 -6.310326457023620605e-01 2.042555510997771939e-01 1.000000000000000000e+02
5.773587226867675781e-01 -5.877296328544616699e-01 -1.438078284263611013e-02 1.000000000000000000e+02
6.388857960700988770e-01 -6.505890488624572754e-01 2.443251758813858032e-01 9.900000000000000000e+01
5.638371706008911133e-01 -5.753696560859680176e-01 -2.158550769090651911e-01 6.500000000000000000e+01
5.807356238365173340e-01 -5.928206443786621094e-01 1.448549702763556914e-02 1.000000000000000000e+02
5.617463588714599609e-01 -5.736364722251892090e-01 -1.853596717119216919e-01 1.000000000000000000e+02
5.923957824707031250e-01 -6.051459312438964844e-01 4.438089206814765930e-02 1.000000000000000000e+02
5.507223010063171387e-01 -5.625754594802856445e-01 -1.530288159847260077e-01 7.500000000000000000e+01
5.741239786148071289e-01 -5.866856575012207031e-01 7.181633263826370239e-02 4.200000000000000000e+01
5.608319640159606934e-01 -5.733029246330261230e-01 -1.270247846841812134e-01 1.000000000000000000e+02
6.051269173622131348e-01 -6.187989115715026855e-01 1.062700673937797963e-01 1.000000000000000000e+02
5.661644935607910156e-01 -5.791583061218261719e-01 -9.944538772106170654e-02 1.000000000000000000e+02
5.936665534973144531e-01 -6.075036525726318359e-01 1.345336437225342074e-01 1.000000000000000000e+02
5.611816644668579102e-01 -5.742616057395935059e-01 -7.024753093719482422e-02 1.000000000000000000e+02
6.242156028747558594e-01 -6.389877796173095703e-01 1.736361831426619928e-01 1.000000000000000000e+02
5.790972709655761719e-01 -5.930087566375732422e-01 -4.343884438276290894e-02 5.100000000000000000e+01
6.166567802429199219e-01 -6.316910982131958008e-01 2.038056552410126010e-01 8.400000000000000000e+01
5.754065513610839844e-01 -5.896409749984741211e-01 -1.438078284263611013e-02 1.000000000000000000e+02
6.287434101104736328e-01 -6.442973017692565918e-01 2.412193566560744962e-01 1.000000000000000000e+02
5.658672451972961426e-01 -5.814877748489379883e-01 -2.174080014228821078e-01 7.000000000000000000e+01
5.758739709854125977e-01 -5.919774770736694336e-01 1.441568788141012018e-02 3.600000000000000000e+01
5.515890121459960938e-01 -5.672114491462707520e-01 -1.826602518558501920e-01 1.000000000000000000e+02
5.916720032691955566e-01 -6.086421608924865723e-01 4.448556154966353676e-02 1.000000000000000000e+02
5.514920949935913086e-01 -5.673098564147949219e-01 -1.537920534610748013e-01 7.300000000000000000e+01
5.776267051696777344e-01 -5.944015383720397949e-01 7.251358032226562500e-02 4.200000000000000000e+01
5.505688190460205078e-01 -5.667557716369628906e-01 -1.251475661993027011e-01 1.000000000000000000e+02
5.974314808845520020e-01 -6.152110099792480469e-01 1.052951142191887041e-01 1.000000000000000000e+02
5.655221343040466309e-01 -5.825554132461547852e-01 -9.968912601470947266e-02 3.500000000000000000e+01
5.956693887710571289e-01 -6.138250827789306641e-01 1.354722529649733942e-01 1.000000000000000000e+02
5.647238492965698242e-01 -5.819362998008728027e-01 -7.094477117061614990e-02 1.000000000000000000e+02
5.946414470672607422e-01 -6.129798293113708496e-01 1.660038232803345004e-01 1.000000000000000000e+02
5.728524923324584961e-01 -5.907251834869384766e-01 -4.312482848763465881e-02 5.200000000000000000e+01
6.185172200202941895e-01 -6.380373835563659668e-01 2.051553577184677124e-01 1.000000000000000000e+02
5.761280059814453125e-01 -5.945180058479309082e-01 -1.445059292018414064e-02 1.000000000000000000e+02
6.305237412452697754e-01 -6.506500244140625000e-01 2.427722662687301913e-01 1.000000000000000000e+02
5.611490607261657715e-01 -5.806810855865478516e-01 -2.163727283477782926e-01 6.300000000000000000e+01
5.738040804862976074e-01 -5.939840674400329590e-01 1.441568788141012018e-02 1.000000000000000000e+02
5.468983054161071777e-01 -5.663297772407531738e-01 -1.817604452371597012e-01 1.000000000000000000e+02
5.868755578994750977e-01 -6.077274680137634277e-01 4.427621886134148338e-02 1.000000000000000000e+02
5.549626350402832031e-01 -5.748813748359680176e-01 -1.553185284137726108e-01 7.100000000000000000e+01
5.838494896888732910e-01 -6.050163507461547852e-01 7.355944812297821045e-02 1.000000000000000000e+02
5.540729761123657227e-01 -5.743609070777893066e-01 -1.263990551233291904e-01 1.000000000000000000e+02
5.870125293731689453e-01 -6.087191700935363770e-01 1.038326770067214966e-01 1.000000000000000000e+02
5.552188754081726074e-01 -5.759509801864624023e-01 -9.822668880224227905e-02 3.300000000000000000e+01
6.018564701080322266e-01 -6.243299841880798340e-01 1.373494565486907959e-01 9.500000000000000000e+01
5.654541254043579102e-01 -5.867732763290405273e-01 -7.129339873790740967e-02 1.000000000000000000e+02
6.020326018333435059e-01 -6.249491572380065918e-01 1.686751544475554865e-01 1.000000000000000000e+02
5.638599991798400879e-01 -5.855280160903930664e-01 -4.260146990418434143e-02 5.000000000000000000e+01
6.203408241271972656e-01 -6.444043517112731934e-01 2.065050750970839899e-01 8.900000000000000000e+01
5.782090425491333008e-01 -6.008480787277221680e-01 -1.455530710518359964e-02 1.000000000000000000e+02
6.255695819854736328e-01 -6.500629782676696777e-01 2.417369931936264038e-01 1.000000000000000000e+02
