-2.999709844589232954e+00 -2.582206726074218750e-01 -6.950987577438354492e-01 1.400000000000000000e+01
-3.571747303009033203e+00 -3.068347275257111151e-01 -6.968344449996948242e-01 1.200000000000000000e+01
-4.475425720214843750e+01 -3.836793184280395952e+00 3.929852485656737837e+00 5.400000000000000000e+01
-4.477624893188476562e+00 -3.830806314945220947e-01 -7.117767930030822754e-01 1.000000000000000000e+01
-5.904109001159667969e+00 -5.030466914176940918e-01 -7.275599837303161621e-01 9.000000000000000000e+00
-8.715142250061035156e+00 -7.410226464271545410e-01 -7.652274370193481445e-01 2.000000000000000000e+00
-3.481113433837891336e+01 -2.935410022735596147e+00 -6.097871065139770508e-01 1.400000000000000000e+01
-2.570238590240478960e+00 -2.126670181751250943e-01 -6.910468339920043945e-01 1.900000000000000000e+01
-2.998694181442261186e+00 -2.470644414424895963e-01 -6.946488618850708008e-01 1.500000000000000000e+01
-3.576761245727539062e+00 -2.940632998943328857e-01 -6.975976824760437012e-01 1.300000000000000000e+01
-4.483553314208983664e+01 -3.678273677825928178e+00 3.935779094696044922e+00 5.400000000000000000e+01
-4.463248252868652344e+00 -3.653773665428162176e-01 -7.092738747596740723e-01 8.000000000000000000e+00
-5.899977207183837891e+00 -4.809198677539824884e-01 -7.268287539482116699e-01 1.100000000000000000e+01
-8.701913833618164062e+00 -7.077828645706176758e-01 -7.638329267501831055e-01 2.000000000000000000e+00
-3.481568145751953125e+01 -2.807318925857543945e+00 -6.096823811531066895e-01 2.100000000000000000e+01
-2.572891235351562944e+00 -2.038464993238449097e-01 -6.915645003318786621e-01 1.900000000000000000e+01
-2.980111122131348100e+00 -2.350631952285766879e-01 -6.901498436927795410e-01 1.500000000000000000e+01
-3.577765703201293945e+00 -2.815762758255004883e-01 -6.975976824760437012e-01 1.200000000000000000e+01
-4.476070022583007812e+01 -3.514883041381835938e+00 3.928109407424927202e+00 5.400000000000000000e+01
-4.464496612548828125e+00 -3.497954905033112127e-01 -7.092738747596740723e-01 8.000000000000000000e+00
-5.893703937530517578e+00 -4.597046971321105957e-01 -7.258538007736206055e-01 1.100000000000000000e+01
-8.696385383605957031e+00 -6.767848730087280273e-01 -7.631356716156005859e-01 2.000000000000000000e+00
-3.479536056518554688e+01 -2.683466196060181108e+00 -6.091588139533996582e-01 1.300000000000000000e+01
-2.579331874847412109e+00 -1.957519352436065951e-01 -6.931173801422119141e-01 1.900000000000000000e+01
-2.996419906616210938e+00 -2.263538390398026068e-01 -6.937490701675415039e-01 1.300000000000000000e+01
-4.492476654052733664e+01 -3.385795354843140093e+00 2.361084222793579102e+00 3.500000000000000000e+01
-3.563018321990966797e+00 -2.685300707817078192e-01 -6.945447325706481934e-01 1.100000000000000000e+01
-4.477608489990233664e+01 -3.366730690002440962e+00 3.928457975387572798e+00 5.400000000000000000e+01
-4.457752704620361328e+00 -3.343977034091948908e-01 -7.080224156379699707e-01 8.000000000000000000e+00
-5.879359245300292969e+00 -4.389755129814147949e-01 -7.239038944244384766e-01 1.100000000000000000e+01
-8.686660766601562500e+00 -6.470549106597900391e-01 -7.620897889137268066e-01 2.000000000000000000e+00
-3.478811264038085938e+01 -2.566888570785522017e+00 -6.088795661926269531e-01 1.300000000000000000e+01
-2.568438768386840820e+00 -1.859103888273239136e-01 -6.900115609169006348e-01 1.900000000000000000e+01
-2.999135494232178178e+00 -2.160330116748810092e-01 -6.941989660263061523e-01 1.400000000000000000e+01
-3.558059215545653853e+00 -2.556690573692321777e-01 -6.933999061584472656e-01 1.200000000000000000e+01
-4.477166748046875000e+01 -3.209272861480712891e+00 3.927063465118408203e+00 5.400000000000000000e+01
-4.466773986816406250e+00 -3.193987607955933172e-01 -7.092738747596740723e-01 8.000000000000000000e+00
-5.896696090698242188e+00 -4.195771813392639160e-01 -7.258538007736206055e-01 1.100000000000000000e+01
-8.653093338012695312e+00 -6.141897439956665039e-01 -7.589522004127502441e-01 2.000000000000000000e+00
-1.737879943847655895e+01 -1.227436661720276101e+00 -9.130530953407287598e-01 5.000000000000000000e+00
-3.476095581054688211e+01 -2.442916393280028853e+00 -6.082512736320495605e-01 1.300000000000000000e+01
-2.569072008132935014e+00 -1.769437342882156095e-01 -6.900115609169006348e-01 1.900000000000000000e+01
-2.999871253967285156e+00 -2.055627554655075073e-01 -6.941989660263061523e-01 1.400000000000000000e+01
-3.558930158615111861e+00 -2.432475537061691007e-01 -6.933999061584472656e-01 1.300000000000000000e+01
-4.478657150268554688e+01 -3.053242206573485884e+00 3.927412033081055132e+00 5.400000000000000000e+01
-4.475745201110839844e+00 -3.043408989906311035e-01 -7.105253338813781738e-01 8.000000000000000000e+00
-5.890202522277832031e+00 -3.984554111957550049e-01 -7.248788475990295410e-01 1.100000000000000000e+01
-8.627354621887207031e+00 -5.821033120155334473e-01 -7.565118670463562012e-01 2.000000000000000000e+00
-3.477924728393554688e+01 -2.322229146957397017e+00 -6.084257960319519043e-01 2.000000000000000000e+01
-2.560035228729248047e+00 -1.673448532819747925e-01 -6.874234080314636230e-01 2.000000000000000000e+01
-2.988902807235718218e+00 -1.943313777446747104e-01 -6.914995312690734863e-01 1.400000000000000000e+01
-3.567594051361083984e+00 -2.313312292098999023e-01 -6.949263811111450195e-01 1.300000000000000000e+01
-4.479298019409179688e+01 -2.896632194519042969e+00 3.927063465118408203e+00 5.400000000000000000e+01
-4.449182033538818359e+00 -2.869359552860260010e-01 -7.061451673507690430e-01 1.000000000000000000e+01
-5.891557693481445312e+00 -3.778923451900482178e-01 -7.248788475990295410e-01 1.100000000000000000e+01
-8.625357627868652344e+00 -5.517302751541137695e-01 -7.561632394790649414e-01 2.000000000000000000e+00
-1.738694381713866832e+01 -1.106080770492553933e+00 -9.130530953407287598e-01 5.000000000000000000e+00
-3.481308746337891336e+01 -2.202454090118408203e+00 -6.088795661926269531e-01 1.300000000000000000e+01
-2.574128866195679155e+00 -1.587933599948883057e-01 -6.910468339920043945e-01 2.100000000000000000e+01
-2.991539955139160156e+00 -1.834945082664490024e-01 -6.919494271278381348e-01 1.600000000000000000e+01
-3.556660413742064986e+00 -2.175346612930298129e-01 -6.926366686820983887e-01 1.300000000000000000e+01
-4.479136276245117188e+01 -2.731710433959960938e+00 3.926017522811890093e+00 5.400000000000000000e+01
-4.456119060516357422e+00 -2.709866762161254883e-01 -7.070837616920471191e-01 1.000000000000000000e+01
-5.873088359832763672e+00 -3.550981283187866211e-01 -7.224414944648742676e-01 1.100000000000000000e+01
-8.659141540527343750e+00 -5.220314264297485352e-01 -7.589522004127502441e-01 2.000000000000000000e+00
-3.474507141113281250e+01 -2.070323228836060014e+00 -6.075531840324401855e-01 1.300000000000000000e+01
-2.576596021652222124e+00 -1.499192118644714078e-01 -6.915645003318786621e-01 2.000000000000000000e+01
-2.978543996810913086e+00 -1.722633540630341131e-01 -6.888001561164855957e-01 1.400000000000000000e+01
-4.497547531127929688e+01 -2.593269586563109907e+00 2.360979557037353960e+00 3.500000000000000000e+01
-3.559358119964600053e+00 -2.052312940359115878e-01 -6.930182576179504395e-01 1.200000000000000000e+01
-4.479267120361328125e+01 -2.574885368347167969e+00 3.925320386886597124e+00 5.400000000000000000e+01
-4.459010124206542969e+00 -2.555432617664337158e-01 -7.073966264724731445e-01 1.000000000000000000e+01
-5.866364479064941406e+00 -3.341435194015502930e-01 -7.214665412902832031e-01 1.100000000000000000e+01
-8.641019821166992188e+00 -4.906726479530333918e-01 -7.572091221809387207e-01 2.000000000000000000e+00
-1.719500541687012074e+01 -9.703817367553710938e-01 -9.025859236717224121e-01 5.000000000000000000e+00
-3.473611450195313211e+01 -1.948131918907165971e+00 -6.072739362716674805e-01 2.000000000000000000e+01
-2.571292161941527876e+00 -1.410566419363022128e-01 -6.900115609169006348e-01 2.200000000000000000e+01
-2.990773916244506836e+00 -1.630215793848037997e-01 -6.914995312690734863e-01 2.300000000000000000e+01
-4.498382568359375000e+01 -2.444111108779906782e+00 2.360979557037353960e+00 3.500000000000000000e+01
-3.560019016265869141e+00 -1.934269070625304898e-01 -6.930182576179504395e-01 1.200000000000000000e+01
-4.476913070678710938e+01 -2.424609422683715820e+00 3.922531366348267046e+00 5.400000000000000000e+01
-4.463778018951416016e+00 -2.409682273864746094e-01 -7.080224156379699707e-01 8.000000000000000000e+00
-5.855546951293945312e+00 -3.140502274036406916e-01 -7.200040817260742188e-01 1.100000000000000000e+01
-8.626683235168457031e+00 -4.611644446849822998e-01 -7.558146119117736816e-01 2.000000000000000000e+00
-1.719812965393066051e+01 -9.133557081222534180e-01 -9.025859236717224121e-01 5.000000000000000000e+00
-3.473838806152343750e+01 -1.832721352577209029e+00 -6.072041392326354980e-01 2.000000000000000000e+01
-2.552475690841674805e+00 -1.310894489288330078e-01 -6.848351955413818359e-01 2.200000000000000000e+01
-2.993270874023437944e+00 -1.526801139116286954e-01 -6.919494271278381348e-01 2.200000000000000000e+01
-4.499208450317382812e+01 -2.287073373794556108e+00 2.360979557037353960e+00 3.500000000000000000e+01
-3.556751012802124023e+00 -1.807996034622192105e-01 -6.922550201416015625e-01 1.200000000000000000e+01
-4.481711959838867188e+01 -2.270337343215941939e+00 3.926017522811890093e+00 5.400000000000000000e+01
-4.454727649688720703e+00 -2.248872816562652865e-01 -7.064580321311950684e-01 1.000000000000000000e+01
-5.876433372497558594e+00 -2.946025729179381769e-01 -7.224414944648742676e-01 1.100000000000000000e+01
-8.616300582885742188e+00 -4.304524064064025879e-01 -7.547687292098999023e-01 2.000000000000000000e+00
-1.720121192932128906e+01 -8.533174991607666016e-01 -9.025859236717224121e-01 5.000000000000000000e+00
-3.471661376953125000e+01 -1.710073232650757058e+00 -6.067154407501220703e-01 2.000000000000000000e+01
-2.560636281967163086e+00 -1.225482374429703036e-01 -6.869057416915893555e-01 2.100000000000000000e+01
-2.989892482757567915e+00 -1.420457661151885986e-01 -6.910496354103088379e-01 2.100000000000000000e+01
-4.493994140625000000e+01 -2.127174854278564009e+00 2.357839584350585938e+00 3.400000000000000000e+01
-3.559321641921997070e+00 -1.684759557247161865e-01 -6.926366686820983887e-01 1.800000000000000000e+01
-4.481282806396483664e+01 -2.113319396972655806e+00 3.924971818923950195e+00 5.400000000000000000e+01
-4.435753345489501953e+00 -2.084089219570159912e-01 -7.033293843269348145e-01 1.000000000000000000e+01
-5.857596874237061435e+00 -2.731634676456450861e-01 -7.200040817260742188e-01 1.100000000000000000e+01
-8.613770484924316406e+00 -4.001883566379547119e-01 -7.544201016426086426e-01 2.000000000000000000e+00
-1.720408630371094105e+01 -7.932688593864440918e-01 -9.025859236717224121e-01 5.000000000000000000e+00
-3.473835372924804688e+01 -1.589610457420348899e+00 -6.069946885108947754e-01 1.300000000000000000e+01
-2.562978506088256836e+00 -1.136948168277740062e-01 -6.874234080314636230e-01 1.800000000000000000e+01
-4.491133117675781250e+01 -1.984431982040405051e+00 7.846950888633728027e-01 4.900000000000000000e+01
-2.982582807540893999e+00 -1.312654912471770963e-01 -6.892500519752502441e-01 2.100000000000000000e+01
-4.493112945556641336e+01 -1.969592571258544922e+00 2.357002019882202148e+00 3.400000000000000000e+01
-3.571656227111815962e+00 -1.565664410591124933e-01 -6.949263811111450195e-01 2.000000000000000000e+01
-4.479206466674804688e+01 -1.955663800239562988e+00 3.922531366348267046e+00 5.400000000000000000e+01
-4.440401077270507812e+00 -1.930956244468688965e-01 -7.039551138877868652e-01 1.000000000000000000e+01
-5.862481117248535156e+00 -2.528860867023468018e-01 -7.204915285110473633e-01 1.100000000000000000e+01
-8.587246894836425781e+00 -3.689210116863250732e-01 -7.519797682762145996e-01 2.000000000000000000e+00
-3.473170089721679688e+01 -1.467834711074829102e+00 -6.067852377891540527e-01 1.300000000000000000e+01
-2.580731868743896040e+00 -1.054575443267821988e-01 -6.920821070671081543e-01 2.100000000000000000e+01
-4.471018981933593750e+01 -1.819195151329040971e+00 7.810649871826171875e-01 4.800000000000000000e+01
-2.979128360748291016e+00 -1.206957623362541060e-01 -6.883502006530761719e-01 2.400000000000000000e+01
-3.562372684478760210e+00 -1.437024325132369995e-01 -6.930182576179504395e-01 2.000000000000000000e+01
-4.481852722167968750e+01 -1.800098061561584029e+00 3.924274444580078125e+00 5.400000000000000000e+01
-4.446969509124755859e+00 -1.778313517570495883e-01 -7.048937082290649414e-01 1.300000000000000000e+01
-5.839525699615479404e+00 -2.314771413803100863e-01 -7.175666689872741699e-01 1.100000000000000000e+01
-8.580518722534179688e+00 -3.386294245719910223e-01 -7.512825131416320801e-01 3.000000000000000000e+00
-3.470064544677733664e+01 -1.345195174217223899e+00 -6.061570048332214355e-01 1.300000000000000000e+01
-2.569501161575316939e+00 -9.601563960313796997e-02 -6.889762878417968750e-01 2.100000000000000000e+01
-4.473624801635742188e+01 -1.663859605789185014e+00 7.814140319824218750e-01 4.800000000000000000e+01
-2.979531526565552202e+00 -1.102959290146827975e-01 -6.883502006530761719e-01 2.200000000000000000e+01
-3.549119234085083008e+00 -1.307605654001235962e-01 -6.903469562530517578e-01 2.000000000000000000e+01
-4.480462646484375000e+01 -1.642911076545715110e+00 3.922531366348267046e+00 5.400000000000000000e+01
-4.447563171386718750e+00 -1.623074561357497891e-01 -7.048937082290649414e-01 1.500000000000000000e+01
-5.840298175811767578e+00 -2.110919803380965909e-01 -7.175666689872741699e-01 1.100000000000000000e+01
-8.581648826599121094e+00 -3.086757361888884943e-01 -7.512825131416320801e-01 3.000000000000000000e+00
-1.701185035705566051e+01 -6.059582233428955078e-01 -8.921186923980712891e-01 5.000000000000000000e+00
-3.464917373657227273e+01 -1.222085595130919966e+00 -6.051796674728393555e-01 1.300000000000000000e+01
-2.548567533493041992e+00 -8.677124977111816406e-02 -6.832822561264038086e-01 2.000000000000000000e+01
-4.470554733276367188e+01 -1.514281153678894043e+00 7.807857394218444824e-01 4.800000000000000000e+01
-2.987671613693236861e+00 -1.006773635745048939e-01 -6.901498436927795410e-01 2.200000000000000000e+01
-3.555419683456420898e+00 -1.191878765821457048e-01 -6.914917826652526855e-01 2.000000000000000000e+01
-4.478593444824218750e+01 -1.493527650833130105e+00 3.920439720153809038e+00 5.400000000000000000e+01
-4.446102619171142578e+00 -1.474924087524414062e-01 -7.045808434486389160e-01 1.700000000000000000e+01
-5.833029747009277344e+00 -1.914632022380829135e-01 -7.165917158126831055e-01 1.500000000000000000e+01
-8.558729171752929688e+00 -2.794360816478729248e-01 -7.491907477378845215e-01 3.000000000000000000e+00
-1.701376724243164062e+01 -5.495415329933166504e-01 -8.921186923980712891e-01 5.000000000000000000e+00
-3.465303421020507812e+01 -1.107177972793579102e+00 -6.051796674728393555e-01 1.300000000000000000e+01
-2.556578636169434038e+00 -7.811053842306137085e-02 -6.853528022766113281e-01 1.900000000000000000e+01
-4.472255325317382812e+01 -1.358584761619568093e+00 7.809951901435852051e-01 4.800000000000000000e+01
-2.982161283493041992e+00 -9.007133543491363525e-02 -6.888001561164855957e-01 2.300000000000000000e+01
-3.547964572906494141e+00 -1.065407097339629988e-01 -6.899653077125549316e-01 2.000000000000000000e+01
-4.481477355957031250e+01 -1.337899923324584961e+00 3.922531366348267046e+00 5.400000000000000000e+01
-4.414998054504395419e+00 -1.310340911149978915e-01 -6.995749473571777344e-01 1.700000000000000000e+01
-5.839615345001220703e+00 -1.712755560874938965e-01 -7.173229455947875977e-01 1.300000000000000000e+01
-8.575584411621093750e+00 -2.500233650207520086e-01 -7.505852580070495605e-01 2.000000000000000000e+00
-1.691576004028319957e+01 -4.872736036777495783e-01 -8.868851065635681152e-01 5.000000000000000000e+00
-3.465668869018554688e+01 -9.862096309661865234e-01 -6.051796674728393555e-01 1.300000000000000000e+01
-2.560709953308105025e+00 -6.884352117776870728e-02 -6.863881349563598633e-01 2.000000000000000000e+01
-4.470724105834960938e+01 -1.194125413894653098e+00 7.806461453437805176e-01 4.800000000000000000e+01
-2.976627111434936968e+00 -7.898548245429992676e-02 -6.874504089355468750e-01 2.200000000000000000e+01
-3.560106754302978960e+00 -9.384646266698837280e-02 -6.922550201416015625e-01 1.900000000000000000e+01
-4.485124206542968750e+01 -1.174471139907836914e+00 3.925320386886597124e+00 5.400000000000000000e+01
-4.427297115325927734e+00 -1.151596158742904941e-01 -7.014521360397338867e-01 1.500000000000000000e+01
-5.822343826293945312e+00 -1.494128257036209106e-01 -7.151293158531188965e-01 1.500000000000000000e+01
-8.560509681701660156e+00 -2.181844860315322876e-01 -7.491907477378845215e-01 4.000000000000000000e+00
-3.466007232666016336e+01 -8.591798543930053711e-01 -6.051796674728393555e-01 1.300000000000000000e+01
-2.559003353118896040e+00 -5.985938012599945068e-02 -6.858704686164855957e-01 2.200000000000000000e+01
-4.474312591552733664e+01 -1.038803339004517046e+00 7.812046408653259277e-01 4.800000000000000000e+01
-2.972988367080688032e+00 -6.850485503673553467e-02 -6.865506172180175781e-01 2.200000000000000000e+01
-3.548636198043822798e+00 -8.114949613809585571e-02 -6.899653077125549316e-01 2.000000000000000000e+01
-4.485108566284179688e+01 -1.017813444137573020e+00 3.924971818923950195e+00 5.400000000000000000e+01
-4.429646968841552734e+00 -9.974923729896545410e-02 -7.017650008201599121e-01 1.700000000000000000e+01
-5.818861007690429688e+00 -1.290001422166824063e-01 -7.146418094635009766e-01 1.500000000000000000e+01
-8.541299819946289062e+00 -1.878632754087448120e-01 -7.474476695060729980e-01 3.000000000000000000e+00
-3.467485427856445312e+01 -7.384438514709472656e-01 -6.053890585899353027e-01 1.300000000000000000e+01
-2.557265281677246094e+00 -5.088799446821212769e-02 -6.853528022766113281e-01 2.300000000000000000e+01
-4.473048400878906250e+01 -8.822988867759704590e-01 7.809253931045532227e-01 4.800000000000000000e+01
-2.975157737731934038e+00 -5.816486105322837830e-02 -6.870005130767822266e-01 2.000000000000000000e+01
-3.541046380996704102e+00 -6.860981881618499756e-02 -6.884388327598571777e-01 2.000000000000000000e+01
-4.482647705078125000e+01 -8.607122898101806641e-01 3.922531366348267046e+00 5.400000000000000000e+01
-4.427993297576904297e+00 -8.424869924783706665e-02 -7.014521360397338867e-01 1.600000000000000000e+01
-5.813321590423583984e+00 -1.085765361785888949e-01 -7.139106392860412598e-01 1.300000000000000000e+01
-8.517998695373535156e+00 -1.576051414012908936e-01 -7.453559041023254395e-01 4.000000000000000000e+00
-1.672029495239258168e+01 -3.035305142402648926e-01 -8.764179348945617676e-01 5.000000000000000000e+00
-3.462923431396483664e+01 -6.165472269058227539e-01 -6.045513749122619629e-01 1.300000000000000000e+01
-2.545837879180908203e+00 -4.177100583910942078e-02 -6.822469830513000488e-01 2.000000000000000000e+01
-4.472529220581054688e+01 -7.260251641273498535e-01 7.807857394218444824e-01 4.800000000000000000e+01
-2.969497203826903853e+00 -4.768539965152739785e-02 -6.856508255004882812e-01 1.600000000000000000e+01
-3.545190095901488814e+00 -5.631120502948760986e-02 -6.892020702362060547e-01 1.400000000000000000e+01
-4.482920837402343750e+01 -7.042334675788879395e-01 3.922531366348267046e+00 5.400000000000000000e+01
-4.426285266876220703e+00 -6.876092404127120972e-02 -7.011392712593078613e-01 1.100000000000000000e+01
-5.815649986267089844e+00 -8.831373602151870728e-02 -7.141543626785278320e-01 1.500000000000000000e+01
-8.506544113159179688e+00 -1.276913881301879883e-01 -7.443100214004516602e-01 4.000000000000000000e+00
-1.667731857299805043e+01 -2.445197701454162875e-01 -8.741151690483093262e-01 5.000000000000000000e+00
-3.461118316650391336e+01 -4.953786730766295832e-01 -6.042023301124572754e-01 1.300000000000000000e+01
-2.549825668334960938e+00 -3.337904810905457237e-02 -6.832822561264038086e-01 2.000000000000000000e+01
-4.476344680786132812e+01 -5.781716108322143555e-01 7.814140319824218750e-01 4.800000000000000000e+01
-2.977433204650878906e+00 -3.793724253773689270e-02 -6.874504089355468750e-01 1.400000000000000000e+01
-4.504652023315429688e+01 -5.739644169807434082e-01 2.360979557037353960e+00 3.500000000000000000e+01
-3.535542011260985884e+00 -4.443126916885375977e-02 -6.872940063476562500e-01 1.200000000000000000e+01
-4.485918807983397727e+01 -5.559162497520446777e-01 3.924971818923950195e+00 5.400000000000000000e+01
-4.412662029266357422e+00 -5.391352251172065735e-02 -6.989492177963256836e-01 1.000000000000000000e+01
-5.805985927581787109e+00 -6.891006231307983398e-02 -7.129356861114501953e-01 1.100000000000000000e+01
-8.479029655456542969e+00 -9.915579855442047119e-02 -7.418696880340576172e-01 2.000000000000000000e+00
-1.662211799621582031e+01 -1.885800361633301059e-01 -8.711843490600585938e-01 5.000000000000000000e+00
-3.460463714599608664e+01 -3.805131912231444757e-01 -6.040626764297485352e-01 1.300000000000000000e+01
-2.557653665542602983e+00 -2.455246821045875896e-02 -6.853528022766113281e-01 2.600000000000000000e+01
-4.470920181274414062e+01 -4.213867783546447754e-01 7.804366946220397949e-01 4.800000000000000000e+01
-2.961958169937133789e+00 -2.739962190389632832e-02 -6.838511824607849121e-01 1.400000000000000000e+01
-4.504824829101563211e+01 -4.167192280292510986e-01 2.360979557037353960e+00 3.500000000000000000e+01
-3.551380872726439986e+00 -3.223219513893126748e-02 -6.903469562530517578e-01 1.200000000000000000e+01
-4.479311752319335938e+01 -3.987220823764801025e-01 3.919045209884643999e+00 5.400000000000000000e+01
-4.420724868774414062e+00 -3.857908025383949280e-02 -7.002006769180297852e-01 1.100000000000000000e+01
-5.794281005859375000e+00 -4.854319244623184204e-02 -7.114732265472412109e-01 1.100000000000000000e+01
-8.489285469055175781e+00 -6.963957846164703369e-02 -7.427412271499633789e-01 3.000000000000000000e+00
-3.462974929809570312e+01 -2.598982453346251886e-01 -6.044815778732299805e-01 1.300000000000000000e+01
-2.561587572097777876e+00 -1.564804278314113964e-02 -6.863881349563598633e-01 2.900000000000000000e+01
-4.472240066528320312e+01 -2.653911709785460871e-01 7.806461453437805176e-01 4.800000000000000000e+01
-2.963984489440917969e+00 -1.707151532173157085e-02 -6.843010783195495605e-01 1.300000000000000000e+01
-4.497752761840820312e+01 -2.590548396110535223e-01 2.357211351394652876e+00 3.400000000000000000e+01
-3.539692401885985884e+00 -1.976957730948925018e-02 -6.880572438240051270e-01 1.200000000000000000e+01
-4.483408355712891336e+01 -2.425781041383743009e-01 3.922531366348267046e+00 5.400000000000000000e+01
-4.416881561279296875e+00 -2.312695048749446869e-02 -6.995749473571777344e-01 1.000000000000000000e+01
-5.800370216369628906e+00 -2.834618277847766876e-02 -7.122044563293457031e-01 1.100000000000000000e+01
-8.503423690795898438e+00 -4.007173702120780945e-02 -7.439613938331604004e-01 2.000000000000000000e+00
-3.459045028686522727e+01 -1.388557255268096924e-01 -6.037834286689758301e-01 1.300000000000000000e+01
-2.550035476684569868e+00 -6.675992626696825027e-03 -6.832822561264038086e-01 3.400000000000000000e+01
-4.471505355834960938e+01 -1.092597097158432007e-01 7.805064916610717773e-01 4.800000000000000000e+01
-2.960128545761107954e+00 -6.716330535709857941e-03 -6.834012866020202637e-01 1.300000000000000000e+01
-4.505006027221679688e+01 -1.022155210375785966e-01 2.360979557037353960e+00 3.500000000000000000e+01
-3.525997161865233931e+00 -7.384841796010732651e-03 -6.853858828544616699e-01 1.200000000000000000e+01
-4.481074905395507812e+01 -8.603056520223617554e-02 3.920439720153809038e+00 5.400000000000000000e+01
-4.416935443878173828e+00 -7.709014695137739182e-03 -6.995749473571777344e-01 1.000000000000000000e+01
-5.784553527832031250e+00 -8.076765574514865875e-03 -7.102545499801635742e-01 1.100000000000000000e+01
-8.471632957458496094e+00 -1.035005785524844950e-02 -7.411724328994750977e-01 2.000000000000000000e+00
-3.455473327636718750e+01 -1.809281669557094921e-02 -6.031551957130432129e-01 1.300000000000000000e+01
-2.532656669616699219e+00 2.210160251706839041e-03 -6.786235570907592773e-01 3.300000000000000000e+01
-4.473915863037108664e+01 4.685075581073760986e-02 7.809253931045532227e-01 4.800000000000000000e+01
-2.965980291366577148e+00 3.623630385845900016e-03 -6.847510337829589844e-01 1.400000000000000000e+01
-4.501018524169921875e+01 6.284611672163009644e-02 2.358886241912841797e+00 3.400000000000000000e+01
-3.522074937820435014e+00 4.917747341096401215e-03 -6.846227049827575684e-01 1.100000000000000000e+01
-4.483468246459960938e+01 7.042621076107025146e-02 3.922531366348267046e+00 5.400000000000000000e+01
-4.397181987762451172e+00 7.674537599086760607e-03 -6.964462399482727051e-01 1.000000000000000000e+01
-5.780576229095458984e+00 1.210682839155196970e-02 -7.097670435905456543e-01 1.100000000000000000e+01
-8.441732406616210938e+00 1.915371604263782848e-02 -7.385577559471130371e-01 3.000000000000000000e+00
-3.457857894897460938e+01 1.025970131158829013e-01 -6.035740375518798828e-01 1.300000000000000000e+01
-2.538429021835327148e+00 1.107605546712875019e-02 -6.801764369010925293e-01 4.200000000000000000e+01
-4.474272537231445312e+01 2.030374258756638128e-01 7.809951901435852051e-01 4.800000000000000000e+01
-2.958154678344727007e+00 1.394007820636034012e-02 -6.829513907432556152e-01 1.400000000000000000e+01
-4.498971939086914062e+01 2.198629975318908969e-01 2.357839584350585938e+00 3.400000000000000000e+01
-3.541668653488159180e+00 1.730799488723278046e-02 -6.884388327598571777e-01 1.200000000000000000e+01
-4.486205673217772727e+01 2.270692139863967896e-01 3.924971818923950195e+00 5.400000000000000000e+01
-4.393177509307861328e+00 2.300283312797546040e-02 -6.958205103874206543e-01 1.000000000000000000e+01
-5.780498504638671875e+00 3.228472918272017739e-02 -7.097670435905456543e-01 1.100000000000000000e+01
-8.455560684204101562e+00 4.870107024908065796e-02 -7.397779226303100586e-01 2.000000000000000000e+00
-3.453601837158203125e+01 2.230269759893417081e-01 -6.028410196304321289e-01 2.000000000000000000e+01
-2.548040628433227983e+00 1.912318915128707886e-02 -6.827646493911743164e-01 3.300000000000000000e+01
-4.472986602783203125e+01 3.435074687004088800e-01 7.807857394218444824e-01 4.800000000000000000e+01
-2.946404218673706055e+00 2.314148098230361938e-02 -6.802520155906677246e-01 1.300000000000000000e+01
-4.504872512817382812e+01 3.616821169853209894e-01 2.360979557037353960e+00 3.500000000000000000e+01
-3.551412582397460938e+00 2.851318195462226868e-02 -6.903469562530517578e-01 1.200000000000000000e+01
-4.483322906494141336e+01 3.677773773670197088e-01 3.922531366348267046e+00 5.400000000000000000e+01
-4.385182380676270419e+00 3.673807531595230103e-02 -6.945690512657165527e-01 9.000000000000000000e+00
-5.776398658752441406e+00 5.040986835956572792e-02 -7.092795968055725098e-01 1.100000000000000000e+01
-8.431457519531250000e+00 7.505189627408981323e-02 -7.376862168312072754e-01 2.000000000000000000e+00
-3.454114532470703125e+01 3.315813839435576837e-01 -6.029457449913024902e-01 1.300000000000000000e+01
-2.549890041351317915e+00 2.803863584995270122e-02 -6.832822561264038086e-01 3.100000000000000000e+01
-4.474439239501953125e+01 4.998204410076140802e-01 7.810649871826171875e-01 4.800000000000000000e+01
-2.950202703475952148e+00 3.347042202949523926e-02 -6.811518073081970215e-01 1.300000000000000000e+01
-4.494733047485352273e+01 5.177789926528930664e-01 2.355746030807495117e+00 3.400000000000000000e+01
-3.529697179794311968e+00 4.066099226474761963e-02 -6.861491203308105469e-01 1.300000000000000000e+01
-4.483167266845703125e+01 5.242723226547241211e-01 3.922531366348267046e+00 5.400000000000000000e+01
-4.400829315185546875e+00 5.223254486918448708e-02 -6.970719695091247559e-01 1.000000000000000000e+01
-5.768247604370117188e+00 7.047594338655471802e-02 -7.083046436309814453e-01 1.100000000000000000e+01
-8.419191360473632812e+00 1.043345928192138949e-01 -7.366403341293334961e-01 3.000000000000000000e+00
-3.448179244995117188e+01 4.513913989067078192e-01 -6.019334793090820312e-01 2.000000000000000000e+01
-2.538186788558959961e+00 3.677133470773696899e-02 -6.801764369010925293e-01 2.600000000000000000e+01
-4.477436828613281250e+01 6.564735174179077148e-01 7.816234827041625977e-01 4.800000000000000000e+01
-2.961759090423583984e+00 4.394180327653884888e-02 -6.838511824607849121e-01 1.300000000000000000e+01
-4.496921539306641336e+01 6.750310063362121582e-01 2.357002019882202148e+00 3.400000000000000000e+01
-3.517755508422852007e+00 5.280488356947898865e-02 -6.838594675064086914e-01 1.100000000000000000e+01
-4.482957077026367188e+01 6.807608604431152344e-01 3.922531366348267046e+00 5.400000000000000000e+01
-4.400619983673095703e+00 6.759399175643920898e-02 -6.970719695091247559e-01 1.000000000000000000e+01
-5.754072666168212891e+00 9.039219468832015991e-02 -7.065984606742858887e-01 9.000000000000000000e+00
-8.410806655883789062e+00 1.335958391427994052e-01 -7.359430789947509766e-01 3.000000000000000000e+00
-3.452399444580078125e+01 5.724819898605346680e-01 -6.027014255523681641e-01 2.000000000000000000e+01
-2.532248258590697798e+00 4.552685841917992332e-02 -6.786235570907592773e-01 2.400000000000000000e+01
-4.474781036376953125e+01 8.123257160186767578e-01 7.812046408653259277e-01 4.800000000000000000e+01
-2.957690715789794922e+00 5.420858412981033325e-02 -6.829513907432556152e-01 1.400000000000000000e+01
-4.499054718017578125e+01 8.324421048164367676e-01 2.358258247375487837e+00 3.400000000000000000e+01
-3.517549753189086914e+00 6.508381664752960205e-02 -6.838594675064086914e-01 1.200000000000000000e+01
-4.482691955566406250e+01 8.372411131858825684e-01 3.922531366348267046e+00 5.400000000000000000e+01
-4.380607128143311435e+00 8.258228003978729248e-02 -6.939432621002197266e-01 9.000000000000000000e+00
-5.757691383361816406e+00 1.105533242225646973e-01 -7.070859074592590332e-01 1.100000000000000000e+01
-8.410289764404296875e+00 1.629542261362076083e-01 -7.359430789947509766e-01 2.000000000000000000e+00
-3.449979400634766336e+01 6.925482153892517090e-01 -6.023174524307250977e-01 2.000000000000000000e+01
-2.528201580047606978e+00 5.472409352660179138e-02 -6.775882840156555176e-01 2.200000000000000000e+01
-4.473653411865233664e+01 9.761546850204467773e-01 7.810649871826171875e-01 4.800000000000000000e+01
-2.955523967742919922e+00 6.500584632158279419e-02 -6.825014948844909668e-01 1.500000000000000000e+01
-4.499917221069335938e+01 9.976007342338562012e-01 2.358886241912841797e+00 3.400000000000000000e+01
-3.509436607360839844e+00 7.780179381370544434e-02 -6.823329925537109375e-01 1.100000000000000000e+01
-4.482355117797852273e+01 1.001534342765808105e+00 3.922531366348267046e+00 5.400000000000000000e+01
-4.368425846099854404e+00 9.837062656879425049e-02 -6.920660734176635742e-01 1.000000000000000000e+01
-5.775108814239501953e+00 1.320640146732330045e-01 -7.092795968055725098e-01 1.100000000000000000e+01
-8.381750106811523438e+00 1.931358277797698975e-01 -7.335027456283569336e-01 2.000000000000000000e+00
-3.448702621459960938e+01 8.187543153762817383e-01 -6.021429300308227539e-01 2.000000000000000000e+01
-2.535720109939575195e+00 6.374301761388778687e-02 -6.796588301658630371e-01 2.200000000000000000e+01
-4.477283477783203125e+01 1.133320450782776101e+00 7.817630767822265625e-01 4.800000000000000000e+01
-2.943590402603148970e+00 7.502423971891403198e-02 -6.798020601272583008e-01 1.300000000000000000e+01
-4.503535079956054688e+01 1.155695796012877974e+00 2.360979557037353960e+00 3.500000000000000000e+01
-3.528769731521606001e+00 9.055518358945846558e-02 -6.861491203308105469e-01 1.100000000000000000e+01
-4.481978225708007812e+01 1.157991647720336914e+00 3.922531366348267046e+00 5.400000000000000000e+01
-4.375954627990722656e+00 1.138241365551948964e-01 -6.933175325393676758e-01 9.000000000000000000e+00
-5.746830940246582031e+00 1.514897644519805908e-01 -7.058672308921813965e-01 1.100000000000000000e+01
-8.412891387939453125e+00 2.232380062341690063e-01 -7.362917065620422363e-01 2.000000000000000000e+00
-1.621787643432616832e+01 4.360102117061614990e-01 -8.502499461174011230e-01 4.000000000000000000e+00
-3.450194931030272727e+01 9.396215081214904785e-01 -6.024570465087890625e-01 2.000000000000000000e+01
-2.556736707687377930e+00 7.275588810443878174e-02 -6.853528022766113281e-01 1.800000000000000000e+01
-4.474884414672852273e+01 1.281213998794556108e+00 7.814140319824218750e-01 4.800000000000000000e+01
-2.945273399353026900e+00 8.484123647212982178e-02 -6.802520155906677246e-01 1.400000000000000000e+01
-4.503126907348632812e+01 1.305032014846801980e+00 2.360979557037353960e+00 3.500000000000000000e+01
-3.504900693893433061e+00 1.015740409493445934e-01 -6.815697550773620605e-01 1.100000000000000000e+01
-4.484357833862304688e+01 1.307425975799560991e+00 3.924971818923950195e+00 5.400000000000000000e+01
-4.375553131103515625e+00 1.283347010612488071e-01 -6.933175325393676758e-01 9.000000000000000000e+00
-5.754233837127686435e+00 1.707816720008850098e-01 -7.068421840667724609e-01 1.100000000000000000e+01
-8.386215209960937500e+00 2.503620386123657227e-01 -7.340256571769714355e-01 3.000000000000000000e+00
-3.453062438964843750e+01 1.055006027221679910e+00 -6.030155420303344727e-01 1.300000000000000000e+01
-2.554536104202270952e+00 8.161842823028564453e-02 -6.848351955413818359e-01 1.900000000000000000e+01
-4.475609207153320312e+01 1.437793970108032005e+00 7.816234827041625977e-01 4.800000000000000000e+01
-2.954697847366333008e+00 9.543620049953460693e-02 -6.825014948844909668e-01 1.300000000000000000e+01
-4.502643966674804688e+01 1.462212562561034934e+00 2.360979557037353960e+00 3.500000000000000000e+01
-3.504524946212768999e+00 1.138078048825263977e-01 -6.815697550773620605e-01 1.100000000000000000e+01
-4.484272384643554688e+01 1.464081287384032981e+00 3.925320386886597124e+00 5.400000000000000000e+01
-4.369155406951904297e+00 1.434130370616913119e-01 -6.923789381980895996e-01 1.000000000000000000e+01
-5.745666503906250000e+00 1.906033903360367099e-01 -7.058672308921813965e-01 1.100000000000000000e+01
-8.353429794311523438e+00 2.785713672637938898e-01 -7.312366962432861328e-01 3.000000000000000000e+00
-3.447876739501953125e+01 1.173900842666625977e+00 -6.021778583526611328e-01 1.300000000000000000e+01
-2.536859989166260210e+00 8.991904556751251221e-02 -6.801764369010925293e-01 1.600000000000000000e+01
-4.474680328369141336e+01 1.593870759010314941e+00 7.815536856651306152e-01 4.800000000000000000e+01
-2.944609403610229048e+00 1.054008901119232039e-01 -6.802520155906677246e-01 1.400000000000000000e+01
-4.502106094360352273e+01 1.619375228881835938e+00 2.360979557037353960e+00 3.500000000000000000e+01
-3.504106283187866211e+00 1.260401904582977017e-01 -6.815697550773620605e-01 1.100000000000000000e+01
-4.483335494995117188e+01 1.620458722114562988e+00 3.924971818923950195e+00 5.400000000000000000e+01
-4.368628501892089844e+00 1.586633622646332065e-01 -6.923789381980895996e-01 1.000000000000000000e+01
-5.737031459808349609e+00 2.103673815727233887e-01 -7.048922777175903320e-01 1.100000000000000000e+01
-8.360370635986328125e+00 3.080220222473145086e-01 -7.319339513778686523e-01 3.000000000000000000e+00
-3.447246170043945312e+01 1.294172048568726030e+00 -6.021429300308227539e-01 2.000000000000000000e+01
-2.536530733108520952e+00 9.877379238605499268e-02 -6.801764369010925293e-01 1.500000000000000000e+01
-4.478092956542968750e+01 1.751619696617126021e+00 7.822517752647399902e-01 4.800000000000000000e+01
-2.948117971420288086e+00 1.158318668603896956e-01 -6.811518073081970215e-01 1.300000000000000000e+01
-4.501513290405272727e+01 1.776518225669861062e+00 2.360979557037353960e+00 3.500000000000000000e+01
-3.511491775512694868e+00 1.385807096958160123e-01 -6.830962300300598145e-01 1.100000000000000000e+01
-4.483140945434570312e+01 1.777104377746582031e+00 3.925320386886597124e+00 5.400000000000000000e+01
-4.352257251739501953e+00 1.732830554246901911e-01 -6.898760199546813965e-01 1.000000000000000000e+01
-5.724360942840576172e+00 2.299140989780426025e-01 -7.034298777580261230e-01 1.100000000000000000e+01
-8.357254028320312500e+00 3.371229767799376886e-01 -7.317596077919006348e-01 2.000000000000000000e+00
-1.601076126098633168e+01 6.514555215835571289e-01 -8.397827744483947754e-01 4.000000000000000000e+00
-3.444175720214843750e+01 1.413429617881774902e+00 -6.016891598701477051e-01 1.300000000000000000e+01
-2.551630258560181108e+00 1.078372523188591003e-01 -6.843175292015075684e-01 1.700000000000000000e+01
-4.475090026855468750e+01 1.899091601371764915e+00 7.818328738212585449e-01 4.800000000000000000e+01
-2.930194854736328125e+00 1.248608678579330028e-01 -6.771026849746704102e-01 1.200000000000000000e+01
-4.501099014282227273e+01 1.925869464874268022e+00 2.361084222793579102e+00 3.500000000000000000e+01
-3.509051561355590820e+00 1.501405537128447931e-01 -6.827145814895629883e-01 1.200000000000000000e+01
-4.485711669921875000e+01 1.927129149436950906e+00 3.928109407424927202e+00 5.400000000000000000e+01
-4.351658821105957031e+00 1.877147108316422064e-01 -6.898760199546813965e-01 1.000000000000000000e+01
-5.731500148773193359e+00 2.492404580116271973e-01 -7.044048309326171875e-01 1.100000000000000000e+01
-8.352108955383300781e+00 3.646609485149384100e-01 -7.314109802246093750e-01 3.000000000000000000e+00
-1.600851249694823863e+01 7.045455574989318848e-01 -8.397827744483947754e-01 4.000000000000000000e+00
-3.440092468261718750e+01 1.526039600372314009e+00 -6.010608673095703125e-01 2.000000000000000000e+01
-2.564747095108031782e+00 1.173616051673889021e-01 -6.879410147666931152e-01 2.100000000000000000e+01
-4.474399948120117188e+01 2.055289745330810991e+00 7.818328738212585449e-01 4.800000000000000000e+01
-2.929741144180297852e+00 1.350883990526199063e-01 -6.771026849746704102e-01 1.200000000000000000e+01
-4.500399398803710938e+01 2.082975387573242188e+00 2.361084222793579102e+00 3.500000000000000000e+01
-3.504583835601807085e+00 1.622069776058197021e-01 -6.819513440132141113e-01 1.200000000000000000e+01
-4.490982437133789062e+01 2.086471796035767046e+00 3.933338642120360884e+00 5.400000000000000000e+01
-4.352950096130371094e+00 2.029957175254822055e-01 -6.901888847351074219e-01 1.000000000000000000e+01
-5.718697547912597656e+00 2.686866223812103271e-01 -7.029423713684082031e-01 1.100000000000000000e+01
-8.322922706604003906e+00 3.924990594387053888e-01 -7.289706468582153320e-01 2.000000000000000000e+00
-1.581044578552245916e+01 7.511329650878906250e-01 -8.295249342918395996e-01 4.000000000000000000e+00
-3.436742401123046875e+01 1.644773721694946067e+00 -6.005722284317016602e-01 1.300000000000000000e+01
-2.560440778732299805e+00 1.265703290700911920e-01 -6.869057416915893555e-01 2.400000000000000000e+01
-4.474814605712891336e+01 2.219865322113037109e+00 7.820423245429992676e-01 4.800000000000000000e+01
-2.937011718750000000e+00 1.462130993604660034e-01 -6.789022684097290039e-01 1.200000000000000000e+01
-3.494161605834960938e+00 1.745610386133193970e-01 -6.800432801246643066e-01 1.200000000000000000e+01
-4.484217834472656250e+01 2.248067855834960938e+00 3.928109407424927202e+00 5.400000000000000000e+01
-4.348231315612792969e+00 2.187502086162567139e-01 -6.895630955696105957e-01 9.000000000000000000e+00
-5.717674732208251953e+00 2.896448969841002863e-01 -7.029423713684082031e-01 1.100000000000000000e+01
-8.289590835571289062e+00 4.213831126689910889e-01 -7.261816263198852539e-01 2.000000000000000000e+00
-3.434518814086914062e+01 1.769902229309082031e+00 -6.002929806709289551e-01 1.300000000000000000e+01
-2.546479225158690962e+00 1.347923576831817905e-01 -6.832822561264038086e-01 2.300000000000000000e+01
-4.476408767700195312e+01 2.377324581146239790e+00 7.824611663818359375e-01 4.800000000000000000e+01
-2.950105190277100053e+00 1.571900993585587103e-01 -6.820515990257263184e-01 1.300000000000000000e+01
-3.493530988693236861e+00 1.867568641901015958e-01 -6.800432801246643066e-01 1.200000000000000000e+01
-4.481018447875977273e+01 2.403302192687987837e+00 3.926017522811890093e+00 5.400000000000000000e+01
-4.355331420898438388e+00 2.343515753746032992e-01 -6.908146142959594727e-01 1.000000000000000000e+01
-5.716628551483154297e+00 3.096015453338623047e-01 -7.029423713684082031e-01 1.100000000000000000e+01
-8.292048454284667969e+00 4.505327939987183172e-01 -7.265302538871765137e-01 2.000000000000000000e+00
-3.435277557373046875e+01 1.890547752380371094e+00 -6.005373001098632812e-01 1.900000000000000000e+01
-2.551779508590697798e+00 1.440069526433944980e-01 -6.848351955413818359e-01 2.700000000000000000e+01
-4.475551605224608664e+01 2.533565998077393022e+00 7.824611663818359375e-01 4.800000000000000000e+01
-2.937865018844604048e+00 1.668240576982497891e-01 -6.793521642684936523e-01 1.200000000000000000e+01
-3.496778011322021040e+00 1.991737186908721924e-01 -6.808065176010131836e-01 1.200000000000000000e+01
-4.484130477905272727e+01 2.561977148056029829e+00 3.929503917694091797e+00 5.400000000000000000e+01
-4.322932243347167969e+00 2.477447390556334894e-01 -6.858087182044982910e-01 1.000000000000000000e+01
-5.711549282073974609e+00 3.293258845806121826e-01 -7.024549245834350586e-01 1.100000000000000000e+01
-8.266556739807128906e+00 4.780942499637603760e-01 -7.244385480880737305e-01 2.000000000000000000e+00
-1.580155277252197088e+01 9.194132089614868164e-01 -8.295249342918395996e-01 4.000000000000000000e+00
-3.437192153930664062e+01 2.011968851089477983e+00 -6.009910702705383301e-01 1.300000000000000000e+01
-2.543547630310059038e+00 1.524511277675628940e-01 -6.827646493911743164e-01 2.100000000000000000e+01
-4.476636123657227273e+01 2.690976381301879883e+00 7.828102111816406250e-01 4.800000000000000000e+01
-2.923648357391356978e+00 1.762572079896926880e-01 -6.762028932571411133e-01 1.300000000000000000e+01
-3.499980688095093218e+00 2.116155177354812900e-01 -6.815697550773620605e-01 1.100000000000000000e+01
-4.483606719970703125e+01 2.718728065490723100e+00 3.929852485656737837e+00 5.400000000000000000e+01
-4.316126346588134766e+00 2.624733746051787775e-01 -6.848700642585754395e-01 9.000000000000000000e+00
-5.710365295410156250e+00 3.492608964443206787e-01 -7.024549245834350586e-01 1.100000000000000000e+01
-8.276769638061523438e+00 5.076788663864135742e-01 -7.254844307899475098e-01 2.000000000000000000e+00
-1.579824733734131037e+01 9.745653271675109863e-01 -8.295249342918395996e-01 4.000000000000000000e+00
-3.433275222778320312e+01 2.129955768585205078e+00 -6.004325747489929199e-01 1.900000000000000000e+01
-2.543028116226195845e+00 1.608849912881850919e-01 -6.827646493911743164e-01 1.900000000000000000e+01
-4.475719070434570312e+01 2.839412212371826172e+00 7.828102111816406250e-01 4.800000000000000000e+01
-2.921102762222290039e+00 1.858276873826980868e-01 -6.757529377937316895e-01 1.300000000000000000e+01
-3.485544919967650923e+00 2.223458141088485995e-01 -6.788983941078186035e-01 1.200000000000000000e+01
-4.484271240234375000e+01 2.868412494659423828e+00 3.931246995925902876e+00 5.400000000000000000e+01
-4.321146011352539062e+00 2.771640419960021973e-01 -6.858087182044982910e-01 1.000000000000000000e+01
-5.677479743957520419e+00 3.661511242389678955e-01 -6.985550522804260254e-01 1.000000000000000000e+01
-8.275040626525878906e+00 5.351228713989257812e-01 -7.254844307899475098e-01 2.000000000000000000e+00
-3.431752014160156250e+01 2.243273973464965820e+00 -6.002929806709289551e-01 1.900000000000000000e+01
-2.538595914840697798e+00 1.695034205913543979e-01 -6.817293763160705566e-01 1.400000000000000000e+01
-4.475498962402343750e+01 2.996160984039307085e+00 7.829498648643493652e-01 4.800000000000000000e+01
-2.924325227737427202e+00 1.962841302156448087e-01 -6.766527891159057617e-01 1.100000000000000000e+01
-3.478871107101439986e+00 2.341158241033554077e-01 -6.777535676956176758e-01 1.100000000000000000e+01
-4.487218093872070312e+01 3.027607679367064986e+00 3.934733152389525923e+00 5.400000000000000000e+01
-4.333948135375976562e+00 2.931792438030242920e-01 -6.879987716674804688e-01 9.000000000000000000e+00
-5.676167011260986328e+00 3.859669864177703857e-01 -6.985550522804260254e-01 1.000000000000000000e+01
-8.257219314575195312e+00 5.629207491874694824e-01 -7.240899205207824707e-01 3.000000000000000000e+00
-3.433341979980468750e+01 2.364699602127075195e+00 -6.007118225097656250e-01 1.900000000000000000e+01
-2.524499177932738814e+00 1.774157285690307895e-01 -6.781058907508850098e-01 1.500000000000000000e+01
-4.475622558593750000e+01 3.153209924697875977e+00 7.831593155860900879e-01 4.800000000000000000e+01
-2.933341741561890093e+00 2.071772068738937100e-01 -6.789022684097290039e-01 1.300000000000000000e+01
-3.489782810211182085e+00 2.470898777246474942e-01 -6.800432801246643066e-01 1.100000000000000000e+01
-4.486928939819335938e+01 3.184786796569824219e+00 3.935430526733397993e+00 5.400000000000000000e+01
-4.315165042877197266e+00 3.070439398288726807e-01 -6.851829290390014648e-01 1.000000000000000000e+01
-5.678745269775390625e+00 4.060613214969635010e-01 -6.990425586700439453e-01 1.000000000000000000e+01
-8.201547622680664062e+00 5.878942608833312988e-01 -7.193834781646728516e-01 3.000000000000000000e+00
-1.558816432952881037e+01 1.122842907905579057e+00 -8.190577030181884766e-01 4.000000000000000000e+00
-3.431697845458983664e+01 2.483953714370727983e+00 -6.005722284317016602e-01 1.900000000000000000e+01
-2.527717828750609907e+00 1.865111142396926880e-01 -6.791411638259887695e-01 1.500000000000000000e+01
-4.473298263549804688e+01 3.308534145355225053e+00 7.829498648643493652e-01 4.800000000000000000e+01
-2.934544086456298828e+00 2.175592929124831876e-01 -6.793521642684936523e-01 1.300000000000000000e+01
-3.492814779281616211e+00 2.595609724521636963e-01 -6.808065176010131836e-01 1.100000000000000000e+01
-4.483405685424804688e+01 3.339614391326903853e+00 3.933338642120360884e+00 5.400000000000000000e+01
-4.304217338562011719e+00 3.213694095611572266e-01 -6.836186051368713379e-01 1.000000000000000000e+01
-5.677293300628662109e+00 4.258813858032227118e-01 -6.990425586700439453e-01 1.000000000000000000e+01
-8.217326164245605469e+00 6.178638935089111328e-01 -7.209523320198059082e-01 2.000000000000000000e+00
-3.433202743530272727e+01 2.605543136596680132e+00 -6.009910702705383301e-01 1.300000000000000000e+01
-2.525056838989257812e+00 1.960658878087996881e-01 -6.786235570907592773e-01 1.300000000000000000e+01
-4.474785995483397727e+01 3.482443809509276900e+00 7.834385037422180176e-01 4.800000000000000000e+01
-2.902601480484008789e+00 2.264008671045303067e-01 -6.721537709236145020e-01 1.300000000000000000e+01
-4.497150421142578125e+01 3.507745265960692915e+00 2.364015102386475053e+00 3.500000000000000000e+01
-3.480048656463623047e+00 2.720524072647094727e-01 -6.785168051719665527e-01 1.100000000000000000e+01
-4.484473800659179688e+01 3.513607263565063032e+00 3.935430526733397993e+00 5.400000000000000000e+01
-4.300982475280761719e+00 3.377393484115601141e-01 -6.833057403564453125e-01 1.000000000000000000e+01
-4.487321090698242188e+01 3.531598329544066939e+00 5.526774883270263672e+00 3.800000000000000000e+01
-5.667700290679931641e+00 4.470530450344086248e-01 -6.980676054954528809e-01 1.000000000000000000e+01
-8.206949234008789062e+00 6.487834453582763672e-01 -7.202550768852233887e-01 3.000000000000000000e+00
-1.538041591644286932e+01 1.221269607543945090e+00 -8.085905313491821289e-01 4.000000000000000000e+00
-3.434568786621093750e+01 2.739256858825684038e+00 -6.014099121093750000e-01 1.300000000000000000e+01
-2.526282548904418945e+00 2.050350755453110019e-01 -6.791411638259887695e-01 1.300000000000000000e+01
-4.469158172607421875e+01 3.635055303573607954e+00 7.826706171035766602e-01 4.800000000000000000e+01
-2.913447380065917969e+00 2.374813705682755072e-01 -6.748531460762023926e-01 1.300000000000000000e+01
-3.479077816009521040e+00 2.841983735561370850e-01 -6.785168051719665527e-01 1.100000000000000000e+01
