2.242619037628173828e+00 -1.973659038543700950e+00 -6.896999478340148926e-01 1.200000000000000000e+01
2.650943279266356978e+00 -2.333833694458007812e+00 -6.865307688713073730e-01 1.100000000000000000e+01
3.254928350448607954e+00 -2.867586612701416016e+00 -6.870601773262023926e-01 1.000000000000000000e+01
4.282478332519531250e+00 -3.775512456893920898e+00 -7.009924650192260742e-01 1.300000000000000000e+01
5.590114116668701172e+00 -4.930082798004150391e+00 -6.520992517471313477e-01 8.000000000000000000e+00
1.919108629226685014e+00 -1.699676036834717019e+00 -6.869057416915893555e-01 1.500000000000000000e+01
2.218215227127075195e+00 -1.965964674949645996e+00 -6.843010783195495605e-01 1.300000000000000000e+01
2.645718574523925781e+00 -2.345677852630614790e+00 -6.872940063476562500e-01 1.000000000000000000e+01
3.247853994369506836e+00 -2.881552934646606001e+00 -6.876859068870544434e-01 1.000000000000000000e+01
2.838556289672851918e+01 -2.519302368164062855e+01 4.660039901733398438e+00 2.000000000000000000e+01
4.272242069244384766e+00 -3.793073892593383789e+00 -7.014799118041992188e-01 1.300000000000000000e+01
2.771208763122558949e+01 -2.461259269714355113e+01 5.870359897613525391e+00 1.300000000000000000e+01
5.565422534942626953e+00 -4.942950725555419922e+00 -6.512277126312255859e-01 7.000000000000000000e+00
1.924398064613342063e+00 -1.716987609863281028e+00 -6.910468339920043945e-01 1.500000000000000000e+01
2.215355634689331055e+00 -1.977975249290466087e+00 -6.856508255004882812e-01 1.200000000000000000e+01
2.640031814575194868e+00 -2.357974767684936968e+00 -6.880572438240051270e-01 1.000000000000000000e+01
3.243162155151367188e+00 -2.898703336715697798e+00 -6.889373660087585449e-01 1.000000000000000000e+01
4.252392768859863281e+00 -3.803413391113280806e+00 -7.005049586296081543e-01 1.200000000000000000e+01
5.536874294281005859e+00 -4.954016208648681641e+00 -6.500075459480285645e-01 1.200000000000000000e+01
1.912644982337952104e+00 -1.718529939651489036e+00 -6.889762878417968750e-01 1.500000000000000000e+01
2.218581438064575195e+00 -1.994816899299622026e+00 -6.888001561164855957e-01 1.500000000000000000e+01
2.624486684799193892e+00 -2.360611200332642046e+00 -6.861491203308105469e-01 1.100000000000000000e+01
3.235960483551024947e+00 -2.912649393081665039e+00 -6.895630955696105957e-01 1.100000000000000000e+01
4.237615108489990234e+00 -3.816905498504639116e+00 -7.002612352371215820e-01 1.200000000000000000e+01
5.507706642150878906e+00 -4.962643623352050781e+00 -6.486130356788635254e-01 1.200000000000000000e+01
1.902337074279784934e+00 -1.721307277679442915e+00 -6.874234080314636230e-01 1.600000000000000000e+01
2.220272064208983931e+00 -2.010397195816040039e+00 -6.914995312690734863e-01 1.500000000000000000e+01
2.616230487823485884e+00 -2.369758129119873047e+00 -6.861491203308105469e-01 1.100000000000000000e+01
3.228700876235961914e+00 -2.926580667495727983e+00 -6.901888847351074219e-01 1.000000000000000000e+01
4.236028671264648438e+00 -3.842343568801879883e+00 -7.022111415863037109e-01 1.100000000000000000e+01
5.472644329071044922e+00 -4.965772628784179688e+00 -6.465212702751159668e-01 2.100000000000000000e+01
3.739011764526367188e+01 -3.397470092773438211e+01 -8.818352222442626953e-01 1.300000000000000000e+01
1.893461108207703081e+00 -1.725334882736206055e+00 -6.863881349563598633e-01 1.600000000000000000e+01
2.204601049423218218e+00 -2.010256767272949219e+00 -6.888001561164855957e-01 1.200000000000000000e+01
2.609393119812012163e+00 -2.380198955535889116e+00 -6.865307688713073730e-01 1.000000000000000000e+01
3.209711790084838867e+00 -2.929842472076416016e+00 -6.883116364479064941e-01 1.000000000000000000e+01
4.231384754180908203e+00 -3.865139484405518022e+00 -7.036736011505126953e-01 1.100000000000000000e+01
5.464101791381835938e+00 -4.992909431457520419e+00 -6.475671529769897461e-01 1.700000000000000000e+01
1.893120527267456055e+00 -1.737158298492432085e+00 -6.884586811065673828e-01 1.600000000000000000e+01
2.190393686294556108e+00 -2.011349678039550781e+00 -6.865506172180175781e-01 1.400000000000000000e+01
2.609743833541870117e+00 -2.397261619567871094e+00 -6.888204813003540039e-01 1.000000000000000000e+01
3.211099624633789062e+00 -2.951723337173461914e+00 -6.908146142959594727e-01 1.000000000000000000e+01
4.212022781372070312e+00 -3.874510765075684038e+00 -7.026986479759216309e-01 1.100000000000000000e+01
5.452504634857177734e+00 -5.017348766326904297e+00 -6.482644081115722656e-01 1.200000000000000000e+01
1.902652382850646973e+00 -1.758177995681762917e+00 -6.941526532173156738e-01 1.600000000000000000e+01
2.183359384536743164e+00 -2.018983364105225053e+00 -6.865506172180175781e-01 1.300000000000000000e+01
2.597036361694335938e+00 -2.402357339859008789e+00 -6.876755952835083008e-01 9.000000000000000000e+00
3.203675985336304155e+00 -2.965597867965697798e+00 -6.914403438568115234e-01 1.000000000000000000e+01
4.201385498046875000e+00 -3.891887664794921875e+00 -7.031860947608947754e-01 1.100000000000000000e+01
5.496336460113525391e+00 -5.093228340148925781e+00 -6.555854678153991699e-01 8.000000000000000000e+00
1.886910200119018999e+00 -1.755267262458801047e+00 -6.905292272567749023e-01 1.600000000000000000e+01
2.182357788085937944e+00 -2.031523704528809038e+00 -6.883502006530761719e-01 1.400000000000000000e+01
2.581871747970581055e+00 -2.404266595840454102e+00 -6.857675313949584961e-01 1.000000000000000000e+01
3.198159456253052202e+00 -2.980245590209960938e+00 -6.923789381980895996e-01 9.000000000000000000e+00
4.202974319458007812e+00 -3.919337034225463867e+00 -7.056235074996948242e-01 1.100000000000000000e+01
5.486701011657714844e+00 -5.118222236633300781e+00 -6.564570665359497070e-01 7.000000000000000000e+00
1.875132203102112038e+00 -1.756560206413269043e+00 -6.884586811065673828e-01 1.600000000000000000e+01
2.185205221176147017e+00 -2.048458576202393022e+00 -6.914995312690734863e-01 1.300000000000000000e+01
2.584920167922974077e+00 -2.424007892608643022e+00 -6.888204813003540039e-01 1.000000000000000000e+01
3.183415651321411133e+00 -2.987335920333861861e+00 -6.914403438568115234e-01 1.000000000000000000e+01
4.195055961608886719e+00 -3.939419746398925781e+00 -7.065984606742858887e-01 1.100000000000000000e+01
5.438306808471679688e+00 -5.108696460723876953e+00 -6.527965068817138672e-01 1.100000000000000000e+01
1.874301671981811968e+00 -1.768724679946898970e+00 -6.905292272567749023e-01 1.600000000000000000e+01
2.174848794937133789e+00 -2.053778171539307085e+00 -6.905997395515441895e-01 1.500000000000000000e+01
2.576018333435059038e+00 -2.433465719223022017e+00 -6.888204813003540039e-01 1.100000000000000000e+01
3.166703224182128906e+00 -2.993555545806885210e+00 -6.901888847351074219e-01 1.000000000000000000e+01
4.186357498168945312e+00 -3.960225582122803178e+00 -7.075734138488769531e-01 1.100000000000000000e+01
2.770999908447265980e+01 -2.622237205505371094e+01 6.042437553405761719e+00 1.300000000000000000e+01
5.434017181396484375e+00 -5.142288684844970703e+00 -6.545396447181701660e-01 9.000000000000000000e+00
1.872317314147948997e+00 -1.779248714447021040e+00 -6.920821070671081543e-01 1.600000000000000000e+01
2.159193515777587891e+00 -2.053299903869628906e+00 -6.879003047943115234e-01 1.600000000000000000e+01
2.576042890548706055e+00 -2.450561761856079102e+00 -6.911101937294006348e-01 1.100000000000000000e+01
3.163388013839722124e+00 -3.011401176452637163e+00 -6.917532086372375488e-01 1.000000000000000000e+01
4.166759014129638672e+00 -3.969337940216064009e+00 -7.065984606742858887e-01 1.100000000000000000e+01
5.436227321624755859e+00 -5.180468559265136719e+00 -6.569799780845642090e-01 7.000000000000000000e+00
1.024438381195067915e+00 -9.776071906089782715e-01 3.794287145137786865e-01 1.000000000000000000e+00
1.870282411575316939e+00 -1.789780497550963911e+00 -6.936350464820861816e-01 2.000000000000000000e+01
2.157642841339110884e+00 -2.066215515136719194e+00 -6.896999478340148926e-01 1.600000000000000000e+01
2.566055536270142046e+00 -2.458180904388428178e+00 -6.907285451889038086e-01 1.100000000000000000e+01
3.155709028244018999e+00 -3.025159120559691939e+00 -6.923789381980895996e-01 9.000000000000000000e+00
2.710639953613280895e+01 -2.599410247802734020e+01 4.611292362213134766e+00 1.900000000000000000e+01
4.145715236663818359e+00 -3.976987361907958984e+00 -7.053797841072082520e-01 1.100000000000000000e+01
5.441111564636229581e+00 -5.221485614776611328e+00 -6.597689986228942871e-01 7.000000000000000000e+00
1.036341905593872070e+00 -9.959015250205993652e-01 3.851227462291718084e-01 7.000000000000000000e+00
1.857068181037903054e+00 -1.789595484733581987e+00 -6.910468339920043945e-01 1.600000000000000000e+01
2.154625654220581055e+00 -2.077792882919311968e+00 -6.910496354103088379e-01 1.900000000000000000e+01
2.553220272064208984e+00 -2.463033914566040039e+00 -6.895837187767028809e-01 1.200000000000000000e+01
3.156499624252318892e+00 -3.047131776809691939e+00 -6.948819160461425781e-01 1.000000000000000000e+01
4.150368213653563565e+00 -4.009364128112792969e+00 -7.085483670234680176e-01 1.100000000000000000e+01
2.700773811340332031e+01 -2.609929466247558949e+01 5.948576927185058594e+00 1.300000000000000000e+01
5.368408679962158203e+00 -5.187834739685058594e+00 -6.531451344490051270e-01 7.000000000000000000e+00
1.011864542961121050e+00 -9.795381426811218262e-01 3.773581683635712225e-01 2.400000000000000000e+01
1.846650958061218040e+00 -1.792030811309814009e+00 -6.894939541816711426e-01 1.600000000000000000e+01
2.781396484375000000e+01 -2.700071334838866832e+01 6.766297817230224609e-01 3.200000000000000000e+01
2.152951717376708984e+00 -2.090731620788574219e+00 -6.928492188453674316e-01 2.000000000000000000e+01
2.546015262603760210e+00 -2.473299264907836914e+00 -6.899653077125549316e-01 1.100000000000000000e+01
3.144427537918090820e+00 -3.056754589080810991e+00 -6.945690512657165527e-01 1.000000000000000000e+01
4.140616416931152344e+00 -4.027979850769042969e+00 -7.092795968055725098e-01 9.000000000000000000e+00
5.333132266998291016e+00 -5.189867973327636719e+00 -6.510533690452575684e-01 1.000000000000000000e+01
1.003076553344727007e+00 -9.774951338768005371e-01 3.752876222133635919e-01 4.100000000000000000e+01
1.845911026000977007e+00 -1.803866744041443093e+00 -6.915645003318786621e-01 1.600000000000000000e+01
2.145640611648560014e+00 -2.098234176635742188e+00 -6.928492188453674316e-01 1.900000000000000000e+01
2.542980194091796875e+00 -2.487663030624390093e+00 -6.914917826652526855e-01 1.200000000000000000e+01
3.125268936157227007e+00 -3.059421062469481978e+00 -6.926918029785156250e-01 1.000000000000000000e+01
4.135038852691650391e+00 -4.050743579864501953e+00 -7.107419967651367188e-01 9.000000000000000000e+00
5.277985095977783203e+00 -5.172195434570313388e+00 -6.465212702751159668e-01 9.000000000000000000e+00
1.009961247444153054e+00 -9.907551407814025879e-01 3.266289234161376953e-01 2.000000000000000000e+00
2.780020523071289062e+01 -2.728106117248535156e+01 -6.798759698867797852e-01 9.000000000000000000e+00
1.009310126304626021e+00 -9.904621839523315430e-01 3.789110779762268066e-01 6.200000000000000000e+01
1.842357039451598899e+00 -1.813009142875670943e+00 -6.925997734069824219e-01 1.600000000000000000e+01
2.719726943969726918e+01 -2.677337646484375000e+01 6.661583781242370605e-01 3.100000000000000000e+01
2.131360769271851030e+00 -2.098874330520629883e+00 -6.905997395515441895e-01 2.200000000000000000e+01
2.532882452011107954e+00 -2.495146751403809038e+00 -6.911101937294006348e-01 1.100000000000000000e+01
3.120197534561156782e+00 -3.075858592987060991e+00 -6.939432621002197266e-01 1.000000000000000000e+01
2.702350997924805043e+01 -2.664879989624023082e+01 4.660039901733398438e+00 2.000000000000000000e+01
4.113808155059813565e+00 -4.058182239532470703e+00 -7.095233201980590820e-01 1.100000000000000000e+01
5.282588958740234375e+00 -5.212978839874267578e+00 -6.493102908134460449e-01 7.000000000000000000e+00
1.017587542533874956e+00 -1.005230784416198953e+00 3.302281498908997137e-01 3.300000000000000000e+01
2.756257057189941051e+01 -2.723737716674805043e+01 -6.763854622840881348e-01 8.000000000000000000e+00
1.002925395965575950e+00 -9.914385676383972168e-01 3.778758049011229914e-01 8.000000000000000000e+01
1.841506004333496094e+00 -1.824868440628051980e+00 -6.946703195571899414e-01 1.700000000000000000e+01
2.119870185852050781e+00 -2.102184772491455078e+00 -6.892500519752502441e-01 2.000000000000000000e+01
2.731412315368651988e+01 -2.708625030517578125e+01 2.015980958938599077e+00 2.200000000000000000e+01
2.522763490676879883e+00 -2.502590417861938032e+00 -6.907285451889038086e-01 1.200000000000000000e+01
3.115049362182617188e+00 -3.092298030853271040e+00 -6.951947808265686035e-01 1.000000000000000000e+01
2.685989570617676137e+01 -2.667302894592285156e+01 4.647852897644042969e+00 1.900000000000000000e+01
4.105250835418701172e+00 -4.078113555908203125e+00 -7.104982733726501465e-01 1.100000000000000000e+01
5.216309547424316406e+00 -5.183637142181395596e+00 -6.433836817741394043e-01 6.000000000000000000e+00
1.016410589218140093e+00 -1.010396957397460938e+00 2.785811424255371094e-01 1.000000000000000000e+00
9.961120486259460449e-01 -9.909100532531738281e-01 3.243794143199921209e-01 5.900000000000000000e+01
9.967203140258789062e-01 -9.922075867652893066e-01 3.768405318260192871e-01 8.200000000000000000e+01
1.827556371688842995e+00 -1.822459936141967995e+00 -6.915645003318786621e-01 1.600000000000000000e+01
2.116014242172241211e+00 -2.111587285995482954e+00 -6.901498436927795410e-01 2.000000000000000000e+01
2.512109994888306108e+00 -2.507729530334473100e+00 -6.899653077125549316e-01 1.200000000000000000e+01
3.105319261550902876e+00 -3.102069139480590820e+00 -6.951947808265686035e-01 1.000000000000000000e+01
4.083995342254638672e+00 -4.082569599151611328e+00 -7.090358138084411621e-01 1.100000000000000000e+01
5.095745563507080078e+00 -5.095745563507080078e+00 -6.304846405982971191e-01 1.300000000000000000e+01
9.840835928916931152e-01 -9.844271540641784668e-01 2.705671489238739014e-01 1.300000000000000000e+01
1.012275576591491921e+00 -1.013336181640625000e+00 3.306780457496643066e-01 5.100000000000000000e+01
9.799499511718750000e-01 -9.816617965698242188e-01 3.716641366481781006e-01 7.100000000000000000e+01
1.819820523262023926e+00 -1.827459335327147993e+00 -6.910468339920043945e-01 1.600000000000000000e+01
2.115503549575806108e+00 -2.125867366790771040e+00 -6.923993229866027832e-01 1.900000000000000000e+01
2.507494926452637163e+00 -2.520658731460570845e+00 -6.911101937294006348e-01 1.100000000000000000e+01
3.100042819976807085e+00 -3.118493556976317915e+00 -6.964462399482727051e-01 1.100000000000000000e+01
2.664882087707519887e+01 -2.681678962707519887e+01 4.642003059387207031e+00 1.900000000000000000e+01
4.078113555908203125e+00 -4.105250835418701172e+00 -7.104982733726501465e-01 1.300000000000000000e+01
9.995727539062500000e-01 -1.006224274635314941e+00 2.246398925781250000e-01 1.000000000000000000e+00
5.097581863403320312e+00 -5.133294105529785156e+00 -6.329250335693359375e-01 9.000000000000000000e+00
9.834075570106506348e-01 -9.906429052352905273e-01 2.713303864002227783e-01 3.000000000000000000e+01
9.963803887367248535e-01 -1.004412055015563965e+00 3.266289234161376953e-01 2.400000000000000000e+01
9.724372029304504395e-01 -9.809605479240417480e-01 3.701112270355225164e-01 6.500000000000000000e+01
1.814468383789062944e+00 -1.835490942001342995e+00 -6.915645003318786621e-01 1.600000000000000000e+01
2.104958772659302202e+00 -2.130833864212036133e+00 -6.914995312690734863e-01 2.200000000000000000e+01
2.505136728286743164e+00 -2.536816835403441939e+00 -6.930182576179504395e-01 1.200000000000000000e+01
3.083041906356811968e+00 -3.124210596084595171e+00 -6.951947808265686035e-01 1.000000000000000000e+01
2.637470054626464844e+01 -2.673621940612792969e+01 4.611292362213134766e+00 1.900000000000000000e+01
4.072796344757080078e+00 -4.130064010620117188e+00 -7.122044563293457031e-01 1.300000000000000000e+01
9.931039810180664062e-01 -1.007068037986754927e+00 2.240141481161118109e-01 7.000000000000000000e+00
5.084327697753906250e+00 -5.157618999481201172e+00 -6.336222290992736816e-01 1.200000000000000000e+01
9.563438296318054199e-01 -9.704683423042297363e-01 2.648428976535797119e-01 4.800000000000000000e+01
9.817535877227783203e-01 -9.969491958618164062e-01 3.230297267436981201e-01 2.700000000000000000e+01
9.676518440246582031e-01 -9.829723238945007324e-01 3.695935904979705811e-01 6.200000000000000000e+01
1.814816951751708984e+00 -1.848706364631653054e+00 -6.941526532173156738e-01 1.600000000000000000e+01
2.098872423171997070e+00 -2.139559745788574219e+00 -6.919494271278381348e-01 1.900000000000000000e+01
2.500390291213988814e+00 -2.549751043319702148e+00 -6.941631436347961426e-01 1.200000000000000000e+01
3.065204620361328125e+00 -3.127899169921875000e+00 -6.936303973197937012e-01 1.000000000000000000e+01
4.055577278137207031e+00 -4.141418933868408203e+00 -7.117169499397277832e-01 1.300000000000000000e+01
9.812900424003601074e-01 -1.002060413360595925e+00 2.221369445323944092e-01 2.200000000000000000e+01
5.048174858093261719e+00 -5.156826496124267578e+00 -6.313561797142028809e-01 1.500000000000000000e+01
9.502041339874267578e-01 -9.709943532943725586e-01 2.640796601772307794e-01 7.300000000000000000e+01
9.741801023483276367e-01 -9.961903095245361328e-01 3.216800093650817871e-01 3.600000000000000000e+01
9.653927683830261230e-01 -9.878939986228942871e-01 3.701112270355225164e-01 6.000000000000000000e+01
1.818443059921265093e+00 -1.864078640937804954e+00 -6.977761387825012207e-01 1.700000000000000000e+01
2.739323425292969105e+01 -2.809049987792969105e+01 6.848673224449157715e-01 3.300000000000000000e+01
2.092140436172484907e+00 -2.146142959594727007e+00 -6.919494271278381348e-01 2.000000000000000000e+01
2.490997314453125000e+00 -2.556187629699707031e+00 -6.937814950942993164e-01 1.200000000000000000e+01
3.063632011413574219e+00 -3.146004438400268999e+00 -6.955076456069946289e-01 1.000000000000000000e+01
4.046700000762938565e+00 -4.158407688140869141e+00 -7.124481797218322754e-01 1.100000000000000000e+01
9.795147776603698730e-01 -1.006553888320923074e+00 2.224498093128204068e-01 4.700000000000000000e+01
5.038895606994628906e+00 -5.179800987243652344e+00 -6.322277784347534180e-01 1.100000000000000000e+01
9.498864412307739258e-01 -9.767896533012390137e-01 2.648428976535797119e-01 7.500000000000000000e+01
9.628970623016357422e-01 -9.908605813980102539e-01 3.189806044101715088e-01 4.200000000000000000e+01
9.624573588371276855e-01 -9.907540082931518555e-01 3.701112270355225164e-01 6.600000000000000000e+01
1.803860187530518022e+00 -1.862089514732361062e+00 -6.946703195571899414e-01 1.500000000000000000e+01
2.087347269058227983e+00 -2.156233072280883789e+00 -6.928492188453674316e-01 2.000000000000000000e+01
2.730609893798828125e+01 -2.821709823608398082e+01 2.057849884033203125e+00 2.200000000000000000e+01
2.483424663543701172e+00 -2.566277980804442915e+00 -6.941631436347961426e-01 1.200000000000000000e+01
3.067736864089965820e+00 -3.172299623489379883e+00 -6.989492177963256836e-01 1.100000000000000000e+01
4.036298274993895596e+00 -4.176790237426757812e+00 -7.131794095039367676e-01 1.300000000000000000e+01
9.579770565032958984e-01 -9.916678071022033691e-01 2.183825075626373013e-01 5.100000000000000000e+01
5.128757953643798828e+00 -5.309129238128662109e+00 -6.458240747451782227e-01 1.200000000000000000e+01
9.519261717796325684e-01 -9.857484102249145508e-01 2.663693428039550781e-01 6.900000000000000000e+01
9.540195465087890625e-01 -9.886065721511840820e-01 3.171809911727905273e-01 4.700000000000000000e+01
9.547965526580810547e-01 -9.901031851768493652e-01 3.685583174228668213e-01 6.200000000000000000e+01
1.794019341468811035e+00 -1.866216778755187988e+00 -6.936350464820861816e-01 1.700000000000000000e+01
2.088502645492554155e+00 -2.174069643020629883e+00 -6.959985494613647461e-01 2.100000000000000000e+01
2.472192764282227007e+00 -2.574378728866577148e+00 -6.937814950942993164e-01 1.100000000000000000e+01
3.055533647537231001e+00 -3.184055328369141069e+00 -6.989492177963256836e-01 1.100000000000000000e+01
2.682336425781250000e+01 -2.796137428283691051e+01 4.757535457611083984e+00 2.000000000000000000e+01
4.017482757568359375e+00 -4.189392089843750000e+00 -7.126919031143188477e-01 1.300000000000000000e+01
9.611721634864807129e-01 -1.002301096916198953e+00 2.199468612670897882e-01 5.100000000000000000e+01
5.072486400604248047e+00 -5.291388511657714844e+00 -6.412919759750366211e-01 1.200000000000000000e+01
9.440590739250183105e-01 -9.851438403129577637e-01 2.652245163917542059e-01 5.800000000000000000e+01
9.502165913581848145e-01 -9.922624230384826660e-01 3.171809911727905273e-01 4.800000000000000000e+01
9.484894275665283203e-01 -9.908050298690795898e-01 3.675230443477631170e-01 6.800000000000000000e+01
1.784826278686522993e+00 -1.869672894477844016e+00 -6.925997734069824219e-01 1.500000000000000000e+01
2.082246303558350053e+00 -2.182756662368773970e+00 -6.964484453201293945e-01 1.900000000000000000e+01
2.468611001968383789e+00 -2.588675737380981001e+00 -6.953079700469970703e-01 1.200000000000000000e+01
3.037586688995360884e+00 -3.187551498413085938e+00 -6.973848342895507812e-01 1.000000000000000000e+01
4.016524314880371094e+00 -4.217765808105468750e+00 -7.151293158531188965e-01 1.300000000000000000e+01
9.547680616378784180e-01 -1.002955675125122070e+00 2.193211168050765991e-01 5.000000000000000000e+01
5.063601493835449219e+00 -5.319163799285888672e+00 -6.425121426582336426e-01 7.000000000000000000e+00
9.297873377799987793e-01 -9.770555496215820312e-01 2.621715664863585871e-01 6.700000000000000000e+01
9.534616470336914062e-01 -1.002634048461914062e+00 3.194305002689362127e-01 5.000000000000000000e+01
9.435208439826965332e-01 -9.928743839263916016e-01 3.670054078102111816e-01 6.500000000000000000e+01
1.784261941909790039e+00 -1.880877137184143066e+00 -6.946703195571899414e-01 1.500000000000000000e+01
2.064653158187866211e+00 -2.177973270416260210e+00 -6.928492188453674316e-01 1.900000000000000000e+01
2.467218399047852007e+00 -2.603543519973754883e+00 -6.972160935401916504e-01 1.200000000000000000e+01
3.032990932464600053e+00 -3.202816009521483931e+00 -6.986362934112548828e-01 1.100000000000000000e+01
2.691026496887207031e+01 -2.842697906494140980e+01 4.806282997131347656e+00 2.000000000000000000e+01
4.000524997711181641e+00 -4.227479457855224609e+00 -7.146418094635009766e-01 1.300000000000000000e+01
9.449992775917053223e-01 -9.986101984977722168e-01 2.177567780017853061e-01 5.700000000000000000e+01
5.042757987976074219e+00 -5.330703258514404297e+00 -6.419891715049743652e-01 9.000000000000000000e+00
9.213175177574157715e-01 -9.742659330368041992e-01 2.606450915336608887e-01 7.600000000000000000e+01
9.436147809028625488e-01 -9.985426068305969238e-01 3.171809911727905273e-01 4.800000000000000000e+01
9.418973922729492188e-01 -9.970737695693969727e-01 3.675230443477631170e-01 6.200000000000000000e+01
1.786958098411560059e+00 -1.896937131881714089e+00 -6.982938051223754883e-01 1.400000000000000000e+01
2.059709548950194868e+00 -2.188004732131958008e+00 -6.937490701675415039e-01 1.900000000000000000e+01
2.456769943237305132e+00 -2.610710144042969194e+00 -6.968344449996948242e-01 1.200000000000000000e+01
3.023145675659180132e+00 -3.214822530746459961e+00 -6.989492177963256836e-01 1.100000000000000000e+01
2.653894424438476918e+01 -2.823146820068359020e+01 4.757535457611083984e+00 2.000000000000000000e+01
3.980306386947631836e+00 -4.235631942749023438e+00 -7.136668562889099121e-01 1.300000000000000000e+01
9.399803280830383301e-01 -1.000627398490905984e+00 2.174439132213593084e-01 5.900000000000000000e+01
5.028212070465087891e+00 -5.352629661560058594e+00 -6.425121426582336426e-01 7.000000000000000000e+00
9.192550182342529297e-01 -9.789071679115295410e-01 2.610267102718353271e-01 7.500000000000000000e+01
9.374564290046691895e-01 -9.989882707595825195e-01 3.162811696529387873e-01 4.600000000000000000e+01
9.461653232574462891e-01 -1.008974432945251021e+00 3.706288635730742853e-01 6.100000000000000000e+01
1.773065090179442915e+00 -1.896728277206420898e+00 -6.957055926322937012e-01 1.100000000000000000e+01
2.056614160537720171e+00 -2.201593637466431108e+00 -6.955486536026000977e-01 1.600000000000000000e+01
2.438687801361083984e+00 -2.611514806747436968e+00 -6.945447325706481934e-01 1.100000000000000000e+01
3.020213365554810014e+00 -3.236516475677489790e+00 -7.011392712593078613e-01 1.000000000000000000e+01
3.977551698684691939e+00 -4.265401840209960938e+00 -7.161042690277099609e-01 1.300000000000000000e+01
9.322649240493774414e-01 -9.997317194938659668e-01 2.165053039789200107e-01 5.700000000000000000e+01
5.021207809448242188e+00 -5.386470794677734375e+00 -6.442552208900451660e-01 7.000000000000000000e+00
9.261969923973083496e-01 -9.939200282096862793e-01 2.640796601772307794e-01 7.200000000000000000e+01
9.322856664657592773e-01 -1.001154303550719993e+00 3.158312737941741943e-01 4.200000000000000000e+01
9.398283362388610840e-01 -1.009607434272765891e+00 3.695935904979705811e-01 6.400000000000000000e+01
1.757233262062072976e+00 -1.892994880676269975e+00 -6.920821070671081543e-01 7.000000000000000000e+00
2.058193683624268022e+00 -2.218760013580321822e+00 -6.986979842185974121e-01 1.200000000000000000e+01
2.424217224121094194e+00 -2.614253282546997070e+00 -6.930182576179504395e-01 1.100000000000000000e+01
3.008897304534912109e+00 -3.247039318084716797e+00 -7.011392712593078613e-01 1.000000000000000000e+01
3.962638378143310991e+00 -4.279260158538818359e+00 -7.161042690277099609e-01 1.500000000000000000e+01
9.326201677322387695e-01 -1.007490873336791992e+00 2.174439132213593084e-01 4.900000000000000000e+01
4.978013038635253906e+00 -5.377647399902343750e+00 -6.411176323890686035e-01 7.000000000000000000e+00
9.200550913810729980e-01 -9.942650794982910156e-01 2.633164227008820135e-01 6.900000000000000000e+01
9.367236495018005371e-01 -1.012987136840820090e+00 3.185306787490844727e-01 4.300000000000000000e+01
9.348105192184448242e-01 -1.011626482009887917e+00 3.690759539604187012e-01 7.500000000000000000e+01
1.749305367469788042e+00 -1.897696852684020996e+00 -6.915645003318786621e-01 2.000000000000000000e+00
2.039873838424683061e+00 -2.214464426040648970e+00 -6.950987577438354492e-01 7.000000000000000000e+00
2.435025453567504883e+00 -2.644362688064575195e+00 -6.987425684928894043e-01 1.200000000000000000e+01
2.992194414138793945e+00 -3.251708030700684038e+00 -6.998878121376037598e-01 1.000000000000000000e+01
3.947676897048950195e+00 -4.293066501617431641e+00 -7.161042690277099609e-01 1.300000000000000000e+01
9.212515950202941895e-01 -1.001853585243225098e+00 2.155666947364807129e-01 4.900000000000000000e+01
4.960559368133544922e+00 -5.396458148956298828e+00 -6.412919759750366211e-01 1.100000000000000000e+01
9.179072380065917969e-01 -9.989162087440490723e-01 2.636980414390563965e-01 4.900000000000000000e+01
9.305458664894104004e-01 -1.013380050659179910e+00 3.176308870315551758e-01 4.400000000000000000e+01
9.353698492050170898e-01 -1.018990397453308105e+00 3.706288635730742853e-01 8.500000000000000000e+01
1.787019968032836914e+00 -1.952241301536560059e+00 -7.091642022132873535e-01 1.000000000000000000e+00
2.024239778518677202e+00 -2.212944030761719194e+00 -6.923993229866027832e-01 1.000000000000000000e+00
2.435053825378417969e+00 -2.662988424301147017e+00 -7.014138698577880859e-01 1.300000000000000000e+01
2.991485595703125000e+00 -3.273799180984497070e+00 -7.023907303810119629e-01 1.000000000000000000e+01
3.942037105560303178e+00 -4.317081451416015625e+00 -7.178104519844055176e-01 1.500000000000000000e+01
9.190808534622192383e-01 -1.006521940231323020e+00 2.158795595169067105e-01 5.100000000000000000e+01
4.963183403015136719e+00 -5.437284946441650391e+00 -6.440809369087219238e-01 9.000000000000000000e+00
9.302946329116821289e-01 -1.019517064094543013e+00 2.682774364948273260e-01 1.800000000000000000e+01
9.296289086341857910e-01 -1.019502043724060059e+00 3.185306787490844727e-01 4.200000000000000000e+01
9.344100356101989746e-01 -1.025104641914367898e+00 3.716641366481781006e-01 8.800000000000000000e+01
2.059222221374512163e+00 -2.265437364578247070e+00 -7.067962288856506348e-01 1.000000000000000000e+00
2.413473129272460938e+00 -2.656095027923583984e+00 -6.975976824760437012e-01 1.200000000000000000e+01
2.994465112686156782e+00 -3.297805309295653853e+00 -7.055194377899169922e-01 1.100000000000000000e+01
3.919117450714110884e+00 -4.319153785705566406e+00 -7.161042690277099609e-01 1.500000000000000000e+01
9.157380461692810059e-01 -1.009564161300658958e+00 2.158795595169067105e-01 5.800000000000000000e+01
4.911273956298828125e+00 -5.414481163024902344e+00 -6.395488381385803223e-01 9.000000000000000000e+00
9.270871281623840332e-01 -1.022434711456299050e+00 2.682774364948273260e-01 3.600000000000000000e+01
1.732879447937012074e+01 -1.911770248413085938e+01 -1.352256417274475098e+00 1.200000000000000000e+01
9.238044619560241699e-01 -1.019529342651366965e+00 3.176308870315551758e-01 3.300000000000000000e+01
9.350757002830505371e-01 -1.032330513000488059e+00 3.732170760631560724e-01 7.300000000000000000e+01
2.406817197799683061e+00 -2.667418718338013139e+00 -6.983609199523925781e-01 1.100000000000000000e+01
2.986903905868529829e+00 -3.312639236450194868e+00 -7.064580321311950684e-01 1.100000000000000000e+01
3.908003330230712891e+00 -4.337232112884520596e+00 -7.168354988098144531e-01 1.300000000000000000e+01
9.082422852516174316e-01 -1.008351325988769975e+00 2.149409502744674960e-01 4.800000000000000000e+01
4.873676300048828125e+00 -5.410866260528563565e+00 -6.371085047721862793e-01 7.000000000000000000e+00
9.261398911476135254e-01 -1.028582572937011941e+00 2.690406739711760919e-01 7.300000000000000000e+01
9.202399849891662598e-01 -1.022747755050658958e+00 3.176308870315551758e-01 9.000000000000000000e+00
9.442023634910583496e-01 -1.050116300582885964e+00 3.783934414386749268e-01 6.500000000000000000e+01
2.394404888153076172e+00 -2.673297405242919922e+00 -6.975976824760437012e-01 1.100000000000000000e+01
2.958933353424071822e+00 -3.305901527404785156e+00 -7.027035951614379883e-01 1.100000000000000000e+01
3.897373914718627930e+00 -4.357444763183593750e+00 -7.178104519844055176e-01 1.300000000000000000e+01
9.137569665908813477e-01 -1.021981596946716087e+00 2.171310335397720059e-01 1.900000000000000000e+01
4.848499774932861328e+00 -5.422751903533936435e+00 -6.364112496376037598e-01 7.000000000000000000e+00
9.171304702758789062e-01 -1.026114940643310991e+00 2.675141990184783936e-01 7.600000000000000000e+01
9.372554421424865723e-01 -1.049368500709533913e+00 3.248293101787567139e-01 2.000000000000000000e+00
9.508240818977355957e-01 -1.064934253692626953e+00 3.825345635414124090e-01 7.200000000000000000e+01
2.385058641433715820e+00 -2.681639194488524947e+00 -6.975976824760437012e-01 1.100000000000000000e+01
2.950000047683715820e+00 -3.319163084030150923e+00 -7.033293843269348145e-01 1.100000000000000000e+01
3.899276733398437944e+00 -4.390317440032958984e+00 -7.209790349006652832e-01 1.500000000000000000e+01
9.128070473670959473e-01 -1.028119325637816939e+00 2.177567780017853061e-01 1.800000000000000000e+01
4.832186698913574219e+00 -5.442623138427734375e+00 -6.367598772048950195e-01 7.000000000000000000e+00
9.057238698005676270e-01 -1.020500063896178977e+00 2.652245163917542059e-01 7.000000000000000000e+01
9.586353898048400879e-01 -1.081256508827209029e+00 3.871932923793792725e-01 1.900000000000000000e+01
2.386080265045166016e+00 -2.701720476150513139e+00 -7.006506323814392090e-01 1.100000000000000000e+01
2.941010236740111861e+00 -3.332402467727661133e+00 -7.039551138877868652e-01 1.100000000000000000e+01
3.862919330596923828e+00 -4.380080699920654297e+00 -7.170792222023010254e-01 1.500000000000000000e+01
9.106992483139038086e-01 -1.032622098922729048e+00 2.180696427822113037e-01 2.700000000000000000e+01
4.788124561309813565e+00 -5.431061267852783203e+00 -6.334479451179504395e-01 7.000000000000000000e+00
9.086464643478393555e-01 -1.031019806861876997e+00 2.671325802803040106e-01 5.200000000000000000e+01
2.370162725448607954e+00 -2.702652692794799805e+00 -6.987425684928894043e-01 1.100000000000000000e+01
2.933265924453734907e+00 -3.347105026245117188e+00 -7.048937082290649414e-01 1.000000000000000000e+01
3.838451862335205078e+00 -4.383084297180175781e+00 -7.153730392456054688e-01 1.600000000000000000e+01
9.108118414878845215e-01 -1.040411949157715066e+00 2.190082520246506015e-01 2.500000000000000000e+01
4.763888359069824219e+00 -5.441745758056640625e+00 -6.327506899833679199e-01 7.000000000000000000e+00
9.166782498359680176e-01 -1.047481894493103027e+00 2.705671489238739014e-01 9.000000000000000000e+00
9.597721099853515625e-01 -1.098271250724792036e+00 3.908167481422423761e-01 1.000000000000000000e+00
2.362003564834595171e+00 -2.712390184402465820e+00 -6.991241574287414551e-01 1.100000000000000000e+01
9.497346878051757812e-01 -1.091005563735961914e+00 1.265501379966736117e-01 8.000000000000000000e+00
2.926751613616942915e+00 -3.363284111022949219e+00 -7.061451673507690430e-01 1.000000000000000000e+01
9.523910880088806152e-01 -1.094828605651855025e+00 1.781729757785797119e-01 2.000000000000000000e+00
3.816615581512451172e+00 -4.388966560363770419e+00 -7.141543626785278320e-01 2.000000000000000000e+01
9.175422787666320801e-01 -1.055511713027954102e+00 2.215112000703811923e-01 1.300000000000000000e+01
4.735713958740234375e+00 -5.447815895080566406e+00 -6.315305233001708984e-01 1.000000000000000000e+01
9.761161208152770996e-01 -1.123288989067078081e+00 2.892664372920989990e-01 1.000000000000000000e+00
9.672327637672424316e-01 -1.113851308822632058e+00 3.405759036540985107e-01 3.000000000000000000e+00
9.611904025077819824e-01 -1.107283353805541992e+00 3.928873240947722834e-01 1.100000000000000000e+01
1.002303838729857954e+00 -1.158316135406493919e+00 2.673708647489548076e-02 1.000000000000000000e+00
9.669082760810852051e-01 -1.117805361747741921e+00 7.745721191167831421e-02 4.000000000000000000e+00
2.351237058639525923e+00 -2.719133615493773970e+00 -6.987425684928894043e-01 1.100000000000000000e+01
9.368001222610473633e-01 -1.083762884140015093e+00 1.253299564123153964e-01 2.800000000000000000e+01
2.914993524551392046e+00 -3.373480081558227983e+00 -7.061451673507690430e-01 1.100000000000000000e+01
9.563493728637695312e-01 -1.107159852981566939e+00 1.796354055404663086e-01 2.100000000000000000e+01
3.796082496643065962e+00 -4.396252632141113281e+00 -7.131794095039367676e-01 3.100000000000000000e+01
9.357950687408447266e-01 -1.084128975868225098e+00 2.268299758434295932e-01 6.000000000000000000e+00
4.530501842498779297e+00 -5.248636722564697266e+00 -6.066039800643920898e-01 7.000000000000000000e+00
9.467953443527221680e-01 -1.098034739494323953e+00 3.347271680831909180e-01 1.800000000000000000e+01
9.308323264122009277e-01 -1.079902887344359907e+00 3.820168972015380859e-01 2.900000000000000000e+01
9.602664113044738770e-01 -1.117990493774414062e+00 2.572484686970711101e-02 8.000000000000000000e+00
9.509016871452331543e-01 -1.107869744300842063e+00 7.651516795158386230e-02 2.100000000000000000e+01
2.348927259445189986e+00 -2.736671447753905806e+00 -7.010322213172912598e-01 1.200000000000000000e+01
9.250373244285583496e-01 -1.078116655349731001e+00 1.242840886116027971e-01 3.100000000000000000e+01
2.900037527084351030e+00 -3.381142616271973100e+00 -7.055194377899169922e-01 1.000000000000000000e+01
9.458244442939758301e-01 -1.103122591972351074e+00 1.784167140722275058e-01 4.400000000000000000e+01
3.773484706878662109e+00 -4.402600288391113281e+00 -7.119607329368591309e-01 3.300000000000000000e+01
9.371471405029296875e-01 -1.093388319015502930e+00 2.280814498662948886e-01 2.900000000000000000e+01
9.680531024932861328e-01 -1.130245208740233931e+00 2.892664372920989990e-01 1.000000000000000000e+00
9.465659260749816895e-01 -1.105939030647278054e+00 3.360768854618073065e-01 4.500000000000000000e+01
9.279345870018005371e-01 -1.084937214851378950e+00 3.825345635414124090e-01 4.500000000000000000e+01
9.355958104133605957e-01 -1.096991777420043945e+00 2.516636997461318970e-02 3.100000000000000000e+01
9.368562698364257812e-01 -1.098858118057250977e+00 7.567778974771499634e-02 3.900000000000000000e+01
2.345727443695067915e+00 -2.752325057983397993e+00 -7.029403448104858398e-01 1.100000000000000000e+01
9.148078560829162598e-01 -1.073755979537964089e+00 1.234125345945357999e-01 4.500000000000000000e+01
2.897183179855347124e+00 -3.401772022247314009e+00 -7.077094912528991699e-01 8.000000000000000000e+00
9.213786125183105469e-01 -1.082233428955077903e+00 1.745169013738631925e-01 4.700000000000000000e+01
3.725929498672484907e+00 -4.377952098846436435e+00 -7.058672308921813965e-01 1.500000000000000000e+01
9.292933344841003418e-01 -1.092302203178405984e+00 2.271428406238555908e-01 5.500000000000000000e+01
9.195853471755981445e-01 -1.081273555755615012e+00 2.759098112583159845e-01 8.000000000000000000e+00
9.351278543472290039e-01 -1.100326895713805930e+00 3.333774507045745850e-01 4.500000000000000000e+01
9.762135744094848633e-01 -1.149077177047729048e+00 -2.631822973489761006e-02 3.000000000000000000e+00
9.216407537460327148e-01 -1.085224628448486106e+00 3.814992606639862061e-01 5.200000000000000000e+01
9.293677806854248047e-01 -1.097036838531493919e+00 2.509655989706515919e-02 4.100000000000000000e+01
9.151368141174316406e-01 -1.080620765686034934e+00 7.421238720417022705e-02 4.400000000000000000e+01
2.326439380645751953e+00 -2.748101234436035156e+00 -6.998873949050903320e-01 1.200000000000000000e+01
9.099550843238830566e-01 -1.075262784957885964e+00 1.232382208108901978e-01 5.300000000000000000e+01
9.088119864463806152e-01 -1.074672579765320046e+00 1.728107333183289129e-01 5.600000000000000000e+01
3.721643447875977007e+00 -4.402411460876464844e+00 -7.078171372413635254e-01 1.000000000000000000e+00
9.105537533760070801e-01 -1.077113509178162065e+00 2.233884185552597046e-01 5.400000000000000000e+01
9.273970723152160645e-01 -1.097814798355102983e+00 2.793443799018859863e-01 4.200000000000000000e+01
9.138751626014709473e-01 -1.082574486732482910e+00 3.270788192749022882e-01 4.800000000000000000e+01
9.711080789566040039e-01 -1.150779843330383079e+00 -2.628332376480102886e-02 3.400000000000000000e+01
9.155457019805908203e-01 -1.085321784019469993e+00 3.804639875888823908e-01 5.600000000000000000e+01
9.255327582359313965e-01 -1.100274205207824929e+00 2.509655989706515919e-02 4.700000000000000000e+01
9.023612737655639648e-01 -1.073108077049254927e+00 7.347968220710754395e-02 4.500000000000000000e+01
2.318095922470093218e+00 -2.757708311080933061e+00 -7.002689838409423828e-01 1.100000000000000000e+01
8.997874259948730469e-01 -1.070805788040160911e+00 1.223666593432426036e-01 6.200000000000000000e+01
9.063316583633422852e-01 -1.079358577728271040e+00 1.730544716119765958e-01 5.900000000000000000e+01
8.978983163833618164e-01 -1.069694280624390093e+00 2.211983352899551114e-01 5.800000000000000000e+01
9.222976565361022949e-01 -1.099541187286376953e+00 2.789627611637114923e-01 7.200000000000000000e+01
9.038314819335937500e-01 -1.078290581703186035e+00 3.248293101787567139e-01 5.000000000000000000e+01
9.568107128143310547e-01 -1.141900658607482910e+00 -2.600408531725406994e-02 6.100000000000000000e+01
9.030682444572448730e-01 -1.078144192695617898e+00 3.768405318260192871e-01 5.600000000000000000e+01
9.152769446372985840e-01 -1.095824360847472922e+00 2.492203563451766968e-02 4.300000000000000000e+01
8.909294605255126953e-01 -1.067052602767943892e+00 7.285165041685104370e-02 4.800000000000000000e+01
2.309713602066040039e+00 -2.767290353775023970e+00 -7.006506323814392090e-01 4.000000000000000000e+00
8.794506788253784180e-01 -1.054052352905272993e+00 1.201006099581718028e-01 6.700000000000000000e+01
9.012872576713562012e-01 -1.080991029739380105e+00 1.728107333183289129e-01 6.500000000000000000e+01
8.840411305427551270e-01 -1.060682654380797896e+00 2.186953872442244928e-01 6.100000000000000000e+01
9.182503819465637207e-01 -1.102118372917175071e+00 -1.255042701959609985e-01 1.000000000000000000e+00
9.134281873703002930e-01 -1.096719741821289062e+00 2.774362862110137939e-01 7.900000000000000000e+01
9.162752628326416016e-01 -1.100528597831726074e+00 -7.504975795745849609e-02 6.000000000000000000e+00
9.000620841979980469e-01 -1.081438899040221946e+00 3.248293101787567139e-01 5.200000000000000000e+01
9.361925125122070312e-01 -1.125249624252318892e+00 -2.555032260715961109e-02 4.400000000000000000e+01
8.809546232223510742e-01 -1.058856844902039018e+00 3.690759539604187012e-01 5.900000000000000000e+01
8.871920108795166016e-01 -1.069767117500304954e+00 2.425884455442428936e-02 4.800000000000000000e+01
8.910234570503234863e-01 -1.074768781661987083e+00 7.316567003726959229e-02 5.500000000000000000e+01
8.757660388946533203e-01 -1.057115793228148970e+00 1.201006099581718028e-01 7.200000000000000000e+01
9.588213562965393066e-01 -1.157781124114990012e+00 -2.380932569503783902e-01 6.000000000000000000e+00
8.835837244987487793e-01 -1.067310452461242898e+00 1.701295971870422086e-01 6.700000000000000000e+01
8.815926909446716309e-01 -1.065283894538878950e+00 2.190082520246506015e-01 6.400000000000000000e+01
9.080477356910705566e-01 -1.097641110420227051e+00 -1.246327087283134044e-01 1.100000000000000000e+01
8.858222961425781250e-01 -1.071155786514282005e+00 2.701855301856995184e-01 8.500000000000000000e+01
9.009749889373779297e-01 -1.089866042137145996e+00 -7.410771399736404419e-02 3.800000000000000000e+01
8.925575017929077148e-01 -1.080067634582519975e+00 3.234796226024628241e-01 5.800000000000000000e+01
9.016931056976318359e-01 -1.091510295867919922e+00 -2.471260726451874126e-02 4.400000000000000000e+01
8.782979249954223633e-01 -1.063568234443664995e+00 3.695935904979705811e-01 6.400000000000000000e+01
8.770966529846191406e-01 -1.065139174461364968e+00 2.408432029187678944e-02 6.500000000000000000e+01
8.794638514518737793e-01 -1.068773865699768066e+00 7.253763824701309204e-02 6.500000000000000000e+01
8.670078516006469727e-01 -1.054011464118957964e+00 1.194033697247505049e-01 7.300000000000000000e+01
9.271722435951232910e-01 -1.127553820610045943e+00 -2.312101423740386963e-01 3.800000000000000000e+01
8.722895383834838867e-01 -1.061187267303467019e+00 1.686671674251556119e-01 6.900000000000000000e+01
9.010904431343078613e-01 -1.096615195274353027e+00 -1.742731630802155096e-01 7.000000000000000000e+00
8.778687715530395508e-01 -1.068354725837707964e+00 2.190082520246506015e-01 6.400000000000000000e+01
8.915643692016601562e-01 -1.085408210754394975e+00 -1.228896006941794933e-01 6.100000000000000000e+01
8.808319568634033203e-01 -1.072724103927612083e+00 2.698039114475250244e-01 9.600000000000000000e+01
8.908292651176452637e-01 -1.085285425186157005e+00 -7.358435541391372681e-02 6.000000000000000000e+01
8.887819051742553711e-01 -1.083176612854003906e+00 3.234796226024628241e-01 7.100000000000000000e+01
8.877320289611816406e-01 -1.082282304763793945e+00 -2.443336881697177887e-02 6.900000000000000000e+01
8.710907101631164551e-01 -1.061993956565856934e+00 3.680406808853148859e-01 6.600000000000000000e+01
8.733732700347900391e-01 -1.068194270133971946e+00 2.408432029187678944e-02 7.800000000000000000e+01
8.681457042694091797e-01 -1.062557339668273926e+00 7.190960645675659180e-02 8.000000000000000000e+01
9.502535462379455566e-01 -1.163052201271056907e+00 -2.919377684593201239e-01 7.000000000000000000e+00
8.696249723434448242e-01 -1.064747095108032005e+00 1.202749237418175021e-01 7.600000000000000000e+01
9.294772148132324219e-01 -1.138434052467345969e+00 -2.327744811773299893e-01 6.200000000000000000e+01
8.660696744918823242e-01 -1.061149835586548074e+00 1.681796908378601074e-01 7.400000000000000000e+01
9.010217785835266113e-01 -1.104368209838866965e+00 -1.750043779611588080e-01 4.800000000000000000e+01
8.639591932296752930e-01 -1.059318661689758079e+00 2.165053039789200107e-01 7.000000000000000000e+01
8.915479183197021484e-01 -1.093145728111267090e+00 -1.234125345945357999e-01 8.200000000000000000e+01
8.770821094512939453e-01 -1.075792193412780984e+00 2.698039114475250244e-01 9.600000000000000000e+01
8.845119476318359375e-01 -1.085291981697082964e+00 -7.337500900030136108e-02 8.200000000000000000e+01
8.776102662086486816e-01 -1.077207565307616965e+00 3.207802176475524902e-01 7.200000000000000000e+01
8.725836873054504395e-01 -1.071419596672058105e+00 -2.411922626197338104e-02 7.300000000000000000e+01
8.635333776473999023e-01 -1.060685038566588911e+00 3.664877712726593018e-01 6.100000000000000000e+01
8.671185970306396484e-01 -1.068131446838378906e+00 2.401451207697391857e-02 8.900000000000000000e+01
8.656896948814392090e-01 -1.067132234573364036e+00 7.201427221298217773e-02 8.800000000000000000e+01
9.461879730224609375e-01 -1.166362166404723899e+00 -2.919377684593201239e-01 2.800000000000000000e+01
8.621382713317871094e-01 -1.063133597373961958e+00 1.197519898414611955e-01 8.400000000000000000e+01
9.217658042907714844e-01 -1.137068152427672896e+00 -2.318358719348906916e-01 6.900000000000000000e+01
8.648598790168762207e-01 -1.067251086235045943e+00 1.686671674251556119e-01 7.700000000000000000e+01
9.009099006652832031e-01 -1.112134099006653054e+00 -1.757355928421021063e-01 6.900000000000000000e+01
8.629284501075744629e-01 -1.065247654914855957e+00 2.171310335397720059e-01 8.300000000000000000e+01
8.764420151710510254e-01 -1.082315802574157937e+00 -1.218437254428863942e-01 9.200000000000000000e+01
8.683805465698242188e-01 -1.072743415832519975e+00 2.682774364948273260e-01 9.600000000000000000e+01
8.782054185867309570e-01 -1.085267782211303933e+00 -7.316567003726959229e-02 9.200000000000000000e+01
8.762959837913513184e-01 -1.083294630050658958e+00 3.216800093650817871e-01 7.400000000000000000e+01
8.663237094879150391e-01 -1.071349143981934038e+00 -2.404941618442535053e-02 7.300000000000000000e+01
8.539377450942993164e-01 -1.056031942367553933e+00 3.638995885848999023e-01 6.600000000000000000e+01
8.583651781082153320e-01 -1.064924120903014915e+00 2.387489192187786102e-02 8.900000000000000000e+01
8.594537377357482910e-01 -1.067036747932434082e+00 7.180493324995040894e-02 8.800000000000000000e+01
9.334902167320251465e-01 -1.158955097198486106e+00 -2.892664372920989990e-01 2.500000000000000000e+01
8.509248495101928711e-01 -1.056825280189513938e+00 1.187061220407485962e-01 8.400000000000000000e+01
9.140753149986267090e-01 -1.135662198066710982e+00 -2.308972775936126987e-01 7.700000000000000000e+01
8.598847985267639160e-01 -1.068716883659363015e+00 1.684234291315079013e-01 8.200000000000000000e+01
8.932899236679077148e-01 -1.110631585121155007e+00 -1.750043779611588080e-01 6.800000000000000000e+01
8.540672063827514648e-01 -1.062245368957519975e+00 2.158795595169067105e-01 8.300000000000000000e+01
8.726587295532226562e-01 -1.085368514060973899e+00 -1.218437254428863942e-01 1.000000000000000000e+02
8.683204054832458496e-01 -1.080358862876892090e+00 2.694222927093505859e-01 1.000000000000000000e+02
8.706589341163635254e-01 -1.083655714988708052e+00 -7.285165041685104370e-02 9.600000000000000000e+01
8.688483238220214844e-01 -1.081788778305053933e+00 3.203302919864655096e-01 7.700000000000000000e+01
8.625786900520324707e-01 -1.074366569519042969e+00 -2.404941618442535053e-02 7.800000000000000000e+01
8.403879404067993164e-01 -1.047101736068726030e+00 3.597584664821624756e-01 6.500000000000000000e+01
8.521437048912048340e-01 -1.064791321754456010e+00 2.380508184432983051e-02 9.300000000000000000e+01
8.582186698913574219e-01 -1.073149919509887917e+00 7.201427221298217773e-02 8.800000000000000000e+01
9.257605075836181641e-01 -1.157606840133666992e+00 -2.881215810775756836e-01 2.800000000000000000e+01
8.397660255432128906e-01 -1.050451874732970969e+00 1.176602542400359969e-01 8.800000000000000000e+01
9.088723659515380859e-01 -1.137302875518799050e+00 -2.305843979120255072e-01 9.300000000000000000e+01
