-2.544018983840941939e+00 3.419121727347373962e-02 -6.817293763160705566e-01 2.600000000000000000e+01
-4.475103378295897727e+01 6.092588901519775391e-01 7.812046408653259277e-01 4.800000000000000000e+01
-2.961803436279296875e+00 4.084023460745810769e-02 -6.838511824607849121e-01 1.300000000000000000e+01
-4.504578399658203125e+01 6.289986968040466309e-01 2.360979557037353960e+00 3.500000000000000000e+01
-3.529587268829346147e+00 4.928553849458693764e-02 -6.861491203308105469e-01 1.200000000000000000e+01
-4.485815048217772727e+01 6.342093944549560547e-01 3.924971818923950195e+00 5.400000000000000000e+01
-4.398713111877441406e+00 6.295736134052276611e-02 -6.967591047286987305e-01 1.000000000000000000e+01
-5.756148815155029297e+00 8.439560234546661377e-02 -7.068421840667724609e-01 1.100000000000000000e+01
-8.418910980224609375e+00 1.249062269926071028e-01 -7.366403341293334961e-01 2.000000000000000000e+00
-1.632171630859375000e+01 2.478539496660233099e-01 -8.554835319519042969e-01 5.000000000000000000e+00
-3.449458312988281250e+01 5.358623266220092773e-01 -6.021778583526611328e-01 2.000000000000000000e+01
-2.536150217056273970e+00 4.338311776518821716e-02 -6.796588301658630371e-01 2.400000000000000000e+01
-4.472850799560546875e+01 7.729300260543823242e-01 7.808555960655212402e-01 4.800000000000000000e+01
-2.965530633926392046e+00 5.176353082060813904e-02 -6.847510337829589844e-01 1.400000000000000000e+01
-4.487556838989257812e+01 7.833060026168823242e-01 2.352187156677246094e+00 3.400000000000000000e+01
-3.517605304718018022e+00 6.201415508985518715e-02 -6.838594675064086914e-01 1.100000000000000000e+01
-4.482763290405272727e+01 7.981219291687011719e-01 3.922531366348267046e+00 5.400000000000000000e+01
-4.378702640533447266e+00 7.872393727302551270e-02 -6.936303973197937012e-01 9.000000000000000000e+00
-5.761755466461181641e+00 1.056015044450760026e-01 -7.075734138488769531e-01 1.100000000000000000e+01
-8.402460098266601562e+00 1.554673761129378995e-01 -7.352458238601684570e-01 3.000000000000000000e+00
-3.452037811279296875e+01 6.628251075744628906e-01 -6.026664972305297852e-01 2.000000000000000000e+01
-2.541777610778809038e+00 5.235502123832703331e-02 -6.812117099761962891e-01 2.600000000000000000e+01
-4.472553634643554688e+01 9.290570020675659180e-01 7.808555960655212402e-01 4.800000000000000000e+01
-2.955590486526488814e+00 6.191079318523406982e-02 -6.825014948844909668e-01 1.500000000000000000e+01
-4.500019454956054688e+01 9.504771828651428223e-01 2.358886241912841797e+00 3.400000000000000000e+01
-3.511478900909423828e+00 7.416813820600509644e-02 -6.827145814895629883e-01 1.100000000000000000e+01
-4.482457351684570312e+01 9.545947313308715820e-01 3.922531366348267046e+00 5.400000000000000000e+01
-4.366551399230957031e+00 9.375356137752532959e-02 -6.917532086372375488e-01 9.000000000000000000e+00
-5.761351585388183594e+00 1.257131397724151889e-01 -7.075734138488769531e-01 9.000000000000000000e+00
-8.397882461547851562e+00 1.847088634967803955e-01 -7.348971962928771973e-01 2.000000000000000000e+00
-1.621968650817871094e+01 3.624115884304047186e-01 -8.502499461174011230e-01 4.000000000000000000e+00
-3.452185058593750000e+01 7.834104299545288086e-01 -6.027362942695617676e-01 2.000000000000000000e+01
-2.537727355957030806e+00 6.069119647145271301e-02 -6.801764369010925293e-01 2.300000000000000000e+01
-4.471021652221679688e+01 1.077078104019165039e+00 7.806461453437805176e-01 4.800000000000000000e+01
-2.945627927780150923e+00 7.147518545389175415e-02 -6.802520155906677246e-01 1.400000000000000000e+01
-4.503691864013671875e+01 1.092813491821289062e+00 2.360979557037353960e+00 3.500000000000000000e+01
-3.528877735137939009e+00 8.624391257762908936e-02 -6.861491203308105469e-01 1.100000000000000000e+01
-4.482116317749022727e+01 1.103233098983765093e+00 3.922531366348267046e+00 5.400000000000000000e+01
-4.376090526580811435e+00 1.084778159856795987e-01 -6.933175325393676758e-01 1.000000000000000000e+01
-5.758918762207031250e+00 1.447678953409194946e-01 -7.073296904563903809e-01 1.100000000000000000e+01
-8.401206970214843750e+00 2.126570641994476041e-01 -7.352458238601684570e-01 3.000000000000000000e+00
-1.621839523315430043e+01 4.161960184574127197e-01 -8.502499461174011230e-01 4.000000000000000000e+00
-3.448707962036132812e+01 8.970527648925781250e-01 -6.021778583526611328e-01 2.000000000000000000e+01
-2.551017999649047852e+00 6.991965323686599731e-02 -6.837999224662780762e-01 1.900000000000000000e+01
-4.475415802001953125e+01 1.234462618827820046e+00 7.814838290214538574e-01 4.800000000000000000e+01
-2.941464662551879883e+00 8.164876699447631836e-02 -6.793521642684936523e-01 1.400000000000000000e+01
-4.498092269897460938e+01 1.248574137687683105e+00 2.358258247375487837e+00 3.400000000000000000e+01
-3.522667646408081055e+00 9.839701652526855469e-02 -6.850042939186096191e-01 1.200000000000000000e+01
-4.485288619995117188e+01 1.260689020156859907e+00 3.925668954849243164e+00 5.400000000000000000e+01
-4.377659797668457031e+00 1.238084062933921953e-01 -6.936303973197937012e-01 9.000000000000000000e+00
-5.738535404205322266e+00 1.643012613058089932e-01 -7.048922777175903320e-01 1.100000000000000000e+01
-8.380497932434082031e+00 2.414077669382095059e-01 -7.335027456283569336e-01 2.000000000000000000e+00
-1.621684455871582031e+01 4.728062450885773260e-01 -8.502499461174011230e-01 4.000000000000000000e+00
-3.453171157836914062e+01 1.018845081329345925e+00 -6.030155420303344727e-01 1.300000000000000000e+01
-2.546910285949707031e+00 7.826008647680282593e-02 -6.827646493911743164e-01 1.900000000000000000e+01
-4.476980590820313211e+01 1.383483648300170898e+00 7.818328738212585449e-01 4.800000000000000000e+01
-2.950916767120360884e+00 9.170522540807723999e-02 -6.816017031669616699e-01 1.200000000000000000e+01
-4.502819061279296875e+01 1.407201290130615012e+00 2.360979557037353960e+00 3.500000000000000000e+01
-3.508585929870605025e+00 1.096487864851952015e-01 -6.823329925537109375e-01 1.100000000000000000e+01
-4.484447860717772727e+01 1.409294486045836958e+00 3.925320386886597124e+00 5.400000000000000000e+01
-4.357481002807617188e+00 1.377006471157073975e-01 -6.905017495155334473e-01 9.000000000000000000e+00
-5.753831386566162109e+00 1.838371604681015015e-01 -7.068421840667724609e-01 1.100000000000000000e+01
-8.379652023315429688e+00 2.691971659660338800e-01 -7.335027456283569336e-01 2.000000000000000000e+00
-1.611537742614746094e+01 5.233393311500549316e-01 -8.450163602828979492e-01 4.000000000000000000e+00
-3.445219421386718750e+01 1.130857825279236062e+00 -6.016891598701477051e-01 1.300000000000000000e+01
-2.536967992782593218e+00 8.681961894035339355e-02 -6.801764369010925293e-01 1.700000000000000000e+01
-4.476470565795897727e+01 1.539751052856445090e+00 7.818328738212585449e-01 4.800000000000000000e+01
-2.950578689575194868e+00 1.020052880048751970e-01 -6.816017031669616699e-01 1.500000000000000000e+01
-4.502327728271483664e+01 1.556512475013732910e+00 2.360979557037353960e+00 3.500000000000000000e+01
-3.506219625473022017e+00 1.218271926045418063e-01 -6.819513440132141113e-01 1.200000000000000000e+01
-4.483928680419921875e+01 1.565822362899780051e+00 3.925320386886597124e+00 5.400000000000000000e+01
-4.364870548248291016e+00 1.531873792409897128e-01 -6.917532086372375488e-01 1.000000000000000000e+01
-5.749186992645263672e+00 2.037800252437592108e-01 -7.063547372817993164e-01 1.100000000000000000e+01
-8.374678611755371094e+00 2.983041405677794855e-01 -7.331541180610656738e-01 2.000000000000000000e+00
-3.446402359008789062e+01 1.251692175865172896e+00 -6.019684076309204102e-01 2.000000000000000000e+01
-2.534718990325928178e+00 9.560194611549377441e-02 -6.796588301658630371e-01 1.500000000000000000e+01
-4.475106430053710938e+01 1.695696711540221946e+00 7.816932797431945801e-01 4.800000000000000000e+01
-2.942415237426757812e+00 1.120075955986977040e-01 -6.798020601272583008e-01 1.300000000000000000e+01
-4.501757049560546875e+01 1.713663578033447044e+00 2.360979557037353960e+00 3.500000000000000000e+01
-3.503811359405518022e+00 1.339904218912124911e-01 -6.815697550773620605e-01 1.100000000000000000e+01
-4.485345458984375000e+01 1.723096013069153054e+00 3.927063465118408203e+00 5.400000000000000000e+01
-4.362335205078125000e+00 1.683465242385863980e-01 -6.914403438568115234e-01 1.000000000000000000e+01
-5.744473457336425781e+00 2.236927151679992953e-01 -7.058672308921813965e-01 1.100000000000000000e+01
-8.357659339904785156e+00 3.269124031066895086e-01 -7.317596077919006348e-01 2.000000000000000000e+00
-3.447942733764647727e+01 1.372781991958617942e+00 -6.023174524307250977e-01 1.300000000000000000e+01
-2.544020891189575195e+00 1.048469394445419034e-01 -6.822469830513000488e-01 1.700000000000000000e+01
-4.478483200073242188e+01 1.853550553321837935e+00 7.823913693428039551e-01 4.800000000000000000e+01
-2.932271003723144975e+00 1.218732297420501987e-01 -6.775525808334350586e-01 1.300000000000000000e+01
-4.505122375488281250e+01 1.872452497482300027e+00 2.363073110580443892e+00 3.500000000000000000e+01
-3.507245302200316939e+00 1.463839262723923007e-01 -6.823329925537109375e-01 1.200000000000000000e+01
-4.482726287841796875e+01 1.878818869590759055e+00 3.925320386886597124e+00 5.400000000000000000e+01
-4.349879264831542969e+00 1.830745041370392123e-01 -6.895630955696105957e-01 1.000000000000000000e+01
-5.723824501037597656e+00 2.429016530513762873e-01 -7.034298777580261230e-01 1.100000000000000000e+01
-8.360448837280273438e+00 3.562537431716918945e-01 -7.321082353591918945e-01 2.000000000000000000e+00
-3.440250396728516336e+01 1.490014195442199929e+00 -6.010608673095703125e-01 2.000000000000000000e+01
-2.553269147872924805e+00 1.146036535501479964e-01 -6.848351955413818359e-01 1.900000000000000000e+01
-4.476175689697266336e+01 2.016962766647338867e+00 7.821121215820312500e-01 4.800000000000000000e+01
-2.939591646194458008e+00 1.329719722270966131e-01 -6.793521642684936523e-01 1.200000000000000000e+01
-4.500415420532227273e+01 2.035755872726439986e+00 2.360979557037353960e+00 3.500000000000000000e+01
-3.502762794494628906e+00 1.590595245361328125e-01 -6.815697550773620605e-01 1.100000000000000000e+01
-4.483997726440429688e+01 2.044013738632202148e+00 3.927063465118408203e+00 5.400000000000000000e+01
-4.347205638885498047e+00 1.989260762929916104e-01 -6.892502307891845703e-01 1.000000000000000000e+01
-5.707032203674316406e+00 2.631474137306212824e-01 -7.014799118041992188e-01 1.100000000000000000e+01
-8.339183807373046875e+00 3.859727382659912109e-01 -7.303650975227355957e-01 2.000000000000000000e+00
-3.439281463623046875e+01 1.615908026695251021e+00 -6.009910702705383301e-01 1.300000000000000000e+01
-2.556712627410889116e+00 1.237022504210471968e-01 -6.858704686164855957e-01 2.400000000000000000e+01
-4.475444412231445312e+01 2.173197984695435014e+00 7.821121215820312500e-01 4.800000000000000000e+01
-2.935216665267943892e+00 1.430425345897675116e-01 -6.784523725509643555e-01 1.200000000000000000e+01
-3.492381572723389116e+00 1.708059608936310092e-01 -6.796616315841674805e-01 1.200000000000000000e+01
-4.486441040039063211e+01 2.202084779739379883e+00 3.929852485656737837e+00 5.400000000000000000e+01
-4.348457813262938565e+00 2.141966223716736117e-01 -6.895630955696105957e-01 1.000000000000000000e+01
-5.710043907165527344e+00 2.832637727260590155e-01 -7.019674181938171387e-01 1.100000000000000000e+01
-8.307936668395996094e+00 4.135936200618743896e-01 -7.277504801750183105e-01 3.000000000000000000e+00
-3.436299896240233664e+01 1.734741687774657981e+00 -6.005722284317016602e-01 1.900000000000000000e+01
-2.540808200836182085e+00 1.322687864303588867e-01 -6.817293763160705566e-01 2.100000000000000000e+01
-4.473419570922852273e+01 2.336590766906737837e+00 7.819027304649353027e-01 4.800000000000000000e+01
-2.946349143981934038e+00 1.544116139411925992e-01 -6.811518073081970215e-01 1.100000000000000000e+01
-3.497613668441772017e+00 1.839143037796021063e-01 -6.808065176010131836e-01 1.200000000000000000e+01
-4.487195205688477273e+01 2.367346048355102983e+00 3.931246995925902876e+00 5.400000000000000000e+01
-4.343698501586914062e+00 2.299242466688156128e-01 -6.889373660087585449e-01 1.000000000000000000e+01
-5.701038360595703125e+00 3.037677407264708918e-01 -7.009924650192260742e-01 1.100000000000000000e+01
-8.304375648498535156e+00 4.439345896244049072e-01 -7.275761365890502930e-01 2.000000000000000000e+00
-1.580541419982909979e+01 8.504574298858642578e-01 -8.295249342918395996e-01 4.000000000000000000e+00
-3.433245086669921875e+01 1.859378933906554954e+00 -6.001533269882202148e-01 1.300000000000000000e+01
-2.551904201507567915e+00 1.417800486087799072e-01 -6.848351955413818359e-01 2.800000000000000000e+01
-4.473774719238281250e+01 2.493395805358887163e+00 7.821121215820312500e-01 4.800000000000000000e+01
-2.934118032455443892e+00 1.640426665544509888e-01 -6.784523725509643555e-01 1.200000000000000000e+01
-3.500870704650878906e+00 1.963420063257217130e-01 -6.815697550773620605e-01 1.100000000000000000e+01
-4.484750366210938211e+01 2.523068666458129883e+00 3.929852485656737837e+00 5.400000000000000000e+01
-4.338924884796142578e+00 2.448625862598418912e-01 -6.883116364479064941e-01 1.000000000000000000e+01
-5.695979595184326172e+00 3.234411478042603094e-01 -7.005049586296081543e-01 1.000000000000000000e+01
-8.259014129638671875e+00 4.704269468784332275e-01 -7.237412929534912109e-01 2.000000000000000000e+00
-1.580234909057617010e+01 9.056234359741210938e-01 -8.295249342918395996e-01 4.000000000000000000e+00
-3.433173751831054688e+01 1.979555606842041016e+00 -6.002580523490905762e-01 1.900000000000000000e+01
-2.551446199417113814e+00 1.497963815927504938e-01 -6.848351955413818359e-01 2.400000000000000000e+01
-4.473368453979492188e+01 2.634166002273560014e+00 7.821819782257080078e-01 4.800000000000000000e+01
-2.927752017974853960e+00 1.729149669408797940e-01 -6.771026849746704102e-01 1.300000000000000000e+01
-3.500236749649047852e+00 2.073393166065216064e-01 -6.815697550773620605e-01 1.100000000000000000e+01
-4.483935546875000000e+01 2.663948535919189009e+00 3.929852485656737837e+00 5.400000000000000000e+01
-4.318415641784667969e+00 2.573175132274628241e-01 -6.851829290390014648e-01 1.000000000000000000e+01
-5.694935321807861328e+00 3.413339853286743164e-01 -7.005049586296081543e-01 1.000000000000000000e+01
-8.269428253173828125e+00 4.970883429050446112e-01 -7.247871756553649902e-01 2.000000000000000000e+00
-1.579942607879639027e+01 9.552634358406066895e-01 -8.295249342918395996e-01 4.000000000000000000e+00
-3.437125778198242188e+01 2.090193748474121094e+00 -6.010608673095703125e-01 2.000000000000000000e+01
-2.552835941314696822e+00 1.588216274976730069e-01 -6.853528022766113281e-01 2.000000000000000000e+01
-4.476013946533203125e+01 2.792541027069091797e+00 7.828102111816406250e-01 4.800000000000000000e+01
-2.921295881271361861e+00 1.827686131000519076e-01 -6.757529377937316895e-01 1.200000000000000000e+01
-3.491654157638549805e+00 2.190644443035126010e-01 -6.800432801246643066e-01 1.100000000000000000e+01
-4.487352752685546875e+01 2.823203086853026900e+00 3.933687210083007812e+00 5.400000000000000000e+01
-4.321434020996093750e+00 2.726387977600098211e-01 -6.858087182044982910e-01 1.000000000000000000e+01
-5.685784816741943359e+00 3.607082068920134943e-01 -6.995300054550170898e-01 1.000000000000000000e+01
-8.251735687255859375e+00 5.249390602111816406e-01 -7.233926653861999512e-01 2.000000000000000000e+00
-1.579599475860596058e+01 1.010407924652100053e+00 -8.295249342918395996e-01 4.000000000000000000e+00
-3.430588150024414062e+01 2.206437110900878906e+00 -6.000486612319946289e-01 1.900000000000000000e+01
-2.531061410903931108e+00 1.663381755352019986e-01 -6.796588301658630371e-01 1.600000000000000000e+01
-4.475012207031250000e+01 2.948765993118286133e+00 7.828102111816406250e-01 4.800000000000000000e+01
-2.936196088790893999e+00 1.939925104379653931e-01 -6.793521642684936523e-01 1.300000000000000000e+01
-3.483032226562500000e+00 2.307321727275848111e-01 -6.785168051719665527e-01 1.100000000000000000e+01
-4.483556747436522727e+01 2.977975130081177202e+00 3.931246995925902876e+00 5.400000000000000000e+01
-4.316514015197753906e+00 2.874592244625092108e-01 -6.851829290390014648e-01 1.000000000000000000e+01
-5.692413330078125000e+00 3.810834884643555243e-01 -7.005049586296081543e-01 1.000000000000000000e+01
-8.231962203979492188e+00 5.525389313697814941e-01 -7.218238711357116699e-01 3.000000000000000000e+00
-1.559309959411620916e+01 1.052094697952270952e+00 -8.190577030181884766e-01 4.000000000000000000e+00
-3.432989120483397727e+01 2.328338384628295898e+00 -6.006070971488952637e-01 1.900000000000000000e+01
-2.522756338119506836e+00 1.746385693550109863e-01 -6.775882840156555176e-01 1.200000000000000000e+01
-4.475950241088867188e+01 3.106339693069458008e+00 7.831593155860900879e-01 4.800000000000000000e+01
-2.925780773162841797e+00 2.035642713308334073e-01 -6.771026849746704102e-01 1.300000000000000000e+01
-3.490039587020874023e+00 2.434352487325668057e-01 -6.800432801246643066e-01 1.100000000000000000e+01
-4.486465072631835938e+01 3.137242078781127930e+00 3.934733152389525923e+00 5.400000000000000000e+01
-4.317454814910888672e+00 3.026630580425261896e-01 -6.854958534240722656e-01 1.000000000000000000e+01
-5.679167747497558594e+00 4.001143276691436768e-01 -6.990425586700439453e-01 1.000000000000000000e+01
-8.212096214294433594e+00 5.800071358680725098e-01 -7.202550768852233887e-01 2.000000000000000000e+00
-3.432754135131835938e+01 2.448584794998168945e+00 -6.007118225097656250e-01 1.900000000000000000e+01
-2.525985002517700195e+00 1.837238520383835116e-01 -6.786235570907592773e-01 1.400000000000000000e+01
-4.473642349243164062e+01 3.261687994003295898e+00 7.829498648643493652e-01 4.800000000000000000e+01
-2.926995992660522017e+00 2.139179557561874112e-01 -6.775525808334350586e-01 1.200000000000000000e+01
-3.493084669113159180e+00 2.559031546115875244e-01 -6.808065176010131836e-01 1.100000000000000000e+01
-4.483753204345703125e+01 3.292662382125854048e+00 3.933338642120360884e+00 5.400000000000000000e+01
-4.302581310272216797e+00 3.167168498039246161e-01 -6.833057403564453125e-01 1.000000000000000000e+01
-4.496912384033203125e+01 3.318108081817626953e+00 5.536524295806884766e+00 3.800000000000000000e+01
-5.673777103424072266e+00 4.196430444717407227e-01 -6.985550522804260254e-01 1.000000000000000000e+01
-8.210021018981933594e+00 6.086691617965698242e-01 -7.202550768852233887e-01 3.000000000000000000e+00
-3.431280136108397727e+01 2.567947626113892046e+00 -6.006070971488952637e-01 1.900000000000000000e+01
-2.525328159332274947e+00 1.925400644540787021e-01 -6.786235570907592773e-01 1.300000000000000000e+01
-4.475267791748046875e+01 3.419960737228393999e+00 7.834385037422180176e-01 4.800000000000000000e+01
-2.914573192596435991e+00 2.232408076524733942e-01 -6.748531460762023926e-01 1.400000000000000000e+01
-4.491800308227539062e+01 3.448366165161132812e+00 2.360979557037353960e+00 3.500000000000000000e+01
-3.484340190887451172e+00 2.674936354160308838e-01 -6.792800426483154297e-01 1.200000000000000000e+01
-4.490125274658203125e+01 3.454962968826293945e+00 3.939962625503540039e+00 5.400000000000000000e+01
-4.309328079223632812e+00 3.323412835597991943e-01 -6.845571994781494141e-01 1.000000000000000000e+01
-4.495726776123046875e+01 3.475059509277344194e+00 5.536524295806884766e+00 3.800000000000000000e+01
-5.668319225311279297e+00 4.391390085220336914e-01 -6.980676054954528809e-01 1.000000000000000000e+01
-8.180036544799804688e+00 6.351643800735473633e-01 -7.178146839141845703e-01 2.000000000000000000e+00
-3.433951187133789062e+01 2.690517663955688032e+00 -6.012353897094726562e-01 2.000000000000000000e+01
-2.528492212295531782e+00 2.016610950231552124e-01 -6.796588301658630371e-01 1.200000000000000000e+01
-4.472452163696289062e+01 3.574881076812744141e+00 7.831593155860900879e-01 4.800000000000000000e+01
-2.917661190032958984e+00 2.337244302034378052e-01 -6.757529377937316895e-01 1.400000000000000000e+01
-3.481428146362305132e+00 2.794975042343140204e-01 -6.788983941078186035e-01 1.200000000000000000e+01
-4.488891601562500000e+01 3.611676454544066939e+00 3.939962625503540039e+00 5.400000000000000000e+01
-4.310110569000244141e+00 3.475404083728789728e-01 -6.848700642585754395e-01 1.000000000000000000e+01
-4.489737319946289062e+01 3.628130912780762163e+00 5.530674457550048828e+00 3.800000000000000000e+01
-5.646965503692626953e+00 4.573200643062592108e-01 -6.956301927566528320e-01 1.000000000000000000e+01
-8.193656921386718750e+00 6.650035977363586426e-01 -7.192091941833496094e-01 3.000000000000000000e+00
-3.432991027832031250e+01 2.810368537902832031e+00 -6.012353897094726562e-01 2.000000000000000000e+01
-2.518146991729735884e+00 2.096844166517257968e-01 -6.770706176757812500e-01 1.400000000000000000e+01
-4.471974182128906250e+01 3.731642246246337891e+00 7.832989096641540527e-01 4.800000000000000000e+01
-2.914885520935059038e+00 2.437451481819153110e-01 -6.753030419349670410e-01 1.500000000000000000e+01
-3.466736555099486861e+00 2.905006706714630127e-01 -6.762270927429199219e-01 1.100000000000000000e+01
-4.487603759765625000e+01 3.768346071243286133e+00 3.939962625503540039e+00 5.400000000000000000e+01
-4.312808036804199219e+00 3.629146516323090155e-01 -6.854958534240722656e-01 9.000000000000000000e+00
-4.488839340209960938e+01 3.785163640975952148e+00 5.531161785125732422e+00 3.800000000000000000e+01
-5.645334720611572266e+00 4.770288765430449884e-01 -6.956301927566528320e-01 1.000000000000000000e+01
-8.171432495117187500e+00 6.919196844100952148e-01 -7.174660563468933105e-01 2.000000000000000000e+00
-3.426808929443358664e+01 2.925762176513671875e+00 -6.003278493881225586e-01 1.900000000000000000e+01
-2.511625766754149947e+00 2.179720252752304077e-01 -6.755176782608032227e-01 1.300000000000000000e+01
-4.472636413574218750e+01 3.889452934265137163e+00 7.836479544639587402e-01 4.800000000000000000e+01
-2.923723936080933061e+00 2.547643482685089111e-01 -6.775525808334350586e-01 1.400000000000000000e+01
-3.477436304092406782e+00 3.036246895790100098e-01 -6.785168051719665527e-01 1.100000000000000000e+01
-4.486260986328125000e+01 3.924969673156737837e+00 3.939962625503540039e+00 5.400000000000000000e+01
-4.301675796508789062e+00 3.771044015884398859e-01 -6.839314699172973633e-01 1.000000000000000000e+01
-4.487886047363281250e+01 3.942177772521973100e+00 5.531649589538574219e+00 3.800000000000000000e+01
-5.647590160369873047e+00 4.970799684524536133e-01 -6.961176991462707520e-01 1.000000000000000000e+01
-8.161028861999511719e+00 7.197389602661132812e-01 -7.167688012123107910e-01 1.000000000000000000e+00
-1.536869812011718928e+01 1.360805630683898926e+00 -8.085905313491821289e-01 4.000000000000000000e+00
-3.426165008544921875e+01 3.045716524124145952e+00 -6.003977060317993164e-01 1.900000000000000000e+01
-2.514697551727294922e+00 2.270853966474533081e-01 -6.765530109405517578e-01 1.300000000000000000e+01
-4.473242950439453125e+01 4.047355175018311435e+00 7.839969992637634277e-01 4.800000000000000000e+01
-2.916994571685791016e+00 2.644406557083129883e-01 -6.762028932571411133e-01 1.500000000000000000e+01
-3.476355314254761186e+00 3.157613575458527166e-01 -6.785168051719665527e-01 1.100000000000000000e+01
-4.484863662719727273e+01 4.081545352935791016e+00 3.939962625503540039e+00 5.400000000000000000e+01
-4.278693675994873047e+00 3.901446163654326837e-01 -6.804898977279663086e-01 1.000000000000000000e+01
-4.486087417602539062e+01 4.098448753356933594e+00 5.531161785125732422e+00 3.800000000000000000e+01
-5.641867160797119141e+00 5.164288282394409180e-01 -6.956301927566528320e-01 1.000000000000000000e+01
-8.154499053955078125e+00 7.478579282760620117e-01 -7.164202332496643066e-01 2.000000000000000000e+00
-1.536385440826416016e+01 1.414444088935852051e+00 -8.085905313491821289e-01 4.000000000000000000e+00
-3.428266906738281250e+01 3.168237686157227007e+00 -6.009561419486999512e-01 2.000000000000000000e+01
-2.517736434936522993e+00 2.362228631973266879e-01 -6.775882840156555176e-01 1.500000000000000000e+01
-4.474988555908203125e+01 4.206470489501953125e+00 7.845554947853088379e-01 4.800000000000000000e+01
-2.896651983261107954e+00 2.727941274642943781e-01 -6.717038750648498535e-01 1.500000000000000000e+01
-3.467413663864136186e+00 3.271565139293671209e-01 -6.769903302192687988e-01 1.100000000000000000e+01
-4.483411407470703125e+01 4.238071441650390625e+00 3.939962625503540039e+00 5.400000000000000000e+01
-4.283205509185791016e+00 4.056363999843596857e-01 -6.814285516738891602e-01 1.000000000000000000e+01
-4.485815048217772727e+01 4.256142616271972656e+00 5.532624244689941406e+00 3.800000000000000000e+01
-5.632125377655029297e+00 5.353680849075317383e-01 -6.946552395820617676e-01 1.000000000000000000e+01
-8.153821945190429688e+00 7.765067815780639648e-01 -7.165945172309875488e-01 2.000000000000000000e+00
-1.516000366210938033e+01 1.449061274528502974e+00 -7.981233596801757812e-01 4.000000000000000000e+00
-3.431718444824218750e+01 3.292279481887816939e+00 -6.017589569091796875e-01 2.000000000000000000e+01
-2.516896486282349077e+00 2.450099736452102939e-01 -6.775882840156555176e-01 1.400000000000000000e+01
-4.475483322143554688e+01 4.364592075347900391e+00 7.849045395851135254e-01 4.900000000000000000e+01
-2.905379772186278853e+00 2.838510870933533270e-01 -6.739533543586730957e-01 1.400000000000000000e+01
-3.462342500686645952e+00 3.388755619525908869e-01 -6.762270927429199219e-01 1.100000000000000000e+01
-4.487060165405272727e+01 4.399600982666015625e+00 3.944494724273682085e+00 5.400000000000000000e+01
-4.273900032043457031e+00 4.198126792907714844e-01 -6.801770329475402832e-01 1.000000000000000000e+01
-4.485487365722656250e+01 4.413867473602294922e+00 5.534086704254150391e+00 3.800000000000000000e+01
-5.616393566131591797e+00 5.536613464355468750e-01 -6.929491162300109863e-01 1.200000000000000000e+01
-8.139164924621582031e+00 8.037893772125244141e-01 -7.155486345291137695e-01 2.000000000000000000e+00
-1.522640419006348012e+01 1.509062051773071067e+00 -8.018915057182312012e-01 4.000000000000000000e+00
-3.426966476440429688e+01 3.408486366271973100e+00 -6.011306643486022949e-01 1.300000000000000000e+01
-2.523714303970336914e+00 2.545696198940277100e-01 -6.796588301658630371e-01 1.200000000000000000e+01
-4.476717758178710938e+01 4.523603439331054688e+00 7.853931784629821777e-01 4.900000000000000000e+01
-2.904371261596680132e+00 2.939910292625427246e-01 -6.739533543586730957e-01 1.400000000000000000e+01
-3.457232236862183061e+00 3.505632281303405762e-01 -6.754638552665710449e-01 1.100000000000000000e+01
-4.486686706542968750e+01 4.557410240173339844e+00 3.945540428161621094e+00 5.400000000000000000e+01
-4.284199714660645419e+00 4.359286129474639893e-01 -6.820542812347412109e-01 1.000000000000000000e+01
-4.485894393920897727e+01 4.572425842285156250e+00 5.536524295806884766e+00 3.800000000000000000e+01
-5.632200241088867188e+00 5.750776529312133789e-01 -6.951427459716796875e-01 1.000000000000000000e+01
-8.110543251037597656e+00 8.295599818229675293e-01 -7.132825851440429688e-01 2.000000000000000000e+00
-3.423368835449218750e+01 3.525630712509154829e+00 -6.007118225097656250e-01 1.300000000000000000e+01
-2.507439136505126953e+00 2.617727518081665039e-01 -6.755176782608032227e-01 1.500000000000000000e+01
-4.478691482543945312e+01 4.683586120605468750e+00 7.860214710235595703e-01 4.900000000000000000e+01
-2.911079883575439009e+00 3.049394786357880194e-01 -6.757529377937316895e-01 1.400000000000000000e+01
-3.463797569274901900e+00 3.634485900402069092e-01 -6.769903302192687988e-01 1.200000000000000000e+01
-4.484275817871093750e+01 4.713163852691650391e+00 3.944843292236328125e+00 5.400000000000000000e+01
-4.282651901245117188e+00 4.508806169033051092e-01 -6.820542812347412109e-01 1.000000000000000000e+01
-4.487429428100585938e+01 4.732316017150878906e+00 5.540423870086669922e+00 3.800000000000000000e+01
-5.602520942687988281e+00 5.918146967887878418e-01 -6.917303800582885742e-01 1.000000000000000000e+01
-8.091747283935546875e+00 8.561888933181762695e-01 -7.118881344795227051e-01 2.000000000000000000e+00
-3.423707962036132812e+01 3.646801471710205078e+00 -6.009910702705383301e-01 1.300000000000000000e+01
-2.508430719375609907e+00 2.707310318946837824e-01 -6.760353446006774902e-01 1.500000000000000000e+01
-4.475438690185546875e+01 4.838173866271972656e+00 7.857422232627868652e-01 4.900000000000000000e+01
-2.906122922897338867e+00 3.146796226501464844e-01 -6.748531460762023926e-01 1.400000000000000000e+01
-4.505841827392578125e+01 4.878997325897216797e+00 2.375215053558350053e+00 3.500000000000000000e+01
-3.454700469970703125e+00 3.746905028820037842e-01 -6.754638552665710449e-01 1.100000000000000000e+01
-4.486960983276367188e+01 4.874399185180664062e+00 3.948678016662598100e+00 5.400000000000000000e+01
-4.271233081817626953e+00 4.647586941719055176e-01 -6.804898977279663086e-01 9.000000000000000000e+00
-4.488710403442382812e+01 4.892154216766357422e+00 5.544080257415770596e+00 7.600000000000000000e+01
-5.608314514160156250e+00 6.122292280197143555e-01 -6.927053332328796387e-01 1.000000000000000000e+01
-8.082767486572265625e+00 8.837794661521911621e-01 -7.113651633262634277e-01 2.000000000000000000e+00
-3.420824050903320312e+01 3.764539003372191939e+00 -6.007118225097656250e-01 1.300000000000000000e+01
-2.511310338973999023e+00 2.799134552478789728e-01 -6.770706176757812500e-01 1.300000000000000000e+01
-4.477697372436522727e+01 4.998803615570068359e+00 7.864403128623962402e-01 4.900000000000000000e+01
-2.897259950637816939e+00 3.239557743072509766e-01 -6.730535626411437988e-01 1.300000000000000000e+01
-3.453371524810791016e+00 3.867473900318145752e-01 -6.754638552665710449e-01 1.100000000000000000e+01
-4.488399887084960938e+01 5.034547328948974609e+00 3.951467037200928178e+00 5.400000000000000000e+01
-4.257806777954101562e+00 4.783420264720916748e-01 -6.786127090454101562e-01 1.000000000000000000e+01
-4.485988998413085938e+01 5.047699451446533203e+00 5.542861461639404297e+00 7.600000000000000000e+01
-5.594307422637938565e+00 6.304683089256286621e-01 -6.912429332733154297e-01 1.000000000000000000e+01
-8.073694229125976562e+00 9.113177657127380371e-01 -7.108422517776489258e-01 2.000000000000000000e+00
-3.423463058471679688e+01 3.888438701629639116e+00 -6.014099121093750000e-01 1.300000000000000000e+01
-2.510318040847777876e+00 2.886778414249420166e-01 -6.770706176757812500e-01 1.600000000000000000e+01
-4.478308868408203125e+01 5.157819271087645596e+00 7.868592143058776855e-01 4.900000000000000000e+01
-2.899983406066894975e+00 3.345137238502501886e-01 -6.739533543586730957e-01 1.200000000000000000e+01
-3.444199323654174805e+00 3.978983163833618164e-01 -6.739373803138732910e-01 1.200000000000000000e+01
-4.486615371704102273e+01 5.191191196441650391e+00 3.951467037200928178e+00 5.400000000000000000e+01
-4.267884254455566406e+00 4.945659637451171875e-01 -6.804898977279663086e-01 9.000000000000000000e+00
-4.487749099731445312e+01 5.208378314971923828e+00 5.547248840332031250e+00 7.700000000000000000e+01
-5.576298236846923828e+00 6.481587290763854980e-01 -6.892930269241333008e-01 1.000000000000000000e+01
-8.076400756835937500e+00 9.401858448982238770e-01 -7.113651633262634277e-01 2.000000000000000000e+00
-1.492795372009276988e+01 1.743066906929015891e+00 -7.876561284065246582e-01 4.000000000000000000e+00
-3.415133666992188211e+01 3.999774694442749023e+00 -6.001882553100585938e-01 1.900000000000000000e+01
-2.511213541030883789e+00 2.976661324501038153e-01 -6.775882840156555176e-01 1.500000000000000000e+01
-4.481644439697266336e+01 5.320239067077636719e+00 7.877666950225830078e-01 4.900000000000000000e+01
-2.904603242874145952e+00 3.453246951103209894e-01 -6.753030419349670410e-01 1.300000000000000000e+01
-3.446688413619995117e+00 4.103825986385344904e-01 -6.747006177902221680e-01 1.100000000000000000e+01
-4.487545776367188211e+01 5.351074218750000000e+00 3.953907489776610884e+00 5.400000000000000000e+01
-4.268093585968017578e+00 5.096948742866516113e-01 -6.808027625083923340e-01 1.000000000000000000e+01
-4.485509490966796875e+01 5.364526748657226562e+00 5.546761512756347656e+00 7.700000000000000000e+01
-5.589769840240479404e+00 6.695082783699035645e-01 -6.912429332733154297e-01 1.000000000000000000e+01
-8.063179016113281250e+00 9.671855568885803223e-01 -7.104936242103576660e-01 3.000000000000000000e+00
-3.414709091186522727e+01 4.120158672332763672e+00 -6.003627777099609375e-01 1.300000000000000000e+01
-2.504459619522095171e+00 3.052906990051270086e-01 -6.760353446006774902e-01 1.400000000000000000e+01
-4.477870559692382812e+01 5.466403484344482422e+00 7.874176502227783203e-01 4.900000000000000000e+01
-2.903442144393920898e+00 3.549548089504241943e-01 -6.753030419349670410e-01 1.200000000000000000e+01
-3.443359851837158203e+00 4.215714037418364923e-01 -6.743189692497253418e-01 1.200000000000000000e+01
-4.489701461791992188e+01 5.504706382751464844e+00 3.957393646240233931e+00 5.400000000000000000e+01
-4.258537292480468750e+00 5.228826403617858887e-01 -6.795513033866882324e-01 1.000000000000000000e+01
-4.487449264526367188e+01 5.517845153808593750e+00 5.551392555236816406e+00 7.700000000000000000e+01
-5.575697422027587891e+00 6.865853071212768555e-01 -6.897804737091064453e-01 1.000000000000000000e+01
-8.030265808105468750e+00 9.902610182762145996e-01 -7.078789472579956055e-01 2.000000000000000000e+00
-1.484438610076903942e+01 1.835812330245971902e+00 -7.838879823684692383e-01 4.000000000000000000e+00
-3.411537933349608664e+01 4.231156349182128906e+00 -6.000486612319946289e-01 1.900000000000000000e+01
-2.495711326599121094e+00 3.130692243576049805e-01 -6.739647984504699707e-01 1.500000000000000000e+01
-4.476331710815429688e+01 5.623175621032714844e+00 7.874875068664550781e-01 4.900000000000000000e+01
-2.894451618194580078e+00 3.641146421432495117e-01 -6.735034584999084473e-01 1.300000000000000000e+01
-3.445763111114501953e+00 4.340791702270507812e-01 -6.750822067260742188e-01 1.200000000000000000e+01
-4.487752914428710938e+01 5.661392688751220703e+00 3.957393646240233931e+00 5.400000000000000000e+01
-4.246887207031250000e+00 5.365065932273864746e-01 -6.779869794845581055e-01 9.000000000000000000e+00
-4.488843917846679688e+01 5.678688049316406250e+00 5.555535793304443359e+00 7.700000000000000000e+01
-5.567358970642089844e+00 7.052954435348510742e-01 -6.890492439270019531e-01 1.000000000000000000e+01
-8.018854141235351562e+00 1.017282843589782937e+00 -7.071816921234130859e-01 2.000000000000000000e+00
-1.471108436584473012e+01 1.871486306190490945e+00 -7.771889567375183105e-01 4.000000000000000000e+00
-3.413015747070313211e+01 4.354011535644531250e+00 -6.005722284317016602e-01 1.900000000000000000e+01
-2.502267122268677202e+00 3.227675557136536200e-01 -6.760353446006774902e-01 1.500000000000000000e+01
-4.477514648437500000e+01 5.783493041992188388e+00 7.880459427833557129e-01 4.900000000000000000e+01
-2.887364864349364790e+00 3.734660148620604914e-01 -6.721537709236145020e-01 1.400000000000000000e+01
-3.440332889556885210e+00 4.456001222133635919e-01 -6.743189692497253418e-01 1.200000000000000000e+01
-4.485749435424804688e+01 5.818009853363037109e+00 3.957393646240233931e+00 5.400000000000000000e+01
-4.241070747375488281e+00 5.508189201354980469e-01 -6.773612499237060547e-01 9.000000000000000000e+00
-4.483684539794921875e+01 5.831247329711914062e+00 5.551636219024658203e+00 7.700000000000000000e+01
-5.551083564758300781e+00 7.229303717613220215e-01 -6.873431205749511719e-01 1.000000000000000000e+01
-8.017230033874511719e+00 1.045525312423706055e+00 -7.073560357093811035e-01 2.000000000000000000e+00
-1.470446205139159979e+01 1.922826290130615012e+00 -7.771889567375183105e-01 4.000000000000000000e+00
-3.405130386352539062e+01 4.464802265167236328e+00 -5.994552373886108398e-01 1.900000000000000000e+01
-2.504955530166625977e+00 3.320077955722808838e-01 -6.770706176757812500e-01 1.300000000000000000e+01
-4.481812286376953125e+01 5.948171138763427734e+00 7.891629338264465332e-01 4.900000000000000000e+01
-2.882180213928223100e+00 3.830290734767913818e-01 -6.712539196014404297e-01 1.300000000000000000e+01
-3.427079916000366211e+00 4.560525715351104736e-01 -6.720292568206787109e-01 1.200000000000000000e+01
-4.488825988769531250e+01 5.981398582458496094e+00 3.961925745010375977e+00 5.400000000000000000e+01
-4.243038177490234375e+00 5.661421418190002441e-01 -6.779869794845581055e-01 9.000000000000000000e+00
-4.487524795532227273e+01 5.995608329772949219e+00 5.558948040008544922e+00 7.700000000000000000e+01
-5.540656089782714844e+00 7.412499785423278809e-01 -6.863681674003601074e-01 1.000000000000000000e+01
-8.001683235168457031e+00 1.071917057037353960e+00 -7.063101530075073242e-01 1.000000000000000000e+00
-3.398398590087891336e+01 4.576696872711181641e+00 -5.985477566719055176e-01 1.900000000000000000e+01
-2.486553430557250977e+00 3.384050726890563965e-01 -6.724118590354919434e-01 1.500000000000000000e+01
-4.480501174926757812e+01 6.105659484863281250e+00 7.893025279045104980e-01 4.900000000000000000e+01
-2.892410755157471147e+00 3.946682214736937921e-01 -6.739533543586730957e-01 1.200000000000000000e+01
-3.423521995544434038e+00 4.677467644214630127e-01 -6.716476678848266602e-01 1.300000000000000000e+01
-4.487105560302733664e+01 6.138591766357421875e+00 3.962274312973022017e+00 5.400000000000000000e+01
-4.244950294494628906e+00 5.814858675003051758e-01 -6.786127090454101562e-01 9.000000000000000000e+00
-4.490124511718750000e+01 6.158689498901367188e+00 5.564797878265380859e+00 7.800000000000000000e+01
-5.551801204681395596e+00 7.624766230583190918e-01 -6.880742907524108887e-01 1.200000000000000000e+01
-7.982102394104003906e+00 1.097670197486876997e+00 -7.049156427383422852e-01 2.000000000000000000e+00
-1.459175300598145064e+01 2.011795759201049805e+00 -7.719553709030151367e-01 4.000000000000000000e+00
-3.397572708129882812e+01 4.696390628814697266e+00 -5.986873507499694824e-01 1.900000000000000000e+01
-2.483443737030028853e+00 3.468155264854431152e-01 -6.718942523002624512e-01 1.600000000000000000e+01
-4.478738784790039062e+01 6.262574672698974609e+00 7.893723249435424805e-01 4.900000000000000000e+01
-2.896805286407471147e+00 4.055728018283843994e-01 -6.753030419349670410e-01 1.200000000000000000e+01
-4.483150863647460938e+01 6.284699916839599609e+00 2.372493505477904829e+00 3.500000000000000000e+01
-3.416035652160644975e+00 4.788765907287598211e-01 -6.705027818679809570e-01 1.200000000000000000e+01
-4.486119079589843750e+01 6.296844959259033203e+00 3.963320255279541016e+00 5.400000000000000000e+01
-4.248763084411621094e+00 5.971246957778930664e-01 -6.795513033866882324e-01 7.000000000000000000e+00
-4.490109634399414062e+01 6.318429470062255859e+00 5.567479133605957031e+00 7.800000000000000000e+01
-5.531414985656738281e+00 7.793587446212768555e-01 -6.858806610107421875e-01 1.200000000000000000e+01
-7.970330715179443359e+00 1.124412894248961958e+00 -7.042183876037597656e-01 1.000000000000000000e+00
-1.458464145660400035e+01 2.062718152999877930e+00 -7.719553709030151367e-01 4.000000000000000000e+00
-3.397496414184570312e+01 4.817204952239990234e+00 -5.989665985107421875e-01 1.300000000000000000e+01
-2.489867448806763139e+00 3.565777242183684748e-01 -6.739647984504699707e-01 1.600000000000000000e+01
-4.477713012695313211e+01 6.420576572418212891e+00 7.895817756652832031e-01 4.900000000000000000e+01
-2.883798122406005859e+00 4.140204489231110174e-01 -6.726036667823791504e-01 1.300000000000000000e+01
-4.482906723022460938e+01 6.443994522094726562e+00 2.373540401458739790e+00 3.500000000000000000e+01
-3.422116279602050781e+00 4.919151961803435724e-01 -6.720292568206787109e-01 1.200000000000000000e+01
-4.487049102783203125e+01 6.457942962646484375e+00 3.966109275817871094e+00 5.400000000000000000e+01
-4.227100849151611328e+00 6.091345548629760742e-01 -6.764226555824279785e-01 7.000000000000000000e+00
-4.488662719726563211e+01 6.476258754730224609e+00 5.568454265594482422e+00 7.800000000000000000e+01
-5.554202079772949219e+00 8.023518323898315430e-01 -6.890492439270019531e-01 1.200000000000000000e+01
-7.974244594573974609e+00 1.153368592262268066e+00 -7.049156427383422852e-01 1.000000000000000000e+00
-1.447852325439452947e+01 2.099286079406737837e+00 -7.667217850685119629e-01 4.000000000000000000e+00
-3.397970962524414062e+01 4.938934326171875000e+00 -5.993505716323852539e-01 1.900000000000000000e+01
-2.484784841537476030e+00 3.647057116031646729e-01 -6.729295253753662109e-01 1.600000000000000000e+01
-4.477423095703125000e+01 6.579746246337890625e+00 7.899308204650878906e-01 4.900000000000000000e+01
-2.864983558654785156e+00 4.215312600135803223e-01 -6.685545444488525391e-01 1.200000000000000000e+01
-4.483791351318358664e+01 6.605095386505126953e+00 2.375215053558350053e+00 3.500000000000000000e+01
-3.432032108306885210e+00 5.055743455886840820e-01 -6.743189692497253418e-01 1.200000000000000000e+01
-4.484767532348632812e+01 6.614530563354492188e+00 3.966109275817871094e+00 5.400000000000000000e+01
-4.215178012847900391e+00 6.224433779716491699e-01 -6.748582720756530762e-01 9.000000000000000000e+00
-4.486571121215820312e+01 6.633193016052246094e+00 5.568697929382324219e+00 7.800000000000000000e+01
-5.521912097930908203e+00 8.173746466636657715e-01 -6.853932142257690430e-01 1.200000000000000000e+01
-7.970170021057128906e+00 1.181196808815001997e+00 -7.049156427383422852e-01 1.000000000000000000e+00
-3.398006439208983664e+01 5.060166835784912109e+00 -5.996646881103515625e-01 1.900000000000000000e+01
-2.487317323684691939e+00 3.739514350891112726e-01 -6.739647984504699707e-01 1.500000000000000000e+01
-4.478658294677733664e+01 6.741354942321777344e+00 7.905591130256652832e-01 4.900000000000000000e+01
-2.875056505203247070e+00 4.332717359066010077e-01 -6.712539196014404297e-01 1.400000000000000000e+01
-4.482248306274414062e+01 6.762760639190673828e+00 2.375633716583251953e+00 3.500000000000000000e+01
-3.414716243743896040e+00 5.152081251144409180e-01 -6.712660193443298340e-01 1.200000000000000000e+01
-4.492281341552733664e+01 6.785917282104492188e+00 3.974824905395507812e+00 5.400000000000000000e+01
-4.230558395385742188e+00 6.398117542266845703e-01 -6.776741147041320801e-01 9.000000000000000000e+00
-4.487761306762695312e+01 6.795112609863281250e+00 5.573085308074951172e+00 7.800000000000000000e+01
-5.503323554992675781e+00 8.342645168304443359e-01 -6.834432482719421387e-01 1.000000000000000000e+01
-7.954179286956787109e+00 1.207216978073119895e+00 -7.038697600364685059e-01 1.000000000000000000e+00
-1.446351432800292969e+01 2.200313091278076172e+00 -7.667217850685119629e-01 4.000000000000000000e+00
-3.393056488037108664e+01 5.173925399780273438e+00 -5.991061925888061523e-01 1.300000000000000000e+01
-2.485996961593627930e+00 3.826315104961395264e-01 -6.739647984504699707e-01 1.500000000000000000e+01
-4.482602310180664062e+01 6.907393932342529297e+00 7.916760444641113281e-01 5.000000000000000000e+01
-2.873526573181151900e+00 4.433048963546752930e-01 -6.712539196014404297e-01 1.300000000000000000e+01
-4.481834411621093750e+01 6.922227382659912109e+00 2.376680374145507812e+00 3.500000000000000000e+01
-3.401255369186400923e+00 5.253264904022216797e-01 -6.689763665199279785e-01 1.200000000000000000e+01
-4.493035888671875000e+01 6.947557449340820312e+00 3.977613687515258789e+00 5.400000000000000000e+01
-4.216586112976074219e+00 6.527620553970336914e-01 -6.757968664169311523e-01 1.000000000000000000e+01
-4.488500595092772727e+01 6.956587791442871094e+00 5.576984882354736328e+00 7.800000000000000000e+01
-5.510186195373535156e+00 8.549914956092834473e-01 -6.846619844436645508e-01 1.200000000000000000e+01
-7.934166908264160156e+00 1.232528090476989968e+00 -7.024753093719482422e-01 1.000000000000000000e+00
-1.445574569702148082e+01 2.250786781311035156e+00 -7.667217850685119629e-01 4.000000000000000000e+00
-3.395181274414063211e+01 5.298500537872313565e+00 -5.998042821884155273e-01 1.300000000000000000e+01
-2.469379425048828125e+00 3.889026045799254816e-01 -6.698237061500549316e-01 1.800000000000000000e+01
-4.481348800659179688e+01 7.065692424774169922e+00 7.918854951858520508e-01 5.000000000000000000e+01
-2.877736330032349077e+00 4.542442262172698975e-01 -6.726036667823791504e-01 1.200000000000000000e+01
-4.482152557373046875e+01 7.082994937896729404e+00 2.378145933151245117e+00 3.500000000000000000e+01
-3.399400949478148970e+00 5.371959209442138672e-01 -6.689763665199279785e-01 1.200000000000000000e+01
-4.487434768676757812e+01 7.099370002746582031e+00 3.974824905395507812e+00 5.400000000000000000e+01
-4.206477642059326172e+00 6.662406325340270996e-01 -6.745454072952270508e-01 1.000000000000000000e+01
-4.489181900024414062e+01 7.118197441101074219e+00 5.580884933471679688e+00 7.800000000000000000e+01
-5.501286506652832031e+00 8.732867836952209473e-01 -6.839307546615600586e-01 1.000000000000000000e+01
-7.902268409729003906e+00 1.255838155746459961e+00 -7.000349164009094238e-01 1.000000000000000000e+00
-1.444780158996582031e+01 2.301233053207397017e+00 -7.667217850685119629e-01 4.000000000000000000e+00
-3.387781906127929688e+01 5.408155441284179688e+00 -5.988269448280334473e-01 1.300000000000000000e+01
-2.471821546554564986e+00 3.981343805789948065e-01 -6.708589792251586914e-01 1.600000000000000000e+01
-4.480039596557617188e+01 7.223987579345703125e+00 7.920949459075927734e-01 5.000000000000000000e+01
-2.868437767028809038e+00 4.630443751811981201e-01 -6.708040237426757812e-01 1.300000000000000000e+01
-4.481230163574218750e+01 7.241957187652587891e+00 2.378983259201049805e+00 3.500000000000000000e+01
-3.409133672714232954e+00 5.509380102157592773e-01 -6.712660193443298340e-01 1.200000000000000000e+01
-4.493189620971679688e+01 7.269331932067871094e+00 3.982145786285399947e+00 5.400000000000000000e+01
-4.204126834869384766e+00 6.809199452400207520e-01 -6.745454072952270508e-01 1.000000000000000000e+01
-4.488433456420897727e+01 7.277715206146240234e+00 5.583078384399414062e+00 7.800000000000000000e+01
-5.511920928955078125e+00 8.947109580039978027e-01 -6.856369376182556152e-01 1.200000000000000000e+01
-7.901769638061523438e+00 1.284053683280945046e+00 -7.003835439682006836e-01 1.000000000000000000e+00
-3.386663055419921875e+01 5.527666568756104404e+00 -5.989665985107421875e-01 1.300000000000000000e+01
-2.476135253906250000e+00 4.077017903327941895e-01 -6.724118590354919434e-01 1.500000000000000000e+01
-4.479069137573242188e+01 7.382927894592285156e+00 7.923741340637207031e-01 5.000000000000000000e+01
-2.851422071456909180e+00 4.705160856246948242e-01 -6.672048568725585938e-01 1.300000000000000000e+01
-4.483010101318358664e+01 7.405498504638671875e+00 2.381285905838013139e+00 3.500000000000000000e+01
-3.405252933502196822e+00 5.625147819519042969e-01 -6.708844304084777832e-01 1.200000000000000000e+01
-4.487479782104492188e+01 7.420928001403808594e+00 3.979357004165648970e+00 5.400000000000000000e+01
-4.193928718566895419e+00 6.943004131317138672e-01 -6.732939481735229492e-01 1.000000000000000000e+01
-4.487432479858397727e+01 7.436943054199218750e+00 5.585028171539306641e+00 7.900000000000000000e+01
-5.497014045715332031e+00 9.119963049888610840e-01 -6.841744780540466309e-01 1.200000000000000000e+01
-7.893308639526367188e+00 1.310975313186645952e+00 -7.000349164009094238e-01 2.000000000000000000e+00
-1.423436832427979049e+01 2.369248390197753906e+00 -7.562545537948608398e-01 4.000000000000000000e+00
-3.378795242309570312e+01 5.635979175567626953e+00 -5.979194641113281250e-01 1.300000000000000000e+01
-2.482317209243773970e+00 4.176246821880341131e-01 -6.744824051856994629e-01 1.500000000000000000e+01
-4.480408859252929688e+01 7.545873641967773438e+00 7.930722236633300781e-01 5.000000000000000000e+01
-2.853605508804320845e+00 4.811145067214965820e-01 -6.681046485900878906e-01 1.200000000000000000e+01
