9.383213996887207031e+00 9.555097579956054688e+00 -2.337575256824493131e-01 2.000000000000000000e+00
1.572374105453490989e+00 1.596711397171020952e+00 -6.004601716995239258e-01 1.500000000000000000e+01
1.790488719940185991e+00 1.816932916641234907e+00 -5.889218449592590332e-01 1.300000000000000000e+01
2.075661182403564009e+00 2.105581998825072798e+00 -5.747166872024536133e-01 1.100000000000000000e+01
2.463777780532836914e+00 2.497548818588256836e+00 -5.556552410125732422e-01 9.000000000000000000e+00
3.048548698425292969e+00 3.088178396224976030e+00 -5.328127741813659668e-01 1.000000000000000000e+01
3.971664905548096147e+00 4.021890640258789062e+00 -4.945216774940490723e-01 8.000000000000000000e+00
5.709539413452148438e+00 5.777706623077392578e+00 -4.257006645202637274e-01 2.000000000000000000e+00
9.399637222290039062e+00 9.505223274230957031e+00 -2.333386689424515048e-01 2.000000000000000000e+00
1.577938079833983931e+00 1.591213107109070046e+00 -6.004601716995239258e-01 1.600000000000000000e+01
1.800938010215759055e+00 1.814821600914001021e+00 -5.902715921401977539e-01 1.200000000000000000e+01
2.080232143402100053e+00 2.095537185668944868e+00 -5.739534497261047363e-01 1.200000000000000000e+01
2.483618021011352983e+00 2.500144958496094194e+00 -5.581581592559814453e-01 9.000000000000000000e+00
3.063508272171020952e+00 3.081741571426392046e+00 -5.335440039634704590e-01 1.000000000000000000e+01
3.987084627151488814e+00 4.009415149688720703e+00 -4.946959912776947021e-01 9.000000000000000000e+00
5.721219539642333984e+00 5.749247074127197266e+00 -4.250726401805878241e-01 2.000000000000000000e+00
9.444047927856445312e+00 9.483690261840820312e+00 -2.336179167032242099e-01 2.000000000000000000e+00
1.572562217712401900e+00 1.574759483337401900e+00 -5.963190793991088867e-01 1.500000000000000000e+01
1.814149379730225053e+00 1.815416336059570090e+00 -5.925210714340209961e-01 1.300000000000000000e+01
2.093086242675780806e+00 2.093816995620727983e+00 -5.754799246788024902e-01 1.300000000000000000e+01
2.490932941436768022e+00 2.490063667297362837e+00 -5.578452944755554199e-01 1.000000000000000000e+01
3.078460216522216797e+00 3.075237989425659180e+00 -5.342751741409301758e-01 1.000000000000000000e+01
3.988367319107056108e+00 3.982802391052246094e+00 -4.931271970272064209e-01 9.000000000000000000e+00
5.744081020355224609e+00 5.732062816619873047e+00 -4.252819716930388849e-01 1.000000000000000000e+00
9.482758522033691406e+00 9.456314086914062500e+00 -2.337575256824493131e-01 2.000000000000000000e+00
1.580789327621459961e+00 1.571985006332397017e+00 -5.973543524742126465e-01 1.600000000000000000e+01
1.816328525543212891e+00 1.804951906204224077e+00 -5.911713838577270508e-01 1.300000000000000000e+01
2.097596645355225053e+00 2.083730697631835938e+00 -5.747166872024536133e-01 1.200000000000000000e+01
2.489796400070189986e+00 2.471611738204956055e+00 -5.556552410125732422e-01 1.000000000000000000e+01
3.096222400665283203e+00 3.071463584899901900e+00 -5.354939103126525879e-01 9.000000000000000000e+00
4.005074977874755859e+00 3.971662044525146040e+00 -4.934758245944976807e-01 8.000000000000000000e+00
5.795265197753906250e+00 5.742906093597412109e+00 -4.275847673416138250e-01 1.000000000000000000e+00
9.510025978088378906e+00 9.417527198791503906e+00 -2.336179167032242099e-01 2.000000000000000000e+00
1.593139767646789995e+00 1.573244571685791016e+00 -5.999425649642944336e-01 1.600000000000000000e+01
1.814295411109924094e+00 1.790387868881226030e+00 -5.884719491004943848e-01 1.100000000000000000e+01
2.111845493316649947e+00 2.083289861679077148e+00 -5.766248106956481934e-01 1.300000000000000000e+01
2.504035949707030806e+00 2.468452930450439009e+00 -5.569067001342773438e-01 9.000000000000000000e+00
3.104096651077270952e+00 3.057850837707519975e+00 -5.350064039230346680e-01 1.000000000000000000e+01
4.016075134277343750e+00 3.954861640930175781e+00 -4.931271970272064209e-01 8.000000000000000000e+00
5.792499065399169922e+00 5.700227737426757812e+00 -4.259100258350371759e-01 1.000000000000000000e+00
9.568505287170410156e+00 9.409511566162109375e+00 -2.342461943626404086e-01 2.000000000000000000e+00
1.602485299110413042e+00 1.572011470794677956e+00 -6.014954447746276855e-01 1.600000000000000000e+01
1.825788974761962891e+00 1.789818406105041948e+00 -5.902715921401977539e-01 1.200000000000000000e+01
2.115937948226929155e+00 2.073526859283446822e+00 -5.758615732192993164e-01 1.300000000000000000e+01
2.512207746505736861e+00 2.460135698318481001e+00 -5.569067001342773438e-01 9.000000000000000000e+00
3.111382246017456055e+00 3.044763803482056108e+00 -5.345189571380615234e-01 1.000000000000000000e+01
4.039137363433837891e+00 3.951274871826171875e+00 -4.943473637104033869e-01 6.000000000000000000e+00
5.814226627349854404e+00 5.683780193328857422e+00 -4.261193573474884033e-01 1.000000000000000000e+00
9.579629898071289062e+00 9.358166694641113281e+00 -2.337575256824493131e-01 2.000000000000000000e+00
1.610730528831481934e+00 1.569104194641113059e+00 -6.025307178497314453e-01 1.700000000000000000e+01
1.834818243980407937e+00 1.786152958869934082e+00 -5.911713838577270508e-01 1.100000000000000000e+01
2.118942022323607954e+00 2.062020778656005859e+00 -5.747166872024536133e-01 1.200000000000000000e+01
2.523612260818481001e+00 2.454105615615845171e+00 -5.575324296951293945e-01 9.000000000000000000e+00
3.123414993286132812e+00 3.035267829895019975e+00 -5.347626805305480957e-01 1.000000000000000000e+01
4.057192802429199219e+00 3.941316366195679155e+00 -4.948703050613402765e-01 9.000000000000000000e+00
5.819700241088867188e+00 5.649538516998291016e+00 -4.250726401805878241e-01 1.000000000000000000e+00
9.606496810913085938e+00 9.319101333618164062e+00 -2.336179167032242099e-01 2.000000000000000000e+00
1.599806070327759011e+00 1.547074675559998003e+00 -5.963190793991088867e-01 1.600000000000000000e+01
1.841352462768554910e+00 1.779415965080261008e+00 -5.911713838577270508e-01 1.100000000000000000e+01
2.126485586166381836e+00 2.054240465164185014e+00 -5.747166872024536133e-01 1.300000000000000000e+01
2.532590150833129883e+00 2.444839715957642046e+00 -5.575324296951293945e-01 9.000000000000000000e+00
3.137376308441162109e+00 3.026556015014647993e+00 -5.352501273155212402e-01 1.000000000000000000e+01
4.057269573211669922e+00 3.912589311599731001e+00 -4.931271970272064209e-01 8.000000000000000000e+00
5.863378524780273438e+00 5.650344848632813388e+00 -4.267473816871643066e-01 2.000000000000000000e+00
9.640587806701660156e+00 9.283828735351562500e+00 -2.336179167032242099e-01 2.000000000000000000e+00
1.617737293243407981e+00 1.553523659706115945e+00 -6.009778380393981934e-01 1.900000000000000000e+01
1.850364685058593972e+00 1.775676250457763894e+00 -5.920711755752563477e-01 1.100000000000000000e+01
2.137893438339232954e+00 2.050882577896118164e+00 -5.758615732192993164e-01 1.300000000000000000e+01
2.535404682159423828e+00 2.430516481399536133e+00 -5.562809705734252930e-01 9.000000000000000000e+00
3.150788784027100053e+00 3.018332481384276900e+00 -5.357376337051391602e-01 1.000000000000000000e+01
4.079535961151123047e+00 3.906671047210692915e+00 -4.941730499267578125e-01 8.000000000000000000e+00
5.891724109649658203e+00 5.638128757476806641e+00 -4.273754060268402100e-01 2.000000000000000000e+00
9.698949813842773438e+00 9.274997711181640625e+00 -2.342461943626404086e-01 2.000000000000000000e+00
1.618686556816101074e+00 1.544150114059448020e+00 -5.994248986244201660e-01 1.600000000000000000e+01
1.850600838661194070e+00 1.764151930809020996e+00 -5.902715921401977539e-01 1.200000000000000000e+01
2.147525310516356978e+00 2.046490430831909180e+00 -5.766248106956481934e-01 1.300000000000000000e+01
2.543450593948363814e+00 2.422095298767089844e+00 -5.562809705734252930e-01 1.000000000000000000e+01
3.167970657348632812e+00 3.014709711074829102e+00 -5.369563102722167969e-01 1.000000000000000000e+01
4.096799373626708984e+00 3.897240877151488814e+00 -4.946959912776947021e-01 9.000000000000000000e+00
5.901702880859375000e+00 5.610303401947020596e+00 -4.267473816871643066e-01 2.000000000000000000e+00
9.729653358459472656e+00 9.242783546447753906e+00 -2.342461943626404086e-01 2.000000000000000000e+00
1.632481575012207031e+00 1.546461939811706987e+00 -6.025307178497314453e-01 1.600000000000000000e+01
1.855332374572753906e+00 1.756341695785522017e+00 -5.898216366767883301e-01 1.300000000000000000e+01
2.148951768875122070e+00 2.033584117889403853e+00 -5.750983357429504395e-01 1.300000000000000000e+01
2.557631015777587891e+00 2.418631315231322798e+00 -5.575324296951293945e-01 1.000000000000000000e+01
3.165489673614501953e+00 2.991362333297729048e+00 -5.347626805305480957e-01 1.000000000000000000e+01
4.111826419830322266e+00 3.884284973144530806e+00 -4.948703050613402765e-01 9.000000000000000000e+00
5.929965019226074219e+00 5.597894668579101562e+00 -4.273754060268402100e-01 1.000000000000000000e+00
9.788041114807128906e+00 9.233464241027832031e+00 -2.348744869232178012e-01 2.000000000000000000e+00
1.628020048141479048e+00 1.531488418579102007e+00 -5.989072918891906738e-01 1.600000000000000000e+01
1.867131352424622026e+00 1.755193710327147993e+00 -5.916212797164916992e-01 1.200000000000000000e+01
2.151745080947875977e+00 2.022037029266356978e+00 -5.739534497261047363e-01 1.200000000000000000e+01
2.568938016891479048e+00 2.412393331527709961e+00 -5.581581592559814453e-01 9.000000000000000000e+00
3.173017024993896040e+00 2.977577686309814009e+00 -5.342751741409301758e-01 1.000000000000000000e+01
4.129719734191895419e+00 3.873997688293457031e+00 -4.953932464122772217e-01 9.000000000000000000e+00
5.934897899627686435e+00 5.563501358032226562e+00 -4.263286888599395752e-01 2.000000000000000000e+00
9.782267570495605469e+00 9.163696289062500000e+00 -2.339669615030288974e-01 2.000000000000000000e+00
1.631944298744202104e+00 1.524477481842041016e+00 -5.983896255493164062e-01 1.800000000000000000e+01
1.881793856620789018e+00 1.756644129753113015e+00 -5.943207144737243652e-01 1.300000000000000000e+01
2.168837785720825195e+00 2.023889780044556108e+00 -5.766248106956481934e-01 1.200000000000000000e+01
2.573009014129639116e+00 2.399369716644287109e+00 -5.572195649147033691e-01 1.000000000000000000e+01
3.196461915969849077e+00 2.978663682937622070e+00 -5.364688634872436523e-01 1.000000000000000000e+01
4.146132946014404297e+00 3.862274646759033203e+00 -4.957418739795684814e-01 9.000000000000000000e+00
5.989367008209229404e+00 5.575411319732666016e+00 -4.288408160209655762e-01 2.000000000000000000e+00
9.814195632934570312e+00 9.129493713378906250e+00 -2.339669615030288974e-01 2.000000000000000000e+00
1.633893847465514915e+00 1.516714453697205034e+00 -5.973543524742126465e-01 1.600000000000000000e+01
1.877302408218384011e+00 1.741446614265441895e+00 -5.911713838577270508e-01 1.200000000000000000e+01
2.170866727828979048e+00 2.013061523437500000e+00 -5.754799246788024902e-01 1.300000000000000000e+01
2.573289632797241211e+00 2.384561300277709961e+00 -5.556552410125732422e-01 1.000000000000000000e+01
3.205803871154785156e+00 2.968606948852539062e+00 -5.364688634872436523e-01 1.000000000000000000e+01
4.155322074890136719e+00 3.846523284912108931e+00 -4.953932464122772217e-01 9.000000000000000000e+00
6.006853103637695312e+00 5.556567668914794922e+00 -4.288408160209655762e-01 2.000000000000000000e+00
9.834017753601074219e+00 9.090472221374511719e+00 -2.337575256824493131e-01 2.000000000000000000e+00
1.650541663169861062e+00 1.521476745605468972e+00 -6.014954447746276855e-01 1.800000000000000000e+01
1.876203179359436035e+00 1.728281378746032937e+00 -5.889218449592590332e-01 1.200000000000000000e+01
2.180768728256226030e+00 2.008131265640258789e+00 -5.762431621551513672e-01 1.300000000000000000e+01
2.584504604339600053e+00 2.378239393234252930e+00 -5.562809705734252930e-01 9.000000000000000000e+00
3.216146707534790039e+00 2.957398414611815962e+00 -5.364688634872436523e-01 1.000000000000000000e+01
4.162856101989746094e+00 3.826601743698120117e+00 -4.946959912776947021e-01 8.000000000000000000e+00
5.996795177459716797e+00 5.508543491363525391e+00 -4.267473816871643066e-01 2.000000000000000000e+00
9.914303779602050781e+00 9.100714683532714844e+00 -2.349093854427337924e-01 2.000000000000000000e+00
1.656107068061829057e+00 1.515416979789734109e+00 -6.014954447746276855e-01 1.900000000000000000e+01
1.885401368141174094e+00 1.724023222923279031e+00 -5.898216366767883301e-01 1.200000000000000000e+01
2.186665296554564986e+00 1.998800277709960938e+00 -5.758615732192993164e-01 1.300000000000000000e+01
2.599038124084473100e+00 2.374079704284667969e+00 -5.575324296951293945e-01 9.000000000000000000e+00
3.213769197463988814e+00 2.933546066284180132e+00 -5.342751741409301758e-01 1.000000000000000000e+01
4.182740211486816406e+00 3.816690206527709961e+00 -4.953932464122772217e-01 9.000000000000000000e+00
6.031702995300292969e+00 5.499984264373779297e+00 -4.277940988540648859e-01 2.000000000000000000e+00
9.909162521362304688e+00 9.029297828674316406e+00 -2.340018600225448886e-01 2.000000000000000000e+00
1.657097458839416948e+00 1.505729317665100098e+00 -5.999425649642944336e-01 2.000000000000000000e+01
1.894293189048767090e+00 1.720051527023314986e+00 -5.907214879989624023e-01 1.500000000000000000e+01
2.187814235687255859e+00 1.985877156257628950e+00 -5.743350982666015625e-01 1.200000000000000000e+01
2.610235452651977983e+00 2.367647409439086914e+00 -5.581581592559814453e-01 9.000000000000000000e+00
3.229872941970825195e+00 2.927642822265625000e+00 -5.352501273155212402e-01 1.000000000000000000e+01
4.207849025726318359e+00 3.812768936157227007e+00 -4.967877268791198730e-01 9.000000000000000000e+00
6.071591854095458984e+00 5.497664451599121094e+00 -4.292595088481903076e-01 2.000000000000000000e+00
9.952482223510742188e+00 9.005386352539062500e+00 -2.342811077833175937e-01 2.000000000000000000e+00
1.655171871185302956e+00 1.493464946746825950e+00 -5.973543524742126465e-01 2.100000000000000000e+01
1.906075000762939009e+00 1.718648672103882058e+00 -5.925210714340209961e-01 1.500000000000000000e+01
2.199107885360718218e+00 1.982171535491942915e+00 -5.754799246788024902e-01 1.300000000000000000e+01
2.618484258651732954e+00 2.358521461486815962e+00 -5.581581592559814453e-01 9.000000000000000000e+00
3.248925209045410156e+00 2.924318790435791016e+00 -5.367125868797302246e-01 1.000000000000000000e+01
4.200397014617919922e+00 3.779400587081909180e+00 -4.943473637104033869e-01 8.000000000000000000e+00
6.075893402099609375e+00 5.463083267211914062e+00 -4.282127916812896729e-01 2.000000000000000000e+00
9.951131820678710938e+00 8.941187858581542969e+00 -2.335131913423537930e-01 2.000000000000000000e+00
1.666130185127258079e+00 1.492834806442260964e+00 -5.994248986244201660e-01 1.900000000000000000e+01
1.916418075561522993e+00 1.715884447097778098e+00 -5.938707590103149414e-01 1.300000000000000000e+01
2.206013441085814986e+00 1.974483132362365945e+00 -5.754799246788024902e-01 1.400000000000000000e+01
2.626701116561890093e+00 2.349366903305054155e+00 -5.581581592559814453e-01 9.000000000000000000e+00
3.256153106689453125e+00 2.910314321517943892e+00 -5.362251400947570801e-01 1.000000000000000000e+01
4.229907512664794922e+00 3.779317617416381836e+00 -4.962647855281829834e-01 8.000000000000000000e+00
6.118763446807861328e+00 5.463124275207520419e+00 -4.298875331878662109e-01 2.000000000000000000e+00
9.982281684875488281e+00 8.906397819519042969e+00 -2.335131913423537930e-01 2.000000000000000000e+00
1.677104234695435014e+00 1.492146372795104980e+00 -6.014954447746276855e-01 2.100000000000000000e+01
1.909288644790648970e+00 1.697530865669250044e+00 -5.898216366767883301e-01 1.200000000000000000e+01
2.218761920928955078e+00 1.971987485885619895e+00 -5.770063996315002441e-01 1.700000000000000000e+01
2.631932020187377930e+00 2.337560176849364790e+00 -5.575324296951293945e-01 9.000000000000000000e+00
3.269261598587036133e+00 2.901566028594971147e+00 -5.367125868797302246e-01 1.000000000000000000e+01
4.247544765472412109e+00 3.768496274948120117e+00 -4.967877268791198730e-01 9.000000000000000000e+00
6.101928710937500000e+00 5.409932613372802734e+00 -4.273754060268402100e-01 2.000000000000000000e+00
1.004324531555175959e+01 8.898020744323730469e+00 -2.342112958431243896e-01 2.000000000000000000e+00
1.680854797363281028e+00 1.485003948211669922e+00 -6.009778380393981934e-01 1.800000000000000000e+01
1.918124318122863992e+00 1.693435430526732954e+00 -5.907214879989624023e-01 1.200000000000000000e+01
2.221215963363647017e+00 1.960333347320557085e+00 -5.758615732192993164e-01 1.400000000000000000e+01
2.644520044326781782e+00 2.332278490066527876e+00 -5.584710240364074707e-01 1.000000000000000000e+01
3.270434379577637163e+00 2.882261276245117188e+00 -5.352501273155212402e-01 1.000000000000000000e+01
4.251703739166259766e+00 3.745744228363037109e+00 -4.957418739795684814e-01 9.000000000000000000e+00
6.144761085510253906e+00 5.409716129302979404e+00 -4.290501773357390802e-01 2.000000000000000000e+00
1.016432666778563920e+01 8.942159652709960938e+00 -2.363055795431137085e-01 2.000000000000000000e+00
3.559492111206054688e+01 3.130393791198730113e+01 1.270128536224365057e+01 1.400000000000000000e+01
1.688932657241821067e+00 1.481675744056702104e+00 -6.020131111145019531e-01 1.800000000000000000e+01
1.925489187240601030e+00 1.688014268875122070e+00 -5.911713838577270508e-01 1.300000000000000000e+01
2.226568937301636186e+00 1.951273918151855025e+00 -5.754799246788024902e-01 1.400000000000000000e+01
2.658589601516724077e+00 2.328238964080810991e+00 -5.597225427627563477e-01 1.000000000000000000e+01
3.284956932067871094e+00 2.874749898910522017e+00 -5.359813570976257324e-01 1.000000000000000000e+01
4.273750305175781250e+00 3.738751173019409180e+00 -4.967877268791198730e-01 9.000000000000000000e+00
6.172629356384277344e+00 5.396121025085449219e+00 -4.296782016754149836e-01 2.000000000000000000e+00
1.009307193756104049e+01 8.817164421081542969e+00 -2.339320629835129062e-01 2.000000000000000000e+00
1.680984377861022949e+00 1.464350819587707964e+00 -5.973543524742126465e-01 1.600000000000000000e+01
1.938718914985656960e+00 1.687680244445801003e+00 -5.934208631515502930e-01 1.300000000000000000e+01
2.224480390548706055e+00 1.935757160186768022e+00 -5.731902122497558594e-01 1.300000000000000000e+01
2.659247398376464844e+00 2.312463521957397017e+00 -5.581581592559814453e-01 9.000000000000000000e+00
3.297968387603760210e+00 2.865869760513306108e+00 -5.364688634872436523e-01 1.000000000000000000e+01
4.270229339599609375e+00 3.709437608718872070e+00 -4.948703050613402765e-01 9.000000000000000000e+00
6.179361343383789062e+00 5.364067554473876953e+00 -4.288408160209655762e-01 2.000000000000000000e+00
3.622217941284179688e+01 3.143200492858887074e+01 1.107209110260009943e+01 1.400000000000000000e+01
1.692879676818848100e+00 1.465384364128113015e+00 -5.999425649642944336e-01 1.800000000000000000e+01
1.939589738845824973e+00 1.677756667137145996e+00 -5.920711755752563477e-01 1.200000000000000000e+01
2.240946292877196822e+00 1.937748074531554954e+00 -5.758615732192993164e-01 1.300000000000000000e+01
2.666499137878417969e+00 2.304097652435303178e+00 -5.581581592559814453e-01 9.000000000000000000e+00
3.309960365295410156e+00 2.858089447021483931e+00 -5.369563102722167969e-01 9.000000000000000000e+00
4.304485321044921875e+00 3.715532064437866211e+00 -4.974849820137023926e-01 9.000000000000000000e+00
6.187108516693115234e+00 5.336801052093505859e+00 -4.282127916812896729e-01 2.000000000000000000e+00
3.642110443115233664e+01 3.140459060668944957e+01 1.110268402099609020e+01 1.400000000000000000e+01
1.016647434234618963e+01 8.763087272644042969e+00 -2.342811077833175937e-01 2.000000000000000000e+00
1.703844666481018066e+00 1.464503169059752974e+00 -6.020131111145019531e-01 1.700000000000000000e+01
1.939521193504333052e+00 1.665897011756896973e+00 -5.902715921401977539e-01 1.200000000000000000e+01
2.259612798690795898e+00 1.940145373344420943e+00 -5.789144635200500488e-01 1.200000000000000000e+01
2.673026323318481001e+00 2.293489694595336914e+00 -5.578452944755554199e-01 1.100000000000000000e+01
3.319916963577270952e+00 2.846518278121947798e+00 -5.369563102722167969e-01 9.000000000000000000e+00
4.317428588867188388e+00 3.700484037399291992e+00 -4.974849820137023926e-01 9.000000000000000000e+00
6.199632167816162109e+00 5.309974670410156250e+00 -4.277940988540648859e-01 2.000000000000000000e+00
1.015750122070313033e+01 8.693737983703613281e+00 -2.333735823631286899e-01 2.000000000000000000e+00
3.597666549682617188e+01 3.078131294250487926e+01 1.268679237365723012e+01 1.400000000000000000e+01
1.716037869453429954e+00 1.465116858482361062e+00 -6.046012639999389648e-01 1.600000000000000000e+01
1.952447295188904031e+00 1.665780305862426980e+00 -5.925210714340209961e-01 1.200000000000000000e+01
2.249602794647216797e+00 1.918627738952636941e+00 -5.747166872024536133e-01 9.000000000000000000e+00
2.688134431838988814e+00 2.291019439697266069e+00 -5.594096183776855469e-01 1.600000000000000000e+01
3.704036712646483664e+01 3.155728149414062855e+01 5.974766254425048828e+00 4.900000000000000000e+01
3.323292970657349077e+00 2.830344915390015093e+00 -5.359813570976257324e-01 9.000000000000000000e+00
4.338778495788574219e+00 3.693896055221558061e+00 -4.985308349132537842e-01 9.000000000000000000e+00
6.217206478118895596e+00 5.289386749267578125e+00 -4.277940988540648859e-01 2.000000000000000000e+00
3.648557662963867188e+01 3.102970504760741832e+01 1.105769443511963068e+01 1.400000000000000000e+01
1.019236946105957031e+01 8.665187835693359375e+00 -2.335131913423537930e-01 2.000000000000000000e+00
3.603492355346679688e+01 3.063560295104980113e+01 1.267333316802979049e+01 1.400000000000000000e+01
1.707879424095154031e+00 1.447874665260314941e+00 -5.999425649642944336e-01 1.800000000000000000e+01
1.953789353370666948e+00 1.655175924301147017e+00 -5.911713838577270508e-01 1.200000000000000000e+01
2.253289937973022017e+00 1.908225893974303977e+00 -5.739534497261047363e-01 8.000000000000000000e+00
2.702146768569945845e+00 2.286726474761962891e+00 -5.606611371040344238e-01 1.100000000000000000e+01
3.339215517044066939e+00 2.823854446411132812e+00 -5.369563102722167969e-01 1.000000000000000000e+01
4.345560073852539062e+00 3.673583269119263139e+00 -4.978336095809937079e-01 9.000000000000000000e+00
6.290557861328125000e+00 5.314052104949951172e+00 -4.315623044967650812e-01 1.000000000000000000e+00
1.021033000946044922e+01 8.619237899780273438e+00 -2.332339584827423096e-01 2.000000000000000000e+00
3.618535232543945312e+01 3.053571510314941051e+01 1.268679237365723012e+01 1.400000000000000000e+01
1.704305768013000044e+00 1.434142231941222922e+00 -5.968367457389831543e-01 1.800000000000000000e+01
1.965808868408202903e+00 1.653020620346068892e+00 -5.929709672927856445e-01 1.200000000000000000e+01
2.254257440567017046e+00 1.894901275634766069e+00 -5.724269747734069824e-01 7.000000000000000000e+00
2.713534832000731978e+00 2.279348373413085938e+00 -5.612868666648864746e-01 1.100000000000000000e+01
3.351063489913939986e+00 2.812872886657714844e+00 -5.372000932693481445e-01 1.000000000000000000e+01
4.343732833862304688e+00 3.644824504852294922e+00 -4.960905015468596857e-01 9.000000000000000000e+00
6.309992790222167969e+00 5.290960311889648438e+00 -4.315623044967650812e-01 1.000000000000000000e+00
1.025411415100098012e+01 8.592031478881835938e+00 -2.335131913423537930e-01 2.000000000000000000e+00
1.716713905334473100e+00 1.434377670288085938e+00 -5.994248986244201660e-01 1.900000000000000000e+01
1.971567034721374956e+00 1.646148562431335005e+00 -5.929709672927856445e-01 1.100000000000000000e+01
2.266886949539185014e+00 1.892053008079529031e+00 -5.739534497261047363e-01 8.000000000000000000e+00
2.707821846008300781e+00 2.258475303649901900e+00 -5.584710240364074707e-01 1.000000000000000000e+01
3.373060941696166992e+00 2.811326026916503906e+00 -5.391499996185302734e-01 1.000000000000000000e+01
4.359490394592285156e+00 3.632190465927124023e+00 -4.964390993118286133e-01 9.000000000000000000e+00
6.300795078277587891e+00 5.245899200439453125e+00 -4.296782016754149836e-01 2.000000000000000000e+00
1.028404331207275035e+01 8.556185722351074219e+00 -2.335131913423537930e-01 2.000000000000000000e+00
3.610884475708007812e+01 3.003141021728515980e+01 1.258430004119873047e+01 1.400000000000000000e+01
1.730380415916443093e+00 1.436079382896422896e+00 -6.025307178497314453e-01 1.900000000000000000e+01
1.971014976501465066e+00 1.634625554084778054e+00 -5.911713838577270508e-01 1.200000000000000000e+01
2.276171684265137163e+00 1.887031316757201926e+00 -5.747166872024536133e-01 9.000000000000000000e+00
2.718338727951049805e+00 2.252003908157349077e+00 -5.590967535972595215e-01 1.000000000000000000e+01
3.365545034408568892e+00 2.786200284957886186e+00 -5.364688634872436523e-01 9.000000000000000000e+00
4.382256031036376953e+00 3.626605749130249023e+00 -4.976592957973480225e-01 1.100000000000000000e+01
6.318156242370604581e+00 5.224976539611816406e+00 -4.296782016754149836e-01 2.000000000000000000e+00
1.032469177246093928e+01 8.532226562500000000e+00 -2.337924391031264981e-01 2.000000000000000000e+00
1.733891844749450906e+00 1.428802013397217019e+00 -6.020131111145019531e-01 1.900000000000000000e+01
1.979717493057250977e+00 1.630213022232056108e+00 -5.920711755752563477e-01 1.300000000000000000e+01
2.290323495864868164e+00 1.885313153266906960e+00 -5.766248106956481934e-01 1.300000000000000000e+01
2.732285499572753906e+00 2.247520923614501953e+00 -5.603482723236083984e-01 1.100000000000000000e+01
3.369116067886352983e+00 2.769393205642700195e+00 -5.354939103126525879e-01 9.000000000000000000e+00
4.393349170684813565e+00 3.610021829605102983e+00 -4.974849820137023926e-01 9.000000000000000000e+00
6.345617771148681641e+00 5.210494518280029297e+00 -4.303062260150908869e-01 2.000000000000000000e+00
1.034822845458984020e+01 8.491060256958007812e+00 -2.336528152227402011e-01 2.000000000000000000e+00
1.732888102531433105e+00 1.417847514152527078e+00 -5.999425649642944336e-01 1.700000000000000000e+01
1.982378602027893066e+00 1.620825529098510964e+00 -5.911713838577270508e-01 1.200000000000000000e+01
2.290810108184814009e+00 1.872337222099303977e+00 -5.750983357429504395e-01 1.300000000000000000e+01
2.749293804168701172e+00 2.245467185974121094e+00 -5.622254610061645508e-01 1.100000000000000000e+01
3.383376359939575195e+00 2.761381387710570845e+00 -5.362251400947570801e-01 1.000000000000000000e+01
4.407467365264892578e+00 3.595923662185668945e+00 -4.976592957973480225e-01 1.100000000000000000e+01
6.369958877563476562e+00 5.193360805511474609e+00 -4.307249188423156738e-01 2.000000000000000000e+00
1.039640903472900035e+01 8.470043182373046875e+00 -2.340716719627380094e-01 2.000000000000000000e+00
3.624025726318358664e+01 2.952524757385253906e+01 1.252528858184813920e+01 1.300000000000000000e+01
1.736327409744262917e+00 1.410571813583374023e+00 -5.994248986244201660e-01 1.900000000000000000e+01
1.995589017868041992e+00 1.620036959648132102e+00 -5.934208631515502930e-01 1.200000000000000000e+01
2.308002948760985884e+00 1.872989177703856978e+00 -5.777696371078491211e-01 1.300000000000000000e+01
2.749443769454956055e+00 2.229635477066040039e+00 -5.606611371040344238e-01 1.000000000000000000e+01
3.397621393203734907e+00 2.753303766250609907e+00 -5.369563102722167969e-01 1.000000000000000000e+01
4.416896343231201172e+00 3.578008651733397993e+00 -4.973106682300568182e-01 1.100000000000000000e+01
6.406677246093750000e+00 5.186173439025878906e+00 -4.319809973239899237e-01 2.000000000000000000e+00
3.666926956176757812e+01 2.967300224304198863e+01 1.089033031463623047e+01 1.300000000000000000e+01
1.043523979187012074e+01 8.441247940063476562e+00 -2.342811077833175937e-01 2.000000000000000000e+00
3.651432037353516336e+01 2.953707122802734020e+01 1.258430004119873047e+01 1.400000000000000000e+01
1.745751619338989036e+00 1.408141016960144043e+00 -6.009778380393981934e-01 2.000000000000000000e+01
1.996680140495300071e+00 1.609392404556273970e+00 -5.920711755752563477e-01 1.100000000000000000e+01
2.312998056411743164e+00 1.863689541816710982e+00 -5.773880481719970703e-01 1.400000000000000000e+01
2.757209777832030806e+00 2.220024585723876953e+00 -5.606611371040344238e-01 9.000000000000000000e+00
3.407211542129517046e+00 2.741427183151245117e+00 -5.369563102722167969e-01 9.000000000000000000e+00
4.437121391296386719e+00 3.568812608718872070e+00 -4.981822371482849121e-01 1.100000000000000000e+01
6.434081554412841797e+00 5.171286106109619141e+00 -4.326090216636658270e-01 2.000000000000000000e+00
3.688504409790039062e+01 2.963514328002930043e+01 1.092362308502197088e+01 1.300000000000000000e+01
1.046464157104492010e+01 8.404769897460937500e+00 -2.342811077833175937e-01 2.000000000000000000e+00
1.752164244651793990e+00 1.403246164321898970e+00 -6.014954447746276855e-01 2.200000000000000000e+01
1.999242901802062988e+00 1.599977612495421919e+00 -5.911713838577270508e-01 1.100000000000000000e+01
2.324088573455810991e+00 1.859283685684204102e+00 -5.785328745841979980e-01 1.400000000000000000e+01
2.764942407608031782e+00 2.210386514663695845e+00 -5.606611371040344238e-01 9.000000000000000000e+00
3.460479736328125000e+01 2.765432548522948863e+01 5.439028739929199219e+00 3.500000000000000000e+01
3.424515008926392046e+00 2.735712051391602007e+00 -5.381750464439392090e-01 1.000000000000000000e+01
4.465120792388916016e+00 3.565735101699829102e+00 -4.999253451824188232e-01 9.000000000000000000e+00
6.423993587493895596e+00 5.126371383666992188e+00 -4.307249188423156738e-01 2.000000000000000000e+00
1.054707336425781072e+01 8.410580635070800781e+00 -2.354678660631180087e-01 2.000000000000000000e+00
1.763100147247314009e+00 1.401930809020996094e+00 -6.035659909248352051e-01 1.900000000000000000e+01
2.004815578460692915e+00 1.592989206314086914e+00 -5.911713838577270508e-01 1.100000000000000000e+01
2.329027175903319868e+00 1.849938631057739036e+00 -5.781512856483459473e-01 1.500000000000000000e+01
2.772641181945800781e+00 2.200721740722655806e+00 -5.606611371040344238e-01 1.000000000000000000e+01
3.420046091079711914e+00 2.712639331817626953e+00 -5.359813570976257324e-01 9.000000000000000000e+00
4.458806037902832031e+00 3.535273075103760210e+00 -4.978336095809937079e-01 1.300000000000000000e+01
6.448110580444335938e+00 5.108877182006835938e+00 -4.311436116695404053e-01 2.000000000000000000e+00
1.055128288269042969e+01 8.353852272033691406e+00 -2.349093854427337924e-01 2.000000000000000000e+00
3.772735977172852273e+01 2.987018775939941051e+01 1.289384746551514027e+01 1.400000000000000000e+01
1.763434171676635964e+00 1.392176747322082964e+00 -6.020131111145019531e-01 2.000000000000000000e+01
2.019543647766112837e+00 1.593223333358765093e+00 -5.938707590103149414e-01 1.100000000000000000e+01
2.327762842178345171e+00 1.835718989372252974e+00 -5.762431621551513672e-01 1.400000000000000000e+01
2.791166782379149947e+00 2.199588775634766069e+00 -5.628511905670166016e-01 1.000000000000000000e+01
3.435732364654541016e+00 2.705597400665283203e+00 -5.369563102722167969e-01 1.000000000000000000e+01
4.460160255432128906e+00 3.511060714721680132e+00 -4.966134130954741877e-01 1.400000000000000000e+01
6.478462696075438565e+00 5.096217155456542969e+00 -4.319809973239899237e-01 2.000000000000000000e+00
1.056465816497802912e+01 8.304612159729003906e+00 -2.345603406429291049e-01 2.000000000000000000e+00
3.752764129638671875e+01 2.949953651428223012e+01 1.279031944274901988e+01 1.400000000000000000e+01
1.763721704483032005e+00 1.382437467575073020e+00 -6.004601716995239258e-01 1.900000000000000000e+01
2.025092840194702148e+00 1.586164116859436035e+00 -5.938707590103149414e-01 1.200000000000000000e+01
2.329519033432006836e+00 1.823951482772826926e+00 -5.750983357429504395e-01 1.300000000000000000e+01
2.794160604476929155e+00 2.186180591583251953e+00 -5.619125962257385254e-01 9.000000000000000000e+00
3.454538822174071822e+00 2.700923919677733931e+00 -5.384187698364257812e-01 9.000000000000000000e+00
4.462970256805419922e+00 3.488109111785889116e+00 -4.955675601959229071e-01 1.100000000000000000e+01
6.511953353881835938e+00 5.085865497589111328e+00 -4.330277144908905029e-01 2.000000000000000000e+00
1.059358215332031072e+01 8.267683982849121094e+00 -2.345603406429291049e-01 2.000000000000000000e+00
1.770061135292053001e+00 1.377458930015563965e+00 -6.009778380393981934e-01 1.800000000000000000e+01
2.027540445327758789e+00 1.576692938804626021e+00 -5.929709672927856445e-01 1.200000000000000000e+01
2.349821805953979048e+00 1.826653122901916948e+00 -5.785328745841979980e-01 1.400000000000000000e+01
2.798654556274414062e+00 2.173990249633789062e+00 -5.612868666648864746e-01 9.000000000000000000e+00
3.468650102615356001e+00 2.692500591278076172e+00 -5.391499996185302734e-01 1.000000000000000000e+01
4.482989311218261719e+00 3.478616237640380859e+00 -4.964390993118286133e-01 1.100000000000000000e+01
6.520196437835693359e+00 5.055760383605957031e+00 -4.323996603488922119e-01 2.000000000000000000e+00
1.062237739562987926e+01 8.230655670166015625e+00 -2.345603406429291049e-01 2.000000000000000000e+00
1.776147723197937012e+00 1.372763037681580034e+00 -6.014954447746276855e-01 1.900000000000000000e+01
2.026588678359984907e+00 1.565196037292480025e+00 -5.911713838577270508e-01 1.100000000000000000e+01
2.352758169174193892e+00 1.816451191902161089e+00 -5.777696371078491211e-01 1.200000000000000000e+01
2.802720546722412109e+00 2.162284374237060991e+00 -5.606611371040344238e-01 9.000000000000000000e+00
3.466554641723632812e+00 2.672499179840087891e+00 -5.374438166618347168e-01 9.000000000000000000e+00
4.500812530517578125e+00 3.468595743179320845e+00 -4.971363544464110773e-01 1.100000000000000000e+01
6.530596256256104404e+00 5.029236316680908203e+00 -4.319809973239899237e-01 2.000000000000000000e+00
1.064961242675781072e+01 8.195384979248046875e+00 -2.345603406429291049e-01 2.000000000000000000e+00
1.787059307098388894e+00 1.371258854866028054e+00 -6.035659909248352051e-01 1.900000000000000000e+01
2.032039880752563032e+00 1.558112382888793945e+00 -5.911713838577270508e-01 1.100000000000000000e+01
2.360642671585083008e+00 1.809421777725219949e+00 -5.781512856483459473e-01 1.300000000000000000e+01
2.816524028778076172e+00 2.157292366027832031e+00 -5.619125962257385254e-01 9.000000000000000000e+00
3.472709655761719194e+00 2.657969474792480025e+00 -5.369563102722167969e-01 9.000000000000000000e+00
4.554034233093261719e+00 3.484341621398925781e+00 -5.016684532165527344e-01 9.000000000000000000e+00
6.548111915588378906e+00 5.006409645080566406e+00 -4.319809973239899237e-01 2.000000000000000000e+00
1.069404506683349965e+01 8.170301437377929688e+00 -2.349093854427337924e-01 2.000000000000000000e+00
3.593824386596679688e+01 2.745698738098144887e+01 1.211842536926270064e+01 1.200000000000000000e+01
1.785450696945189986e+00 1.360641479492187944e+00 -6.014954447746276855e-01 1.900000000000000000e+01
2.040296316146851030e+00 1.553726673126220925e+00 -5.920711755752563477e-01 1.100000000000000000e+01
2.361943483352661133e+00 1.798016190528870073e+00 -5.770063996315002441e-01 1.100000000000000000e+01
2.826806783676147017e+00 2.150332450866699219e+00 -5.625383257865905762e-01 9.000000000000000000e+00
3.484665393829346147e+00 2.648841381072998047e+00 -5.374438166618347168e-01 9.000000000000000000e+00
4.524318218231201172e+00 3.437879562377930132e+00 -4.971363544464110773e-01 9.000000000000000000e+00
6.564677715301513672e+00 4.984667778015136719e+00 -4.319809973239899237e-01 2.000000000000000000e+00
1.071789360046387074e+01 8.132375717163085938e+00 -2.348395884037018100e-01 2.000000000000000000e+00
1.788648724555969016e+00 1.353235244750977007e+00 -6.009778380393981934e-01 1.700000000000000000e+01
2.048816442489624023e+00 1.548945665359497070e+00 -5.929709672927856445e-01 1.100000000000000000e+01
2.371337890625000000e+00 1.792127966880797896e+00 -5.777696371078491211e-01 1.100000000000000000e+01
2.837448358535767046e+00 2.142832994461060014e+00 -5.631640553474426270e-01 1.000000000000000000e+01
3.500228404998778853e+00 2.641444683074951172e+00 -5.384187698364257812e-01 9.000000000000000000e+00
4.549015522003173828e+00 3.431664943695067915e+00 -4.985308349132537842e-01 9.000000000000000000e+00
6.591606616973876953e+00 4.968935966491699219e+00 -4.326090216636658270e-01 2.000000000000000000e+00
1.075899314880370916e+01 8.104539871215820312e+00 -2.351188212633132935e-01 2.000000000000000000e+00
1.795141458511352983e+00 1.347830295562743919e+00 -6.014954447746276855e-01 1.900000000000000000e+01
2.060714960098267046e+00 1.546104073524475098e+00 -5.947706103324890137e-01 1.200000000000000000e+01
2.379461050033568892e+00 1.784602522850037065e+00 -5.781512856483459473e-01 1.000000000000000000e+01
2.837379455566405806e+00 2.126495361328125000e+00 -5.615997314453125000e-01 1.000000000000000000e+01
3.506708621978760210e+00 2.626218080520629883e+00 -5.379312634468078613e-01 9.000000000000000000e+00
4.601436614990234375e+00 3.444820165634154829e+00 -5.028886198997497559e-01 9.000000000000000000e+00
6.616171836853027344e+00 4.949528694152832031e+00 -4.330277144908905029e-01 2.000000000000000000e+00
1.079503250122069957e+01 8.069840431213378906e+00 -2.352584451436995905e-01 2.000000000000000000e+00
1.798286318778991921e+00 1.340401291847229004e+00 -6.009778380393981934e-01 1.800000000000000000e+01
2.050470829010010210e+00 1.527260661125183105e+00 -5.902715921401977539e-01 1.100000000000000000e+01
2.388825416564940962e+00 1.778630614280700906e+00 -5.789144635200500488e-01 1.000000000000000000e+01
2.836860895156859907e+00 2.110682487487792969e+00 -5.600354075431823730e-01 9.000000000000000000e+00
3.522226572036743164e+00 2.618698835372924805e+00 -5.389062166213989258e-01 9.000000000000000000e+00
4.592644691467285156e+00 3.413286924362183061e+00 -5.006225705146789551e-01 9.000000000000000000e+00
6.636615276336669922e+00 4.928785324096679688e+00 -4.332370460033416748e-01 1.000000000000000000e+00
3.145956420898437855e+01 2.335541725158691051e+01 9.045731544494628906e+00 1.200000000000000000e+01
1.085204029083251953e+01 8.053560256958007812e+00 -2.358867228031157892e-01 2.000000000000000000e+00
3.219263839721679688e+01 2.388221931457519887e+01 1.074047279357909979e+01 9.000000000000000000e+00
1.810718894004821999e+00 1.339861512184143066e+00 -6.035659909248352051e-01 1.900000000000000000e+01
2.060490131378173828e+00 1.523569703102112038e+00 -5.916212797164916992e-01 1.200000000000000000e+01
2.391861915588378906e+00 1.767947316169738992e+00 -5.781512856483459473e-01 1.200000000000000000e+01
2.848978042602539062e+00 2.104287862777709961e+00 -5.609740018844604492e-01 1.100000000000000000e+01
3.524957418441772017e+00 2.601672649383544922e+00 -5.379312634468078613e-01 9.000000000000000000e+00
4.634993076324462891e+00 3.419709682464600053e+00 -5.039345026016235352e-01 9.000000000000000000e+00
6.634488582611083984e+00 4.891366958618164062e+00 -4.319809973239899237e-01 1.000000000000000000e+00
3.150638580322265980e+01 2.322002410888671875e+01 9.035834312438964844e+00 1.200000000000000000e+01
1.084466743469237926e+01 7.989536762237548828e+00 -2.351188212633132935e-01 2.000000000000000000e+00
3.226699066162108664e+01 2.377189636230469105e+01 1.073892021179199041e+01 1.900000000000000000e+01
1.813827991485595925e+00 1.332389116287231001e+00 -6.030483841896057129e-01 1.800000000000000000e+01
2.067366838455200195e+00 1.517521142959594949e+00 -5.920711755752563477e-01 1.100000000000000000e+01
2.391687154769897017e+00 1.754941582679748979e+00 -5.766248106956481934e-01 1.200000000000000000e+01
2.870643377304077148e+00 2.104842901229857954e+00 -5.637897849082946777e-01 1.100000000000000000e+01
3.534017562866210938e+00 2.589352607727050781e+00 -5.379312634468078613e-01 9.000000000000000000e+00
4.606717586517333984e+00 3.374077558517456055e+00 -4.995767176151276190e-01 9.000000000000000000e+00
6.674086093902587891e+00 4.884692668914794922e+00 -4.334463775157927912e-01 2.000000000000000000e+00
3.153377342224121094e+01 2.307078361511230113e+01 9.020537376403808594e+00 1.200000000000000000e+01
1.089508724212645951e+01 7.968159675598145419e+00 -2.356074899435043057e-01 2.000000000000000000e+00
3.234298324584960938e+01 2.364549064636230113e+01 1.073529624938965021e+01 9.000000000000000000e+00
1.807311296463012917e+00 1.318397283554076926e+00 -5.994248986244201660e-01 1.900000000000000000e+01
2.078686714172362837e+00 1.515248775482177956e+00 -5.938707590103149414e-01 1.100000000000000000e+01
2.397493600845336914e+00 1.747000813484191895e+00 -5.766248106956481934e-01 1.100000000000000000e+01
2.872816801071166992e+00 2.091823577880858931e+00 -5.628511905670166016e-01 1.300000000000000000e+01
3.549005270004272017e+00 2.582290649414062944e+00 -5.389062166213989258e-01 9.000000000000000000e+00
4.582433223724365234e+00 3.332999944686890093e+00 -4.957418739795684814e-01 9.000000000000000000e+00
6.683785438537597656e+00 4.857836723327636719e+00 -4.330277144908905029e-01 2.000000000000000000e+00
3.170785331726073863e+01 2.303710365295410156e+01 9.048431396484375000e+00 1.200000000000000000e+01
1.093439483642577947e+01 7.941387176513671875e+00 -2.358867228031157892e-01 2.000000000000000000e+00
3.222015762329102273e+01 2.340072441101073863e+01 1.067007350921631037e+01 9.000000000000000000e+00
1.816596388816833052e+00 1.315479755401611106e+00 -6.009778380393981934e-01 2.000000000000000000e+01
2.090278387069702148e+00 1.512553215026855025e+00 -5.956704020500183105e-01 1.100000000000000000e+01
2.417893648147583008e+00 1.748977184295654075e+00 -5.800593495368957520e-01 1.200000000000000000e+01
2.873697519302368164e+00 2.077154159545897993e+00 -5.615997314453125000e-01 1.400000000000000000e+01
3.559606790542602983e+00 2.571048974990845171e+00 -5.391499996185302734e-01 1.000000000000000000e+01
3.149290466308594105e+01 2.273847579956055043e+01 6.152254581451416016e+00 1.400000000000000000e+01
4.676422119140625000e+00 3.376465797424315962e+00 -5.046317577362060547e-01 9.000000000000000000e+00
6.707180500030517578e+00 4.839150905609130859e+00 -4.334463775157927912e-01 2.000000000000000000e+00
3.190187454223633168e+01 2.300835800170898082e+01 9.080823898315429688e+00 1.200000000000000000e+01
1.096529293060302912e+01 7.905509471893311435e+00 -2.359565347433089932e-01 2.000000000000000000e+00
3.187314987182616832e+01 2.297073173522948863e+01 1.052720546722411932e+01 9.000000000000000000e+00
1.827222466468811035e+00 1.313959956169127974e+00 -6.030483841896057129e-01 1.800000000000000000e+01
2.079457283020019975e+00 1.494241595268249956e+00 -5.911713838577270508e-01 1.100000000000000000e+01
2.425274848937987837e+00 1.742094874382019043e+00 -5.804409384727478027e-01 1.200000000000000000e+01
2.890198230743408203e+00 2.074524402618408203e+00 -5.634769201278686523e-01 1.200000000000000000e+01
3.728146743774414062e+01 2.675000572204589844e+01 5.634019851684570312e+00 4.000000000000000000e+01
3.566499948501586914e+00 2.558073759078979048e+00 -5.389062166213989258e-01 1.000000000000000000e+01
3.158986663818359020e+01 2.265784645080566051e+01 6.157260417938232422e+00 1.400000000000000000e+01
4.710262298583984375e+00 3.377192974090576172e+00 -5.070720911026000977e-01 6.000000000000000000e+00
6.723190784454345703e+00 4.816882133483886719e+00 -4.334463775157927912e-01 2.000000000000000000e+00
1.100770759582520064e+01 7.880744457244873047e+00 -2.363055795431137085e-01 2.000000000000000000e+00
3.237869644165039062e+01 2.318086814880371094e+01 1.067007350921631037e+01 9.000000000000000000e+00
1.841232061386107954e+00 1.314308047294616921e+00 -6.061542034149169922e-01 1.900000000000000000e+01
2.089419841766356978e+00 1.490368723869323953e+00 -5.925210714340209961e-01 1.300000000000000000e+01
2.428143978118896040e+00 1.731338977813720925e+00 -5.796777009963989258e-01 1.200000000000000000e+01
2.894204616546630859e+00 2.062130451202393022e+00 -5.628511905670166016e-01 1.300000000000000000e+01
3.578641891479492188e+00 2.547911405563354048e+00 -5.393937230110168457e-01 1.000000000000000000e+01
3.154394912719726918e+01 2.245027923583984020e+01 6.132231235504150391e+00 1.400000000000000000e+01
4.738254547119140625e+00 3.372283220291138139e+00 -5.088152289390563965e-01 8.000000000000000000e+00
6.733453273773193359e+00 4.788754463195800781e+00 -4.330277144908905029e-01 1.000000000000000000e+00
3.227057647705078125e+01 2.294198226928710938e+01 9.141111373901367188e+00 1.200000000000000000e+01
1.101884937286376953e+01 7.830688476562500000e+00 -2.359565347433089932e-01 2.000000000000000000e+00
1.831622242927551047e+00 1.297820925712585005e+00 -6.014954447746276855e-01 1.900000000000000000e+01
2.089838266372681108e+00 1.479687929153441939e+00 -5.911713838577270508e-01 1.300000000000000000e+01
2.429365158081055132e+00 1.719449996948241965e+00 -5.785328745841979980e-01 1.100000000000000000e+01
2.911061763763428178e+00 2.058859109878540039e+00 -5.647284388542175293e-01 1.300000000000000000e+01
3.592377185821533203e+00 2.538841247558594194e+00 -5.401249527931213379e-01 1.000000000000000000e+01
3.156015014648437855e+01 2.230450820922851918e+01 6.120967864990234375e+00 1.400000000000000000e+01
4.754878997802734375e+00 3.359172105789185014e+00 -5.093381404876708984e-01 9.000000000000000000e+00
6.772971153259277344e+00 4.781347274780273438e+00 -4.344930946826934814e-01 1.000000000000000000e+00
1.108206558227539062e+01 7.817537307739257812e+00 -2.367244362831116000e-01 2.000000000000000000e+00
3.206615829467772727e+01 2.262018585205078125e+01 1.051478290557860973e+01 9.000000000000000000e+00
1.837721467018126997e+00 1.292530894279479980e+00 -6.020131111145019531e-01 1.900000000000000000e+01
2.106151103973389116e+00 1.480227828025818093e+00 -5.943207144737243652e-01 1.200000000000000000e+01
2.440171718597412109e+00 1.714345216751099077e+00 -5.796777009963989258e-01 1.200000000000000000e+01
2.914997339248656782e+00 2.046415090560913086e+00 -5.641027092933654785e-01 1.200000000000000000e+01
3.596342325210570845e+00 2.522866010665893999e+00 -5.393937230110168457e-01 9.000000000000000000e+00
4.756788253784179688e+00 3.335690259933472124e+00 -5.082923173904418945e-01 6.000000000000000000e+00
6.792891502380371094e+00 4.759968280792236328e+00 -4.347024559974669855e-01 2.000000000000000000e+00
3.144993591308594105e+01 2.202966308593750000e+01 8.864871025085449219e+00 1.200000000000000000e+01
1.106997299194335938e+01 7.751278400421142578e+00 -2.358867228031157892e-01 2.000000000000000000e+00
3.246538543701171875e+01 2.272406387329101918e+01 1.061830997467041016e+01 9.000000000000000000e+00
1.845614910125731978e+00 1.287997722625731978e+00 -6.030483841896057129e-01 1.900000000000000000e+01
2.108365297317504883e+00 1.470269083976746050e+00 -5.934208631515502930e-01 1.300000000000000000e+01
2.446438789367675781e+00 1.705390095710753950e+00 -5.796777009963989258e-01 1.200000000000000000e+01
2.914373636245727983e+00 2.030071973800659180e+00 -5.625383257865905762e-01 1.100000000000000000e+01
3.171631813049316051e+01 2.208448791503905895e+01 4.745348453521729404e+00 2.000000000000000000e+01
3.605564832687377930e+00 2.509667873382567915e+00 -5.393937230110168457e-01 1.000000000000000000e+01
3.188107681274414062e+01 2.219095039367676137e+01 6.152254581451416016e+00 1.400000000000000000e+01
4.790243148803710938e+00 3.333026647567749023e+00 -5.105583667755126953e-01 9.000000000000000000e+00
6.807012081146240234e+00 4.732758998870849609e+00 -4.344930946826934814e-01 2.000000000000000000e+00
3.029830741882323863e+01 2.105787277221680043e+01 8.518446922302246094e+00 1.100000000000000000e+01
1.111801528930664062e+01 7.724344253540039062e+00 -2.363055795431137085e-01 2.000000000000000000e+00
3.250325775146483664e+01 2.258193969726562855e+01 1.060485172271729049e+01 9.000000000000000000e+00
1.848511576652527078e+00 1.280447483062743919e+00 -6.025307178497314453e-01 1.900000000000000000e+01
2.103870630264281782e+00 1.456245899200439009e+00 -5.907214879989624023e-01 1.300000000000000000e+01
