-2.321344614028931108e+00 8.293337821960449219e-01 -6.605061888694763184e-01 2.000000000000000000e+01
-6.077028656005858664e+01 2.172302055358887074e+01 1.126483082771301047e+00 4.900000000000000000e+01
-2.688143968582152876e+00 9.614363908767700195e-01 -6.591066122055053711e-01 1.500000000000000000e+01
-3.153475522994995117e+00 1.128486752510071023e+00 -6.510403156280517578e-01 1.300000000000000000e+01
-3.890372514724731001e+00 1.393721103668212891e+00 -6.545218229293823242e-01 9.000000000000000000e+00
-5.009596824645996094e+00 1.796655178070067915e+00 -6.534634232521057129e-01 1.100000000000000000e+01
-7.021147727966308594e+00 2.519466400146483931e+00 -6.526222229003906250e-01 2.000000000000000000e+00
-1.188881492614745916e+01 4.270863056182861328e+00 -6.620498299598693848e-01 3.000000000000000000e+00
-3.326112747192382812e+01 1.196162986755370916e+01 -6.169774532318115234e-01 1.400000000000000000e+01
-2.311167716979980025e+00 8.348065614700317383e-01 -6.584356427192687988e-01 1.800000000000000000e+01
-2.673775911331177202e+00 9.668378829956054688e-01 -6.564071774482727051e-01 1.300000000000000000e+01
-3.143978834152222124e+00 1.137483835220336914e+00 -6.498954296112060547e-01 1.200000000000000000e+01
-3.874340057373046875e+00 1.403256416320801003e+00 -6.526445746421813965e-01 9.000000000000000000e+00
-5.007027149200438565e+00 1.815484285354614036e+00 -6.539508700370788574e-01 1.100000000000000000e+01
-6.993581295013427734e+00 2.537164688110352007e+00 -6.508790850639343262e-01 2.000000000000000000e+00
-1.187383460998534979e+01 4.312336921691895419e+00 -6.620498299598693848e-01 3.000000000000000000e+00
-3.317406845092772727e+01 1.206126117706299006e+01 -6.161397695541381836e-01 7.000000000000000000e+00
-2.302795648574829102e+00 8.408810496330261230e-01 -6.568827629089355469e-01 1.900000000000000000e+01
-2.672214984893798828e+00 9.768342971801757812e-01 -6.568570733070373535e-01 1.400000000000000000e+01
-3.149208068847655806e+00 1.151823282241821067e+00 -6.518035531044006348e-01 1.100000000000000000e+01
-3.863853216171265093e+00 1.414734244346619096e+00 -6.517059803009033203e-01 8.000000000000000000e+00
-4.993204116821289062e+00 1.830218315124511941e+00 -6.529759168624877930e-01 1.100000000000000000e+01
-6.992164134979248047e+00 2.564305305480957031e+00 -6.515763401985168457e-01 1.000000000000000000e+00
-1.185870933532715021e+01 4.353758335113525391e+00 -6.620498299598693848e-01 3.000000000000000000e+00
-3.320308685302733664e+01 1.220320034027099965e+01 -6.174661517143249512e-01 7.000000000000000000e+00
-2.305431842803955078e+00 8.505187630653381348e-01 -6.584356427192687988e-01 1.900000000000000000e+01
-2.650680541992187944e+00 9.789389967918395996e-01 -6.523580551147460938e-01 1.400000000000000000e+01
-3.143529653549193892e+00 1.161579608917236106e+00 -6.514219045639038086e-01 1.200000000000000000e+01
-3.851729869842528853e+00 1.424798130989074929e+00 -6.504545211791992188e-01 8.000000000000000000e+00
-4.975938320159912109e+00 1.842630267143249956e+00 -6.515135169029235840e-01 8.000000000000000000e+00
-6.983622550964354581e+00 2.587478160858153853e+00 -6.515763401985168457e-01 2.000000000000000000e+00
-1.177679252624512074e+01 4.368054866790770596e+00 -6.582816839218139648e-01 3.000000000000000000e+00
-3.310619735717772727e+01 1.229235649108887074e+01 -6.164190173149108887e-01 7.000000000000000000e+00
-2.313309669494628906e+00 8.626108169555664062e-01 -6.615414619445800781e-01 1.900000000000000000e+01
-6.083970642089843750e+01 2.269863510131835938e+01 1.133463978767395020e+00 4.800000000000000000e+01
-2.660027027130126953e+00 9.929562211036682129e-01 -6.555073857307434082e-01 1.200000000000000000e+01
-3.141294956207274947e+00 1.173232436180114968e+00 -6.518035531044006348e-01 1.300000000000000000e+01
-3.850433588027954102e+00 1.439618110656738059e+00 -6.510802507400512695e-01 8.000000000000000000e+00
-4.975053310394287109e+00 1.862075805664062944e+00 -6.522447466850280762e-01 4.000000000000000000e+00
-6.959620952606201172e+00 2.606250047683715820e+00 -6.501818299293518066e-01 2.000000000000000000e+00
-3.312674331665039062e+01 1.243173217773438033e+01 -6.176057457923889160e-01 7.000000000000000000e+00
-2.304861307144165039e+00 8.686366677284240723e-01 -6.599885821342468262e-01 1.900000000000000000e+01
-6.076010513305664062e+01 2.291086769104003906e+01 1.133463978767395020e+00 4.800000000000000000e+01
-2.643781661987305132e+00 9.974202513694763184e-01 -6.523580551147460938e-01 1.100000000000000000e+01
-3.126159906387329102e+00 1.180030465126038042e+00 -6.495138406753540039e-01 1.200000000000000000e+01
-3.845384836196898970e+00 1.453049898147583008e+00 -6.510802507400512695e-01 8.000000000000000000e+00
-4.992660045623779297e+00 1.888560891151428001e+00 -6.554133296012878418e-01 9.000000000000000000e+00
-6.928120136260986328e+00 2.622064828872681108e+00 -6.480901241302490234e-01 2.000000000000000000e+00
-1.181324863433838068e+01 4.475639343261718750e+00 -6.620498299598693848e-01 3.000000000000000000e+00
-3.301957702636718750e+01 1.252318000793457031e+01 -6.164190173149108887e-01 1.400000000000000000e+01
-2.289177656173706055e+00 8.718637228012084961e-01 -6.563650965690612793e-01 1.900000000000000000e+01
-2.643925666809082031e+00 1.008031129837035911e+00 -6.532578468322753906e-01 1.000000000000000000e+01
-3.118353128433227983e+00 1.189536213874816895e+00 -6.487506031990051270e-01 1.100000000000000000e+01
-3.836598634719849077e+00 1.465054512023926003e+00 -6.504545211791992188e-01 8.000000000000000000e+00
-4.989746093750000000e+00 1.907394647598267046e+00 -6.559008359909057617e-01 1.100000000000000000e+01
-6.911481857299804688e+00 2.643385648727416992e+00 -6.473928689956665039e-01 2.000000000000000000e+00
-3.305035018920897727e+01 1.266699028015137074e+01 -6.178151965141296387e-01 1.400000000000000000e+01
-2.289726257324219194e+00 8.812369108200073242e-01 -6.574003696441650391e-01 1.900000000000000000e+01
-6.078155899047852273e+01 2.340491294860839844e+01 1.136884689331054910e+00 4.700000000000000000e+01
-2.649483203887939009e+00 1.020756959915160911e+00 -6.555073857307434082e-01 9.000000000000000000e+00
-3.125173091888428178e+00 1.204650759696960005e+00 -6.510403156280517578e-01 1.100000000000000000e+01
-3.824089527130126953e+00 1.475593328475951926e+00 -6.492030024528503418e-01 8.000000000000000000e+00
-4.984909057617188388e+00 1.925515770912169966e+00 -6.561445593833923340e-01 9.000000000000000000e+00
-6.913362979888916016e+00 2.671804428100585938e+00 -6.484387516975402832e-01 2.000000000000000000e+00
-1.166250133514403942e+01 4.511881351470947266e+00 -6.553508639335632324e-01 3.000000000000000000e+00
-3.310290145874022727e+01 1.281983280181884943e+01 -6.196302175521850586e-01 1.400000000000000000e+01
-2.297439098358153853e+00 8.934252262115478516e-01 -6.605061888694763184e-01 2.000000000000000000e+01
-6.079266738891602273e+01 2.365319252014160156e+01 1.138629913330077903e+00 4.700000000000000000e+01
-2.624112129211425781e+00 1.021515965461730957e+00 -6.501085758209228516e-01 7.000000000000000000e+00
-3.120949029922484907e+00 1.215552330017090066e+00 -6.510403156280517578e-01 1.100000000000000000e+01
-3.822596311569213867e+00 1.490368008613585982e+00 -6.498287916183471680e-01 9.000000000000000000e+00
-4.970760345458984375e+00 1.940017700195312944e+00 -6.551696062088012695e-01 9.000000000000000000e+00
-6.896571159362792969e+00 2.693021535873413086e+00 -6.477414965629577637e-01 3.000000000000000000e+00
-3.301697921752929688e+01 1.291927433013916016e+01 -6.188623309135437012e-01 1.400000000000000000e+01
-2.294306516647338867e+00 9.014393687248229980e-01 -6.605061888694763184e-01 1.900000000000000000e+01
-6.080278778076171875e+01 2.390183258056640980e+01 1.140375137329102007e+00 4.700000000000000000e+01
-2.616903305053710938e+00 1.029243111610413042e+00 -6.492087244987487793e-01 6.000000000000000000e+00
-3.102071762084960938e+00 1.220687866210937944e+00 -6.479873657226562500e-01 1.100000000000000000e+01
-3.813694715499877930e+00 1.502254247665405051e+00 -6.492030024528503418e-01 8.000000000000000000e+00
-4.952877998352050781e+00 1.952987909317017046e+00 -6.537071466445922852e-01 9.000000000000000000e+00
-6.872301578521729404e+00 2.711229085922241211e+00 -6.463469862937927246e-01 3.000000000000000000e+00
-1.156384277343750000e+01 4.566780090332031250e+00 -6.515826582908630371e-01 3.000000000000000000e+00
-3.293449020385742188e+01 1.301974296569824041e+01 -6.181642413139343262e-01 7.000000000000000000e+00
-2.276781320571898970e+00 9.037406444549560547e-01 -6.563650965690612793e-01 1.800000000000000000e+01
-2.625971794128417969e+00 1.043408632278441939e+00 -6.523580551147460938e-01 7.000000000000000000e+00
-3.103265047073363814e+00 1.233684539794922097e+00 -6.491321921348571777e-01 1.100000000000000000e+01
-3.808427572250366211e+00 1.515557408332824929e+00 -6.492030024528503418e-01 8.000000000000000000e+00
-4.946030616760253906e+00 1.970264792442321999e+00 -6.537071466445922852e-01 1.100000000000000000e+01
-6.849840164184570312e+00 2.730037927627563032e+00 -6.451268196105957031e-01 3.000000000000000000e+00
-1.154783153533936080e+01 4.607117652893066406e+00 -6.515826582908630371e-01 3.000000000000000000e+00
-3.294083786010742188e+01 1.315539264678955078e+01 -6.191415786743164062e-01 1.400000000000000000e+01
-2.262854576110839844e+00 9.073686599731445312e-01 -6.532592773437500000e-01 1.800000000000000000e+01
-6.082003021240233664e+01 2.440018844604491832e+01 1.143865585327147993e+00 4.600000000000000000e+01
-2.634973049163817915e+00 1.057650089263916016e+00 -6.555073857307434082e-01 9.000000000000000000e+00
-3.100761651992797852e+00 1.245241045951843040e+00 -6.495138406753540039e-01 1.100000000000000000e+01
-3.801281213760375977e+00 1.528105258941649947e+00 -6.488901376724243164e-01 9.000000000000000000e+00
-4.933598518371582031e+00 1.985294580459594949e+00 -6.529759168624877930e-01 1.100000000000000000e+01
-6.838420391082763672e+00 2.753187417984008789e+00 -6.449524760246276855e-01 3.000000000000000000e+00
-3.292438888549804688e+01 1.328226757049561080e+01 -6.197000741958618164e-01 1.400000000000000000e+01
-2.270416736602783203e+00 9.196134209632873535e-01 -6.563650965690612793e-01 2.000000000000000000e+01
-2.622235298156737837e+00 1.063180327415466087e+00 -6.532578468322753906e-01 1.300000000000000000e+01
-3.092757463455200195e+00 1.254581212997436968e+00 -6.487506031990051270e-01 1.100000000000000000e+01
-3.784942626953125000e+00 1.536905884742737038e+00 -6.470129489898681641e-01 9.000000000000000000e+00
-4.926638126373291016e+00 2.002503871917725053e+00 -6.529759168624877930e-01 9.000000000000000000e+00
-6.832459449768066406e+00 2.778542280197143999e+00 -6.453011035919189453e-01 2.000000000000000000e+00
-1.144879150390625000e+01 4.660514354705811435e+00 -6.478144526481628418e-01 3.000000000000000000e+00
-3.288893508911132812e+01 1.340164184570313033e+01 -6.199094653129577637e-01 2.100000000000000000e+01
-2.268980741500854048e+00 9.282645583152770996e-01 -6.568827629089355469e-01 1.900000000000000000e+01
-6.083327102661132812e+01 2.489994430541991832e+01 1.147356152534485085e+00 4.600000000000000000e+01
-2.613097906112670898e+00 1.070111513137816939e+00 -6.519081592559814453e-01 1.500000000000000000e+01
-3.086542606353760210e+00 1.264624953269958052e+00 -6.483689546585083008e-01 1.000000000000000000e+01
-3.775899410247803178e+00 1.548609256744384988e+00 -6.463872194290161133e-01 1.000000000000000000e+01
-4.912272930145263672e+00 2.016673326492310014e+00 -6.520009636878967285e-01 9.000000000000000000e+00
-6.804289340972900391e+00 2.794805288314818892e+00 -6.435580253601074219e-01 2.000000000000000000e+00
-3.288263702392578125e+01 1.353310775756835938e+01 -6.206774115562438965e-01 1.400000000000000000e+01
-2.269297599792480025e+00 9.376546144485473633e-01 -6.579180359840393066e-01 1.900000000000000000e+01
-6.074598312377929688e+01 2.511214065551758168e+01 1.147356152534485085e+00 4.600000000000000000e+01
-2.603944301605225053e+00 1.076992034912108931e+00 -6.505584716796875000e-01 1.400000000000000000e+01
-3.083923578262329102e+00 1.276142001152039018e+00 -6.487506031990051270e-01 1.100000000000000000e+01
-3.770470857620238814e+00 1.561780214309691939e+00 -6.463872194290161133e-01 9.000000000000000000e+00
-4.883198738098145419e+00 2.024684429168701172e+00 -6.490761041641235352e-01 9.000000000000000000e+00
-6.803693771362304688e+00 2.822356700897216797e+00 -6.444295644760131836e-01 3.000000000000000000e+00
-3.285735702514647727e+01 1.365701675415039062e+01 -6.210962533950805664e-01 1.400000000000000000e+01
-2.258879423141479048e+00 9.425943493843078613e-01 -6.558474898338317871e-01 1.900000000000000000e+01
-6.084249114990233664e+01 2.540107154846191051e+01 1.150846600532531960e+00 4.500000000000000000e+01
-2.601967096328734907e+00 1.086826086044311968e+00 -6.510083675384521484e-01 1.500000000000000000e+01
-3.075827360153197798e+00 1.285385131835937944e+00 -6.479873657226562500e-01 1.100000000000000000e+01
-3.775930404663085938e+00 1.579505920410156028e+00 -6.482644081115722656e-01 9.000000000000000000e+00
-4.876101493835449219e+00 2.041717529296875000e+00 -6.490761041641235352e-01 1.100000000000000000e+01
-6.775424003601074219e+00 2.838390588760375977e+00 -6.426864266395568848e-01 3.000000000000000000e+00
-3.283898544311522727e+01 1.378400993347167969e+01 -6.216546893119812012e-01 1.400000000000000000e+01
-2.246674060821533203e+00 9.467226862907409668e-01 -6.532592773437500000e-01 1.800000000000000000e+01
-2.601748704910277876e+00 1.097416639328002930e+00 -6.519081592559814453e-01 1.500000000000000000e+01
-3.062277793884276900e+00 1.292297244071960005e+00 -6.460792422294616699e-01 1.200000000000000000e+01
-3.755836486816405806e+00 1.586527347564697044e+00 -6.457614898681640625e-01 9.000000000000000000e+00
-4.870773315429688388e+00 2.059499025344849077e+00 -6.493198871612548828e-01 1.100000000000000000e+01
-6.763639926910400391e+00 2.861247539520264116e+00 -6.425121426582336426e-01 2.000000000000000000e+00
-1.126489734649658025e+01 4.770068168640136719e+00 -6.411154866218566895e-01 3.000000000000000000e+00
-3.281644821166992188e+01 1.390948104858398082e+01 -6.221433877944946289e-01 7.000000000000000000e+00
-2.254356145858765093e+00 9.583107233047485352e-01 -6.563650965690612793e-01 1.800000000000000000e+01
-2.591115713119506836e+00 1.102532863616942915e+00 -6.501085758209228516e-01 1.600000000000000000e+01
-3.067234754562377930e+00 1.305756330490112083e+00 -6.479873657226562500e-01 1.200000000000000000e+01
-3.747199058532714844e+00 1.596770048141479048e+00 -6.451357603073120117e-01 9.000000000000000000e+00
-4.860627174377441406e+00 2.073233127593994141e+00 -6.488323807716369629e-01 1.100000000000000000e+01
-6.743622779846191406e+00 2.877789974212646040e+00 -6.414662599563598633e-01 3.000000000000000000e+00
-1.124985694885254084e+01 4.805434226989746094e+00 -6.411154866218566895e-01 3.000000000000000000e+00
-3.280200576782227273e+01 1.402508640289306996e+01 -6.227018833160400391e-01 1.400000000000000000e+01
-2.247446775436400923e+00 9.646501541137695312e-01 -6.553298234939575195e-01 1.900000000000000000e+01
-6.083213424682617188e+01 2.612297248840332031e+01 1.155593633651732954e+00 4.400000000000000000e+01
-2.585460662841796875e+00 1.110801577568053977e+00 -6.496586203575134277e-01 1.400000000000000000e+01
-3.059050798416138139e+00 1.314904451370239036e+00 -6.472241282463073730e-01 1.100000000000000000e+01
-3.737973451614379883e+00 1.608279109001159890e+00 -6.445099711418151855e-01 9.000000000000000000e+00
-4.855184078216552734e+00 2.090972423553466797e+00 -6.490761041641235352e-01 9.000000000000000000e+00
-6.718897819519042969e+00 2.895004987716674805e+00 -6.400717496871948242e-01 2.000000000000000000e+00
-1.123301410675049006e+01 4.844674110412597656e+00 -6.411154866218566895e-01 3.000000000000000000e+00
-3.280425643920897727e+01 1.416169357299805043e+01 -6.236792206764221191e-01 7.000000000000000000e+00
-2.244065761566162109e+00 9.724893569946289062e-01 -6.553298234939575195e-01 1.800000000000000000e+01
-2.581567525863647017e+00 1.119819760322571023e+00 -6.496586203575134277e-01 1.400000000000000000e+01
-3.047238349914550781e+00 1.322448134422302024e+00 -6.456976532936096191e-01 1.100000000000000000e+01
-3.743207693099976030e+00 1.626039505004883035e+00 -6.463872194290161133e-01 9.000000000000000000e+00
-6.099876785278320312e+01 2.651036071777344105e+01 8.166464805603027344e+00 6.300000000000000000e+01
-4.829650878906250000e+00 2.099992036819458008e+00 -6.466387510299682617e-01 9.000000000000000000e+00
-6.705097675323486328e+00 2.916851043701171875e+00 -6.397231221199035645e-01 2.000000000000000000e+00
-1.121603488922118963e+01 4.883855342864990234e+00 -6.411154866218566895e-01 3.000000000000000000e+00
-3.273995590209960938e+01 1.426972389221191051e+01 -6.233999729156494141e-01 7.000000000000000000e+00
-2.237117767333983931e+00 9.787679910659790039e-01 -6.542945504188537598e-01 1.700000000000000000e+01
-6.085711669921875000e+01 2.663843154907226918e+01 1.159572839736938032e+00 4.300000000000000000e+01
-2.586568355560303178e+00 1.132732987403870073e+00 -6.519081592559814453e-01 1.500000000000000000e+01
-3.028217792510985884e+00 1.326774001121520996e+00 -6.426447033882141113e-01 1.100000000000000000e+01
-3.730272531509398970e+00 1.635922431945801003e+00 -6.451357603073120117e-01 9.000000000000000000e+00
-6.096039199829102273e+01 2.674705314636230113e+01 8.173776626586914062e+00 6.300000000000000000e+01
-4.816838264465332031e+00 2.114444017410277876e+00 -6.459075212478637695e-01 1.100000000000000000e+01
-6.682105541229248047e+00 2.934630393981934038e+00 -6.385029554367065430e-01 3.000000000000000000e+00
-3.265333938598632812e+01 1.436781311035156072e+01 -6.227018833160400391e-01 7.000000000000000000e+00
-2.223084688186645952e+00 9.818879365921020508e-01 -6.511887311935424805e-01 1.800000000000000000e+01
-2.579033851623535156e+00 1.140178918838500977e+00 -6.510083675384521484e-01 1.500000000000000000e+01
-3.041522741317749023e+00 1.345277786254883035e+00 -6.464608907699584961e-01 1.100000000000000000e+01
-3.717314243316649947e+00 1.645734786987304910e+00 -6.438842415809631348e-01 9.000000000000000000e+00
-6.099370956420897727e+01 2.701595687866210938e+01 8.190838813781738281e+00 6.300000000000000000e+01
-4.818502426147460938e+00 2.135266304016112837e+00 -6.471261978149414062e-01 9.000000000000000000e+00
-6.655428409576416016e+00 2.950669765472412109e+00 -6.369341611862182617e-01 2.000000000000000000e+00
-1.109038639068604049e+01 4.921531677246093750e+00 -6.358818411827087402e-01 3.000000000000000000e+00
-3.275650024414063211e+01 1.454989433288574041e+01 -6.256338953971862793e-01 1.400000000000000000e+01
-2.223172426223754883e+00 9.912152886390686035e-01 -6.522240042686462402e-01 1.800000000000000000e+01
-6.076097488403320312e+01 2.710337257385253906e+01 1.161318063735961914e+00 4.300000000000000000e+01
-2.573258638381958008e+00 1.148380398750304954e+00 -6.505584716796875000e-01 1.400000000000000000e+01
-3.031430244445800781e+00 1.353485226631164995e+00 -6.453160047531127930e-01 1.200000000000000000e+01
-3.706136703491210938e+00 1.656282663345336914e+00 -6.429456472396850586e-01 9.000000000000000000e+00
-4.787462711334229404e+00 2.141535520553588867e+00 -6.439576148986816406e-01 1.100000000000000000e+01
-6.648725032806395596e+00 2.975511312484741211e+00 -6.372827887535095215e-01 2.000000000000000000e+00
-1.101845741271973012e+01 4.935719490051270419e+00 -6.327416896820068359e-01 3.000000000000000000e+00
-3.279674530029296875e+01 1.470505428314208984e+01 -6.273791193962097168e-01 7.000000000000000000e+00
-2.226745605468750000e+00 1.002140879631042036e+00 -6.542945504188537598e-01 1.900000000000000000e+01
-2.560350418090819868e+00 1.153353810310363992e+00 -6.483089327812194824e-01 1.500000000000000000e+01
-3.041006326675415039e+00 1.370511889457703081e+00 -6.483689546585083008e-01 1.200000000000000000e+01
-3.705734491348267046e+00 1.671646237373352051e+00 -6.438842415809631348e-01 9.000000000000000000e+00
-6.098455047607421875e+01 2.752276802062987926e+01 8.215212821960449219e+00 6.300000000000000000e+01
-4.787195205688476562e+00 2.161501407623291016e+00 -6.449325680732727051e-01 1.100000000000000000e+01
-6.634666919708251953e+00 2.997061014175415039e+00 -6.369341611862182617e-01 2.000000000000000000e+00
-1.096476459503174006e+01 4.957694053649902344e+00 -6.306482553482055664e-01 3.000000000000000000e+00
-3.271971130371093750e+01 1.480790328979492010e+01 -6.268904209136962891e-01 7.000000000000000000e+00
-2.228510618209838867e+00 1.012304544448852983e+00 -6.558474898338317871e-01 1.900000000000000000e+01
-6.093438339233397727e+01 2.769237136840819957e+01 1.168298959732056108e+00 4.200000000000000000e+01
-2.556308984756470171e+00 1.162284016609191895e+00 -6.483089327812194824e-01 1.500000000000000000e+01
-3.023694276809691939e+00 1.375428318977355957e+00 -6.456976532936096191e-01 1.100000000000000000e+01
-3.696281194686890093e+00 1.682934403419495073e+00 -6.432585120201110840e-01 9.000000000000000000e+00
-4.774201869964599609e+00 2.175729036331177202e+00 -6.442013382911682129e-01 9.000000000000000000e+00
-6.620539188385009766e+00 3.018548965454102007e+00 -6.365855336189270020e-01 3.000000000000000000e+00
-1.101280307769775035e+01 5.025789260864257812e+00 -6.344164609909057617e-01 3.000000000000000000e+00
-3.271875000000000000e+01 1.494528961181640980e+01 -6.278677582740783691e-01 7.000000000000000000e+00
-2.217939138412476030e+00 1.016856908798217995e+00 -6.537768840789794922e-01 1.900000000000000000e+01
-2.554007291793822798e+00 1.172012925148010032e+00 -6.487588286399841309e-01 1.400000000000000000e+01
-3.011738061904906782e+00 1.382698059082031028e+00 -6.441711783409118652e-01 1.200000000000000000e+01
-3.686794281005858931e+00 1.694176912307739036e+00 -6.426327824592590332e-01 9.000000000000000000e+00
-4.744936466217041016e+00 2.182426929473876953e+00 -6.412764787673950195e-01 9.000000000000000000e+00
-6.606341838836669922e+00 3.039974927902222124e+00 -6.362369060516357422e-01 2.000000000000000000e+00
-1.092988586425781072e+01 5.034121036529541016e+00 -6.306482553482055664e-01 3.000000000000000000e+00
-3.279713439941406250e+01 1.511968612670898082e+01 -6.303809285163879395e-01 7.000000000000000000e+00
-2.202103137969971147e+00 1.018914103507996050e+00 -6.501534581184387207e-01 1.900000000000000000e+01
-2.562278985977172852e+00 1.186653614044189009e+00 -6.519081592559814453e-01 1.600000000000000000e+01
-3.008674383163452148e+00 1.394027948379517046e+00 -6.445527672767639160e-01 1.200000000000000000e+01
-3.677273988723754883e+00 1.705373764038085938e+00 -6.420070528984069824e-01 9.000000000000000000e+00
-4.739089965820313388e+00 2.199812412261962891e+00 -6.415202021598815918e-01 1.100000000000000000e+01
-6.588462352752686435e+00 3.059660196304320845e+00 -6.355396509170532227e-01 2.000000000000000000e+00
-1.091224670410156072e+01 5.072242736816406250e+00 -6.306482553482055664e-01 3.000000000000000000e+00
-3.274415969848632812e+01 1.523407745361327947e+01 -6.303809285163879395e-01 7.000000000000000000e+00
-2.207285165786743164e+00 1.030681371688842995e+00 -6.527416110038757324e-01 1.900000000000000000e+01
-6.082222747802733664e+01 2.841358184814453125e+01 1.171789526939392090e+00 4.100000000000000000e+01
-2.540466785430908203e+00 1.187339186668395996e+00 -6.474091410636901855e-01 1.500000000000000000e+01
-3.009125232696533203e+00 1.407016396522521973e+00 -6.456976532936096191e-01 1.100000000000000000e+01
-3.667720317840576172e+00 1.716524839401244895e+00 -6.413813233375549316e-01 9.000000000000000000e+00
-4.738573074340820312e+00 2.219709634780883789e+00 -6.424951553344726562e-01 1.300000000000000000e+01
-6.570525646209716797e+00 3.079257488250731978e+00 -6.348424553871154785e-01 2.000000000000000000e+00
-1.089447498321533025e+01 5.110302925109863281e+00 -6.306482553482055664e-01 3.000000000000000000e+00
-2.205421686172484907e+00 1.039203405380249023e+00 -6.532592773437500000e-01 1.800000000000000000e+01
-2.531018972396851030e+00 1.193706035614013894e+00 -6.460594534873962402e-01 1.400000000000000000e+01
-3.000644445419311968e+00 1.415836095809936968e+00 -6.449344158172607422e-01 1.100000000000000000e+01
-3.650989055633544922e+00 1.724255681037903054e+00 -6.395040750503540039e-01 9.000000000000000000e+00
-4.716438293457031250e+00 2.229450225830078125e+00 -6.405452489852905273e-01 1.100000000000000000e+01
-6.538123130798339844e+00 3.091952800750731978e+00 -6.327506899833679199e-01 3.000000000000000000e+00
-1.087657070159911932e+01 5.148300647735595703e+00 -6.306482553482055664e-01 3.000000000000000000e+00
-2.207014799118041992e+00 1.049384117126465066e+00 -6.548121571540832520e-01 1.900000000000000000e+01
-2.526836633682250977e+00 1.202533721923827903e+00 -6.460594534873962402e-01 1.400000000000000000e+01
-2.988593816757202148e+00 1.422925829887389915e+00 -6.434079408645629883e-01 1.100000000000000000e+01
-6.096504211425781250e+01 2.903965950012207031e+01 5.907938957214354581e+00 3.900000000000000000e+01
-3.653864145278931108e+00 1.741238474845886008e+00 -6.410684585571289062e-01 1.000000000000000000e+01
-4.699668884277343750e+00 2.241626977920531782e+00 -6.393265724182128906e-01 1.000000000000000000e+01
-6.521895885467529297e+00 3.112182140350341797e+00 -6.322277784347534180e-01 3.000000000000000000e+00
-1.067830848693848012e+01 5.100156784057617188e+00 -6.201810836791992188e-01 3.000000000000000000e+00
-2.198112964630126953e+00 1.054574728012084961e+00 -6.532592773437500000e-01 1.900000000000000000e+01
-2.522623777389525923e+00 1.211346626281738059e+00 -6.460594534873962402e-01 1.400000000000000000e+01
-2.976530075073242188e+00 1.429948687553405984e+00 -6.418814659118652344e-01 1.200000000000000000e+01
-3.638862609863280806e+00 1.749702095985413042e+00 -6.395040750503540039e-01 1.000000000000000000e+01
-4.690026760101318359e+00 2.257157325744628906e+00 -6.390828490257263184e-01 1.000000000000000000e+01
-6.518173217773438388e+00 3.138386249542235884e+00 -6.329250335693359375e-01 3.000000000000000000e+00
-1.072521305084229049e+01 5.168614387512207031e+00 -6.239492893218994141e-01 3.000000000000000000e+00
-2.184169769287108931e+00 1.056809663772583008e+00 -6.501534581184387207e-01 1.800000000000000000e+01
-2.529116153717041016e+00 1.224801540374756081e+00 -6.487588286399841309e-01 1.400000000000000000e+01
-2.971771717071533203e+00 1.439811348915100098e+00 -6.418814659118652344e-01 1.100000000000000000e+01
-3.633040428161621094e+00 1.761759400367737038e+00 -6.395040750503540039e-01 9.000000000000000000e+00
-4.686087608337402344e+00 2.274431228637694868e+00 -6.395702958106994629e-01 1.000000000000000000e+01
-6.484430789947509766e+00 3.148670434951781782e+00 -6.306589841842651367e-01 4.000000000000000000e+00
-1.064334583282471058e+01 5.172723293304443359e+00 -6.201810836791992188e-01 3.000000000000000000e+00
-2.180467605590819868e+00 1.064427375793457031e+00 -6.501534581184387207e-01 1.800000000000000000e+01
-6.086127853393554688e+01 2.972348594665526988e+01 1.182260870933532937e+00 3.900000000000000000e+01
-2.516070842742919922e+00 1.229344964027405007e+00 -6.465093493461608887e-01 1.500000000000000000e+01
-2.966727733612060991e+00 1.450176000595092995e+00 -6.418814659118652344e-01 1.200000000000000000e+01
-3.616222143173218218e+00 1.769221663475037065e+00 -6.376268863677978516e-01 1.100000000000000000e+01
-4.674553871154785156e+00 2.289028882980347124e+00 -6.390828490257263184e-01 1.000000000000000000e+01
-6.480556964874267578e+00 3.174792051315308061e+00 -6.313561797142028809e-01 3.000000000000000000e+00
-1.065033054351806996e+01 5.222154140472412109e+00 -6.216464638710021973e-01 3.000000000000000000e+00
-2.181937932968140093e+00 1.074592828750609907e+00 -6.517063379287719727e-01 1.900000000000000000e+01
-2.501276731491088867e+00 1.232950568199157937e+00 -6.438099145889282227e-01 1.200000000000000000e+01
-2.963408470153809038e+00 1.461391329765320046e+00 -6.422630548477172852e-01 1.200000000000000000e+01
-3.618881225585937944e+00 1.786205410957335982e+00 -6.391912102699279785e-01 1.000000000000000000e+01
-4.657636642456054688e+00 2.300935983657836914e+00 -6.378641724586486816e-01 9.000000000000000000e+00
-6.485510826110839844e+00 3.205339193344116211e+00 -6.329250335693359375e-01 3.000000000000000000e+00
-1.053894615173340021e+01 5.213250160217285156e+00 -6.162035465240478516e-01 3.000000000000000000e+00
-2.179903745651245117e+00 1.083062171936034934e+00 -6.522240042686462402e-01 1.800000000000000000e+01
-2.498702764511107954e+00 1.242541790008544922e+00 -6.442598104476928711e-01 1.300000000000000000e+01
-2.956531524658203125e+00 1.470852136611938032e+00 -6.418814659118652344e-01 1.200000000000000000e+01
-3.594941139221190962e+00 1.790021896362304910e+00 -6.360625624656677246e-01 1.000000000000000000e+01
-4.626479625701904297e+00 2.305669546127318892e+00 -6.346955299377441406e-01 1.000000000000000000e+01
-6.449319839477539062e+00 3.215512275695800781e+00 -6.304846405982971191e-01 3.000000000000000000e+00
-1.055642700195313033e+01 5.267841815948486328e+00 -6.182969808578491211e-01 3.000000000000000000e+00
-2.162293195724486861e+00 1.083739995956420898e+00 -6.480829119682312012e-01 1.800000000000000000e+01
-6.090419769287108664e+01 3.053844642639160156e+01 1.189241886138916016e+00 3.800000000000000000e+01
-2.501317739486693892e+00 1.254751443862915039e+00 -6.460594534873962402e-01 1.400000000000000000e+01
-2.942605733871459961e+00 1.476760506629944070e+00 -6.399733424186706543e-01 1.200000000000000000e+01
-3.593966484069824219e+00 1.805219650268554910e+00 -6.370011568069458008e-01 1.000000000000000000e+01
-4.623723983764648438e+00 2.324479818344116211e+00 -6.354267597198486328e-01 9.000000000000000000e+00
-6.430936336517333984e+00 3.234424114227294922e+00 -6.297873854637145996e-01 3.000000000000000000e+00
-1.051656627655028942e+01 5.293882369995117188e+00 -6.170409321784973145e-01 3.000000000000000000e+00
-2.167117357254027876e+00 1.095639348030090110e+00 -6.506710648536682129e-01 1.900000000000000000e+01
-2.496922492980957031e+00 1.263475060462952104e+00 -6.460594534873962402e-01 1.400000000000000000e+01
-2.940936088562012163e+00 1.488796472549438032e+00 -6.407365798950195312e-01 1.200000000000000000e+01
-3.592929601669311968e+00 1.820432424545288086e+00 -6.379397511482238770e-01 1.000000000000000000e+01
-4.626204490661621094e+00 2.345992326736450195e+00 -6.368891596794128418e-01 9.000000000000000000e+00
-6.421383857727050781e+00 3.257754087448120117e+00 -6.299617290496826172e-01 2.000000000000000000e+00
-1.044816017150879084e+01 5.305240631103515625e+00 -6.141101121902465820e-01 3.000000000000000000e+00
-2.161558628082274947e+00 1.102319717407227007e+00 -6.501534581184387207e-01 2.000000000000000000e+01
-2.487289667129517046e+00 1.269525527954102007e+00 -6.447097063064575195e-01 1.500000000000000000e+01
-2.935721397399901900e+00 1.499053239822387917e+00 -6.407365798950195312e-01 1.200000000000000000e+01
-3.570722341537476030e+00 1.824872374534606934e+00 -6.351239085197448730e-01 1.000000000000000000e+01
-4.605616092681884766e+00 2.355798482894897017e+00 -6.351830363273620605e-01 9.000000000000000000e+00
-6.378047466278076172e+00 3.263811826705933061e+00 -6.268240809440612793e-01 3.000000000000000000e+00
-1.041180038452148082e+01 5.332574844360351562e+00 -6.130633950233459473e-01 3.000000000000000000e+00
-2.159415483474731001e+00 1.110741853713989036e+00 -6.506710648536682129e-01 2.100000000000000000e+01
-6.093668365478516336e+01 3.135754585266112926e+01 1.196222901344299094e+00 3.700000000000000000e+01
-2.470714807510375977e+00 1.271956205368041992e+00 -6.415604352951049805e-01 1.400000000000000000e+01
-2.930470943450928178e+00 1.509291648864746094e+00 -6.407365798950195312e-01 1.200000000000000000e+01
-3.557307243347167969e+00 1.833705067634582964e+00 -6.338724493980407715e-01 9.000000000000000000e+00
-4.590308189392089844e+00 2.368220329284667969e+00 -6.342080831527709961e-01 7.000000000000000000e+00
-6.398484230041503906e+00 3.302504062652587891e+00 -6.299617290496826172e-01 2.000000000000000000e+00
-1.033988857269286932e+01 5.341386318206787109e+00 -6.099232435226440430e-01 3.000000000000000000e+00
-2.162384510040283203e+00 1.121831417083740012e+00 -6.527416110038757324e-01 1.900000000000000000e+01
-2.469718694686890093e+00 1.282368898391724077e+00 -6.424602270126342773e-01 1.400000000000000000e+01
-2.914731264114379883e+00 1.514081597328186035e+00 -6.384469270706176758e-01 1.200000000000000000e+01
-3.549132108688354048e+00 1.845200061798095925e+00 -6.335595846176147461e-01 7.000000000000000000e+00
-4.567925930023193359e+00 2.376898527145386186e+00 -6.322581768035888672e-01 7.000000000000000000e+00
-6.372779369354248047e+00 3.317458868026732954e+00 -6.285672187805175781e-01 2.000000000000000000e+00
-1.032118129730224965e+01 5.377446651458740234e+00 -6.099232435226440430e-01 3.000000000000000000e+00
-2.155031919479370117e+00 1.127581477165221946e+00 -6.517063379287719727e-01 1.900000000000000000e+01
-2.472132921218872070e+00 1.294598221778870073e+00 -6.442598104476928711e-01 1.400000000000000000e+01
-2.907689332962036133e+00 1.523335695266724077e+00 -6.380652785301208496e-01 1.300000000000000000e+01
-3.565412759780883789e+00 1.869502782821655051e+00 -6.376268863677978516e-01 4.000000000000000000e+00
-4.577178478240966797e+00 2.402053594589232954e+00 -6.346955299377441406e-01 1.000000000000000000e+01
-6.350575923919677734e+00 3.334126949310303178e+00 -6.275213360786437988e-01 2.000000000000000000e+00
-1.030234718322754084e+01 5.413441658020020419e+00 -6.099232435226440430e-01 3.000000000000000000e+00
-2.130580186843872070e+00 1.124278068542480025e+00 -6.454946994781494141e-01 1.900000000000000000e+01
-2.472768306732178178e+00 1.305949807167053001e+00 -6.456094980239868164e-01 1.500000000000000000e+01
-2.904089927673339844e+00 1.534393310546875000e+00 -6.384469270706176758e-01 1.300000000000000000e+01
-3.553626298904418945e+00 1.879166722297668013e+00 -6.366882920265197754e-01 6.000000000000000000e+00
-6.100497817993164062e+01 3.227321243286132812e+01 8.474062919616699219e+00 6.300000000000000000e+01
-4.554729938507080078e+00 2.410587549209595171e+00 -6.327456235885620117e-01 1.000000000000000000e+01
-6.324812412261962891e+00 3.348815917968750000e+00 -6.261268854141235352e-01 2.000000000000000000e+00
-1.028338813781737926e+01 5.449370384216308594e+00 -6.099232435226440430e-01 3.000000000000000000e+00
-2.138580560684204102e+00 1.138061165809630904e+00 -6.491181850433349609e-01 1.900000000000000000e+01
-2.461314678192139116e+00 1.310909152030945046e+00 -6.438099145889282227e-01 1.600000000000000000e+01
-2.893518447875977007e+00 1.541751503944396973e+00 -6.373020410537719727e-01 1.300000000000000000e+01
-3.534844160079956055e+00 1.885053157806396040e+00 -6.344981789588928223e-01 8.000000000000000000e+00
-4.553292751312255859e+00 2.430210590362548828e+00 -6.337205767631530762e-01 1.000000000000000000e+01
-6.313084602355957031e+00 3.370873212814331055e+00 -6.261268854141235352e-01 2.000000000000000000e+00
-1.026430320739745916e+01 5.485232830047607422e+00 -6.099232435226440430e-01 3.000000000000000000e+00
-2.137999296188354048e+00 1.147346258163451926e+00 -6.501534581184387207e-01 1.900000000000000000e+01
-2.444706201553345171e+00 1.313038229942321999e+00 -6.406605839729309082e-01 1.400000000000000000e+01
-2.891577959060668945e+00 1.553700804710387962e+00 -6.380652785301208496e-01 1.600000000000000000e+01
-3.535201549530028853e+00 1.901122927665710005e+00 -6.357496380805969238e-01 1.000000000000000000e+01
-4.544781684875488281e+00 2.446089744567871094e+00 -6.337205767631530762e-01 1.000000000000000000e+01
-6.294262409210205078e+00 3.389111042022705078e+00 -6.254296302795410156e-01 2.000000000000000000e+00
-1.024509429931640980e+01 5.521028518676757812e+00 -6.099232435226440430e-01 3.000000000000000000e+00
-2.137379407882689986e+00 1.156641125679015891e+00 -6.511887311935424805e-01 2.000000000000000000e+01
-2.443535089492797852e+00 1.323419928550719993e+00 -6.415604352951049805e-01 1.400000000000000000e+01
-2.882684469223022017e+00 1.561914324760437012e+00 -6.373020410537719727e-01 1.300000000000000000e+01
-3.521597862243651900e+00 1.909684896469115989e+00 -6.344981789588928223e-01 9.000000000000000000e+00
-4.518768787384033203e+00 2.452470302581787109e+00 -6.312832236289978027e-01 1.000000000000000000e+01
-6.278892040252686435e+00 3.409160137176514116e+00 -6.250810027122497559e-01 2.000000000000000000e+00
-1.022575950622558949e+01 5.556756973266601562e+00 -6.099232435226440430e-01 3.000000000000000000e+00
-2.128241539001464844e+00 1.161318898200988992e+00 -6.496357917785644531e-01 1.900000000000000000e+01
-2.452583074569702148e+00 1.339413762092590110e+00 -6.451596021652221680e-01 1.400000000000000000e+01
-2.870323181152344194e+00 1.568202018737792969e+00 -6.357755661010742188e-01 1.600000000000000000e+01
-3.532242298126221147e+00 1.931442975997925027e+00 -6.376268863677978516e-01 9.000000000000000000e+00
-4.513663291931152344e+00 2.470134735107421875e+00 -6.317706704139709473e-01 1.000000000000000000e+01
-6.263458251953125000e+00 3.429143190383911133e+00 -6.247323751449584961e-01 2.000000000000000000e+00
-1.020630073547362926e+01 5.592417716979979581e+00 -6.099232435226440430e-01 3.000000000000000000e+00
-2.115711927413939986e+00 1.164084434509276900e+00 -6.470476388931274414e-01 1.900000000000000000e+01
-2.446185588836669922e+00 1.347026705741882102e+00 -6.447097063064575195e-01 1.500000000000000000e+01
-2.864831686019897017e+00 1.578211784362792969e+00 -6.357755661010742188e-01 1.700000000000000000e+01
-3.515099525451660156e+00 1.938038587570189986e+00 -6.357496380805969238e-01 9.000000000000000000e+00
-4.518918037414550781e+00 2.493547677993773970e+00 -6.337205767631530762e-01 1.000000000000000000e+01
-6.240984439849854404e+00 3.445208549499512163e+00 -6.236864924430847168e-01 3.000000000000000000e+00
-1.009930801391601918e+01 5.579717636108398438e+00 -6.046896576881408691e-01 3.000000000000000000e+00
-2.111635684967041016e+00 1.171462535858154075e+00 -6.470476388931274414e-01 1.900000000000000000e+01
-2.426135063171387163e+00 1.347043633460998979e+00 -6.406605839729309082e-01 1.400000000000000000e+01
-2.859305381774901900e+00 1.588202238082885964e+00 -6.357755661010742188e-01 1.700000000000000000e+01
-3.487594842910767046e+00 1.938779234886168990e+00 -6.319952607154846191e-01 9.000000000000000000e+00
-4.492839336395263672e+00 2.499655246734619141e+00 -6.312832236289978027e-01 1.000000000000000000e+01
-6.202806949615479404e+00 3.452438116073607954e+00 -6.210718154907226562e-01 3.000000000000000000e+00
-2.114277601242064986e+00 1.182598590850830078e+00 -6.491181850433349609e-01 1.900000000000000000e+01
-2.418017387390137163e+00 1.353600502014159934e+00 -6.397607922554016113e-01 1.400000000000000000e+01
-2.858882904052733931e+00 1.601051330566406028e+00 -6.369204521179199219e-01 1.300000000000000000e+01
-3.480805873870850053e+00 1.950941324234009011e+00 -6.319952607154846191e-01 9.000000000000000000e+00
-4.480623722076416016e+00 2.513380765914916992e+00 -6.307957172393798828e-01 1.000000000000000000e+01
-3.628277587890625000e+01 2.036094474792480113e+01 6.589645385742188388e+00 1.400000000000000000e+01
-6.199405670166015625e+00 3.478944063186645952e+00 -6.219433546066284180e-01 2.000000000000000000e+00
-1.006010818481444957e+01 5.650087833404541016e+00 -6.046896576881408691e-01 3.000000000000000000e+00
-2.112027406692504883e+00 1.190551996231079102e+00 -6.496357917785644531e-01 1.900000000000000000e+01
-2.413515329360961914e+00 1.361611485481261985e+00 -6.397607922554016113e-01 1.400000000000000000e+01
-2.841589689254761186e+00 1.603768110275268999e+00 -6.342490911483764648e-01 1.300000000000000000e+01
-3.474317312240601030e+00 1.962473392486572044e+00 -6.319952607154846191e-01 9.000000000000000000e+00
-4.458439826965332031e+00 2.520409822463988814e+00 -6.288458108901977539e-01 1.000000000000000000e+01
-6.191303253173828125e+00 3.501444578170775923e+00 -6.222919821739196777e-01 3.000000000000000000e+00
-9.954408645629882812e+00 5.634227275848388672e+00 -5.994560718536376953e-01 3.000000000000000000e+00
-2.102819919586182085e+00 1.195053458213805930e+00 -6.480829119682312012e-01 2.000000000000000000e+01
-2.413829565048218218e+00 1.372918248176574929e+00 -6.411104798316955566e-01 1.300000000000000000e+01
-2.827442407608031782e+00 1.608822822570801003e+00 -6.323410272598266602e-01 1.200000000000000000e+01
-3.474312067031859907e+00 1.978499174118041992e+00 -6.332467198371887207e-01 1.000000000000000000e+01
-4.451339721679688388e+00 2.536940336227416992e+00 -6.290895342826843262e-01 9.000000000000000000e+00
-6.128849506378173828e+00 3.494416475296020952e+00 -6.172369718551635742e-01 3.000000000000000000e+00
-9.934680938720703125e+00 5.668940067291259766e+00 -5.994560718536376953e-01 3.000000000000000000e+00
-2.081873416900635210e+00 1.192782640457153098e+00 -6.429064869880676270e-01 2.000000000000000000e+01
-2.409022331237792969e+00 1.381335735321044922e+00 -6.411104798316955566e-01 1.200000000000000000e+01
-2.840541839599608931e+00 1.629428267478943093e+00 -6.365388035774230957e-01 1.200000000000000000e+01
-3.470810890197753906e+00 1.992581725120543990e+00 -6.338724493980407715e-01 1.100000000000000000e+01
-4.444178104400634766e+00 2.553452014923096147e+00 -6.293333172798156738e-01 1.000000000000000000e+01
-6.139070034027099609e+00 3.528696298599243164e+00 -6.195030212402343750e-01 2.000000000000000000e+00
-9.914832115173339844e+00 5.703584194183349609e+00 -5.994560718536376953e-01 3.000000000000000000e+00
-2.084388494491577148e+00 1.203907370567321999e+00 -6.449770331382751465e-01 1.800000000000000000e+01
-2.402498722076416016e+00 1.388761162757873979e+00 -6.406605839729309082e-01 1.400000000000000000e+01
-2.831437587738037109e+00 1.637367963790893999e+00 -6.357755661010742188e-01 1.200000000000000000e+01
-3.446737289428710938e+00 1.994790196418761985e+00 -6.307437419891357422e-01 1.100000000000000000e+01
-4.428366661071777344e+00 2.564969539642333984e+00 -6.283583641052246094e-01 1.000000000000000000e+01
-6.119819641113281250e+00 3.546108484268188032e+00 -6.188057661056518555e-01 3.000000000000000000e+00
-9.846485137939453125e+00 5.710103988647460938e+00 -5.965252518653869629e-01 3.000000000000000000e+00
-2.086851358413695845e+00 1.215064167976378950e+00 -6.470476388931274414e-01 1.900000000000000000e+01
-2.385850429534912109e+00 1.390270948410033958e+00 -6.375113129615783691e-01 1.300000000000000000e+01
-2.830793380737305132e+00 1.650207757949829102e+00 -6.369204521179199219e-01 1.200000000000000000e+01
-3.436340808868408203e+00 2.004818439483643022e+00 -6.301180124282836914e-01 1.100000000000000000e+01
-4.412529468536376953e+00 2.576408147811890093e+00 -6.273833513259887695e-01 1.000000000000000000e+01
-6.100522518157958984e+00 3.563429355621337891e+00 -6.181085109710693359e-01 2.000000000000000000e+00
-9.788559913635253906e+00 5.722264766693115234e+00 -5.942224264144897461e-01 3.000000000000000000e+00
-2.084263324737548828e+00 1.223319053649901900e+00 -6.475652456283569336e-01 1.900000000000000000e+01
-2.389384269714355025e+00 1.403525710105895996e+00 -6.397607922554016113e-01 1.400000000000000000e+01
-2.816552639007567915e+00 1.655105829238892046e+00 -6.350123286247253418e-01 1.100000000000000000e+01
-3.425916194915771040e+00 2.014798641204833984e+00 -6.294922828674316406e-01 1.100000000000000000e+01
-3.599306106567382812e+01 2.117615509033203125e+01 5.127530574798583984e+00 2.700000000000000000e+01
-4.389822959899902344e+00 2.583739757537841797e+00 -6.254334449768066406e-01 1.200000000000000000e+01
-6.098348140716552734e+00 3.590768098831177202e+00 -6.191543936729431152e-01 3.000000000000000000e+00
-9.723787307739257812e+00 5.730034351348876953e+00 -5.915009975433349609e-01 3.000000000000000000e+00
-2.083305835723876953e+00 1.232554435729980025e+00 -6.486005187034606934e-01 2.200000000000000000e+01
-2.384470701217650923e+00 1.411857724189758079e+00 -6.397607922554016113e-01 1.300000000000000000e+01
-2.804001331329346147e+00 1.660925030708312988e+00 -6.334858536720275879e-01 1.200000000000000000e+01
-3.427358627319335938e+00 2.031781673431396040e+00 -6.310566067695617676e-01 1.000000000000000000e+01
-4.377362728118895596e+00 2.597021579742432085e+00 -6.249459981918334961e-01 1.000000000000000000e+01
-6.072070121765136719e+00 3.603898048400878906e+00 -6.177598834037780762e-01 2.000000000000000000e+00
-9.686554908752441406e+00 5.753742218017578125e+00 -5.904542803764343262e-01 3.000000000000000000e+00
-2.060739278793334961e+00 1.228934764862060991e+00 -6.429064869880676270e-01 1.800000000000000000e+01
-2.384547948837279829e+00 1.423168540000915971e+00 -6.411104798316955566e-01 1.300000000000000000e+01
-2.796500921249390093e+00 1.669696331024169922e+00 -6.331042647361755371e-01 1.200000000000000000e+01
-3.413462638854980025e+00 2.039680004119873047e+00 -6.298051476478576660e-01 1.000000000000000000e+01
-3.393941879272460938e+01 2.028819465637207031e+01 4.855031013488770419e+00 2.000000000000000000e+01
-4.385307788848876953e+00 2.622473955154418945e+00 -6.273833513259887695e-01 1.000000000000000000e+01
-6.035516262054443359e+00 3.610751390457152876e+00 -6.153195500373840332e-01 2.000000000000000000e+00
-9.642420768737792969e+00 5.773155689239501953e+00 -5.889888405799865723e-01 3.000000000000000000e+00
-2.061404228210449219e+00 1.239106416702270952e+00 -6.444594264030456543e-01 1.900000000000000000e+01
-2.374555826187133789e+00 1.428469896316528098e+00 -6.397607922554016113e-01 1.400000000000000000e+01
-2.795701980590819868e+00 1.682484745979309082e+00 -6.342490911483764648e-01 1.200000000000000000e+01
-3.396168947219849077e+00 2.045467853546143022e+00 -6.279279589653015137e-01 1.000000000000000000e+01
-4.348925113677979404e+00 2.621369123458861861e+00 -6.234835386276245117e-01 1.000000000000000000e+01
-6.012638568878173828e+00 3.625624179840087891e+00 -6.142736673355102539e-01 2.000000000000000000e+00
-9.594849586486816406e+00 5.790267944335938388e+00 -5.873141288757324219e-01 3.000000000000000000e+00
-2.060370922088623047e+00 1.248296499252318892e+00 -6.454946994781494141e-01 2.100000000000000000e+01
-2.359557151794434038e+00 1.430687665939331055e+00 -6.370613574981689453e-01 1.300000000000000000e+01
-2.789811849594116211e+00 1.692233324050903098e+00 -6.342490911483764648e-01 1.200000000000000000e+01
-3.378876686096190962e+00 2.051159620285034180e+00 -6.260507106781005859e-01 1.000000000000000000e+01
-3.343046188354492188e+01 2.030207252502441051e+01 4.802383422851563388e+00 2.000000000000000000e+01
-4.349927425384520596e+00 2.642718076705933061e+00 -6.249459981918334961e-01 1.000000000000000000e+01
-6.010161399841308594e+00 3.652798891067504883e+00 -6.153195500373840332e-01 2.000000000000000000e+00
-9.601881980895996094e+00 5.840331554412841797e+00 -5.889888405799865723e-01 3.000000000000000000e+00
-2.065893650054932085e+00 1.261521816253662109e+00 -6.486005187034606934e-01 2.200000000000000000e+01
-2.357874393463135210e+00 1.440947771072387917e+00 -6.379612088203430176e-01 1.400000000000000000e+01
-2.770487785339355025e+00 1.693768858909606934e+00 -6.311961412429809570e-01 1.100000000000000000e+01
-3.376751422882080078e+00 2.066034555435181108e+00 -6.269893646240234375e-01 1.100000000000000000e+01
-4.316975116729736328e+00 2.643373250961304155e+00 -6.215336322784423828e-01 1.000000000000000000e+01
-3.480814743041992188e+01 2.131375122070312855e+01 6.464498043060302734e+00 1.400000000000000000e+01
-6.004170417785645419e+00 3.677918910980225053e+00 -6.160168051719665527e-01 3.000000000000000000e+00
-9.513326644897460938e+00 5.832057952880859375e+00 -5.848019719123840332e-01 3.000000000000000000e+00
-2.046670436859130859e+00 1.259612441062927024e+00 -6.439417600631713867e-01 2.000000000000000000e+01
-2.356148481369018999e+00 1.451213479042053001e+00 -6.388610005378723145e-01 1.400000000000000000e+01
-2.777930021286011186e+00 1.711668491363524947e+00 -6.342490911483764648e-01 1.300000000000000000e+01
