-4.113551616668701172e+00 4.886730194091796875e+00 -5.588425993919372559e-01 3.000000000000000000e+00
-6.205985546112061435e+00 7.377681255340576172e+00 -5.052513480186462402e-01 2.000000000000000000e+00
-1.247856903076172053e+01 1.484505081176757990e+01 -3.385068774223328192e-01 3.000000000000000000e+00
-1.494158267974853960e+00 1.782563209533690962e+00 -6.232362389564514160e-01 1.700000000000000000e+01
-1.733082056045532005e+00 2.069071054458618164e+00 -6.231144070625305176e-01 1.600000000000000000e+01
-2.001483440399169922e+00 2.390354156494141069e+00 -6.060093641281127930e-01 1.100000000000000000e+01
-2.426250696182250977e+00 2.899705648422241211e+00 -5.988311171531677246e-01 9.000000000000000000e+00
-3.066194772720336914e+00 3.667127847671508789e+00 -5.869227647781372070e-01 9.000000000000000000e+00
-4.083691120147705078e+00 4.885772228240966797e+00 -5.570995211601257324e-01 4.000000000000000000e+00
-6.180194854736328125e+00 7.399299144744873047e+00 -5.052513480186462402e-01 2.000000000000000000e+00
-1.242154884338379084e+01 1.488237857818604049e+01 -3.383672535419464111e-01 3.000000000000000000e+00
-1.490398526191710982e+00 1.790737628936768022e+00 -6.242715120315551758e-01 1.600000000000000000e+01
-1.717126369476317915e+00 2.064620018005371094e+00 -6.199650764465332031e-01 1.400000000000000000e+01
-2.003168344497681108e+00 2.409403324127196822e+00 -6.090623140335083008e-01 1.100000000000000000e+01
-2.412327051162720171e+00 2.903599023818970171e+00 -5.978925228118896484e-01 8.000000000000000000e+00
-3.054643392562866211e+00 3.679335832595825195e+00 -5.871664881706237793e-01 8.000000000000000000e+00
-4.078063488006591797e+00 4.913795948028563565e+00 -5.586683154106140137e-01 4.000000000000000000e+00
-6.141578674316406250e+00 7.405453681945800781e+00 -5.042046308517456055e-01 2.000000000000000000e+00
-1.233634757995604936e+01 1.488561534881591975e+01 -3.374597430229187012e-01 3.000000000000000000e+00
-1.487830519676208052e+00 1.800396680831908958e+00 -6.258244514465332031e-01 1.600000000000000000e+01
-1.708668231964111106e+00 2.069098711013793945e+00 -6.195151805877685547e-01 1.300000000000000000e+01
-1.998495221138000044e+00 2.420922994613647017e+00 -6.102071404457092285e-01 1.200000000000000000e+01
-2.400919675827025923e+00 2.910478115081787109e+00 -5.975796580314636230e-01 9.000000000000000000e+00
-3.035468339920043945e+00 3.682317495346068892e+00 -5.859478116035461426e-01 9.000000000000000000e+00
-4.054551124572753906e+00 4.920312881469726562e+00 -5.577967762947082520e-01 6.000000000000000000e+00
-6.128387451171875000e+00 7.442264556884765625e+00 -5.052513480186462402e-01 2.000000000000000000e+00
-1.224873542785645064e+01 1.488535118103026988e+01 -3.364824056625366211e-01 3.000000000000000000e+00
-1.482762336730957031e+00 1.807072639465332031e+00 -6.263421177864074707e-01 1.800000000000000000e+01
-1.698964118957519975e+00 2.072036743164062944e+00 -6.186153888702392578e-01 1.200000000000000000e+01
-1.981320619583130105e+00 2.417255640029906782e+00 -6.075358390808105469e-01 1.100000000000000000e+01
-2.397004127502440962e+00 2.926481962203979048e+00 -5.991439819335937500e-01 9.000000000000000000e+00
-3.018824100494385210e+00 3.688282251358031782e+00 -5.852165818214416504e-01 9.000000000000000000e+00
-4.033565998077392578e+00 4.929810047149658203e+00 -5.572738051414489746e-01 6.000000000000000000e+00
-6.077087402343750000e+00 7.432686805725097656e+00 -5.031578540802001953e-01 2.000000000000000000e+00
-1.223212718963623047e+01 1.497137546539306996e+01 -3.374597430229187012e-01 3.000000000000000000e+00
-1.477665662765502930e+00 1.813735127449036089e+00 -6.268597245216369629e-01 1.600000000000000000e+01
-1.697872638702393022e+00 2.085510730743408203e+00 -6.208649277687072754e-01 1.300000000000000000e+01
-1.965435266494750977e+00 2.415020704269409180e+00 -6.052461266517639160e-01 1.100000000000000000e+01
-2.390513420104980025e+00 2.939429044723511186e+00 -6.000826358795166016e-01 9.000000000000000000e+00
-3.003427267074584961e+00 3.695716381072998047e+00 -5.847291350364685059e-01 8.000000000000000000e+00
-4.007539272308349609e+00 4.933034896850585938e+00 -5.560536384582519531e-01 7.000000000000000000e+00
-6.051105499267578125e+00 7.453854560852050781e+00 -5.031578540802001953e-01 2.000000000000000000e+00
-1.213443946838379084e+01 1.495807647705077947e+01 -3.362031579017639160e-01 3.000000000000000000e+00
-1.459175825119018999e+00 1.803862452507019043e+00 -6.216833591461181641e-01 1.600000000000000000e+01
-1.690582513809204102e+00 2.091424703598022017e+00 -6.208649277687072754e-01 1.200000000000000000e+01
-1.958227157592772993e+00 2.423393726348876953e+00 -6.056277751922607422e-01 1.000000000000000000e+01
-2.380238294601439986e+00 2.947755575180054155e+00 -6.000826358795166016e-01 9.000000000000000000e+00
-2.989262104034423828e+00 3.704632997512816939e+00 -5.844853520393371582e-01 9.000000000000000000e+00
-3.980288267135620117e+00 4.934587478637695312e+00 -5.546591281890869141e-01 6.000000000000000000e+00
-6.017529487609863281e+00 7.465601444244384766e+00 -5.025298595428466797e-01 2.000000000000000000e+00
-1.204953861236572088e+01 1.495985126495360973e+01 -3.352956175804138184e-01 3.000000000000000000e+00
-1.457709193229675071e+00 1.814969778060913086e+00 -6.237539052963256836e-01 1.600000000000000000e+01
-1.686931133270263894e+00 2.101872682571411133e+00 -6.222146153450012207e-01 1.200000000000000000e+01
-1.952213168144226074e+00 2.433277130126953125e+00 -6.063910126686096191e-01 1.000000000000000000e+01
-2.361284732818603960e+00 2.945257663726807085e+00 -5.978925228118896484e-01 9.000000000000000000e+00
-2.985000371932982954e+00 3.725889444351195845e+00 -5.861915349960327148e-01 8.000000000000000000e+00
-3.960548400878905806e+00 4.945341110229492188e+00 -5.543105006217956543e-01 4.000000000000000000e+00
-5.993928909301757812e+00 7.489679813385009766e+00 -5.027391910552978516e-01 2.000000000000000000e+00
-1.194978618621825994e+01 1.494247531890868963e+01 -3.339692354202271063e-01 3.000000000000000000e+00
-1.456501364707946999e+00 1.825834512710571067e+00 -6.258244514465332031e-01 1.600000000000000000e+01
-1.662945747375488059e+00 2.086121559143065962e+00 -6.159160137176513672e-01 1.300000000000000000e+01
-1.949027419090270996e+00 2.445878982543944868e+00 -6.079174876213073730e-01 1.100000000000000000e+01
-2.345352411270142046e+00 2.945345163345336914e+00 -5.963281989097595215e-01 9.000000000000000000e+00
-2.968920469284058061e+00 3.731107711791992188e+00 -5.854603052139282227e-01 9.000000000000000000e+00
-3.946607828140258789e+00 4.961565971374511719e+00 -5.546591281890869141e-01 6.000000000000000000e+00
-5.951660633087158203e+00 7.487626075744628906e+00 -5.012738108634948730e-01 2.000000000000000000e+00
-1.186783218383789062e+01 1.494130802154541016e+01 -3.330617249011992853e-01 3.000000000000000000e+00
-1.456116318702697976e+00 1.838479518890381081e+00 -6.284126639366149902e-01 1.700000000000000000e+01
-1.662909984588623047e+00 2.101081848144530806e+00 -6.186153888702392578e-01 1.500000000000000000e+01
-1.935605287551880105e+00 2.446508884429932085e+00 -6.063910126686096191e-01 1.100000000000000000e+01
-2.339957475662231001e+00 2.959712505340576172e+00 -5.975796580314636230e-01 9.000000000000000000e+00
-2.946033477783203125e+00 3.728987216949462891e+00 -5.835103988647460938e-01 9.000000000000000000e+00
-3.931734323501586914e+00 4.978439331054688388e+00 -5.550077557563781738e-01 6.000000000000000000e+00
-5.883419036865234375e+00 7.455049514770507812e+00 -4.977149367332457941e-01 2.000000000000000000e+00
-1.179826927185058949e+01 1.496066093444824041e+01 -3.325730562210083008e-01 3.000000000000000000e+00
-1.437748551368712935e+00 1.828365325927733931e+00 -6.232362389564514160e-01 1.700000000000000000e+01
-1.656769752502440962e+00 2.108406066894530806e+00 -6.190652847290039062e-01 1.400000000000000000e+01
-1.919777154922484907e+00 2.443987131118773970e+00 -6.041013002395629883e-01 1.100000000000000000e+01
-2.333270788192749023e+00 2.972523927688599077e+00 -5.985182523727416992e-01 8.000000000000000000e+00
-2.929323673248291016e+00 3.734562397003173828e+00 -5.827792286872863770e-01 1.100000000000000000e+01
-3.895891666412353960e+00 4.968615055084229404e+00 -5.523930788040161133e-01 6.000000000000000000e+00
-5.852432727813720703e+00 7.469252109527587891e+00 -4.972962439060211182e-01 2.000000000000000000e+00
-1.173364639282226918e+01 1.498600864410400035e+01 -3.322240114212036133e-01 3.000000000000000000e+00
-1.434924006462096946e+00 1.837941050529479980e+00 -6.247891783714294434e-01 1.600000000000000000e+01
-1.654194712638854980e+00 2.120322227478026900e+00 -6.208649277687072754e-01 1.400000000000000000e+01
-1.911234378814697044e+00 2.450673580169678178e+00 -6.041013002395629883e-01 1.000000000000000000e+01
-2.321666240692139116e+00 2.979092359542847124e+00 -5.982053875923156738e-01 9.000000000000000000e+00
-2.927246809005736861e+00 3.758860588073730025e+00 -5.849728584289550781e-01 9.000000000000000000e+00
-3.852822542190552202e+00 4.949168205261229581e+00 -5.487325787544250488e-01 6.000000000000000000e+00
-5.838587760925292969e+00 7.505400180816650391e+00 -4.983429610729218084e-01 2.000000000000000000e+00
-1.424949169158935991e+00 1.838358044624329057e+00 -6.232362389564514160e-01 1.800000000000000000e+01
-1.640816807746886985e+00 2.118380308151245117e+00 -6.186153888702392578e-01 1.600000000000000000e+01
-1.906274080276489036e+00 2.461987018585205078e+00 -6.052461266517639160e-01 9.000000000000000000e+00
-2.304000377655028853e+00 2.977804422378540039e+00 -5.963281989097595215e-01 9.000000000000000000e+00
-2.906822919845581055e+00 3.759633064270019975e+00 -5.835103988647460938e-01 9.000000000000000000e+00
-3.847707271575928178e+00 4.978351116180419922e+00 -5.504756569862365723e-01 7.000000000000000000e+00
-5.790379047393798828e+00 7.497282028198242188e+00 -4.964588880538939875e-01 2.000000000000000000e+00
-1.162873935699463068e+01 1.506755924224854049e+01 -3.322240114212036133e-01 3.000000000000000000e+00
-1.423236131668091042e+00 1.849444866180419922e+00 -6.253067851066589355e-01 1.800000000000000000e+01
-1.631036400794982910e+00 2.121005296707152876e+00 -6.177155971527099609e-01 1.600000000000000000e+01
-1.904847621917725053e+00 2.477965354919434038e+00 -6.075358390808105469e-01 1.000000000000000000e+01
-2.292388439178466797e+00 2.984262228012084961e+00 -5.960153341293334961e-01 9.000000000000000000e+00
-2.893681526184082031e+00 3.769756793975830078e+00 -5.835103988647460938e-01 9.000000000000000000e+00
-3.813325643539429155e+00 4.969622611999511719e+00 -5.480353236198425293e-01 7.000000000000000000e+00
-5.778756618499755859e+00 7.536468029022216797e+00 -4.977149367332457941e-01 2.000000000000000000e+00
-1.155904579162598012e+01 1.508583736419677912e+01 -3.317353427410125732e-01 3.000000000000000000e+00
-1.419117331504821999e+00 1.857471823692321999e+00 -6.263421177864074707e-01 1.600000000000000000e+01
-1.623622775077820046e+00 2.126685857772827148e+00 -6.177155971527099609e-01 1.600000000000000000e+01
-1.892613053321837935e+00 2.479917287826538086e+00 -6.063910126686096191e-01 1.000000000000000000e+01
-2.287946939468383789e+00 3.000099658966064009e+00 -5.975796580314636230e-01 9.000000000000000000e+00
-2.878098726272583008e+00 3.776676893234252930e+00 -5.830229520797729492e-01 9.000000000000000000e+00
-3.804406642913817915e+00 4.993997573852539062e+00 -5.492554903030395508e-01 6.000000000000000000e+00
-5.728219032287597656e+00 7.524809837341308594e+00 -4.956215023994445801e-01 2.000000000000000000e+00
-1.146273136138916016e+01 1.506879806518555043e+01 -3.304787576198577881e-01 3.000000000000000000e+00
-1.414959788322448953e+00 1.865492582321166992e+00 -6.273773908615112305e-01 1.600000000000000000e+01
-1.623252034187316895e+00 2.141658782958983931e+00 -6.204150319099426270e-01 1.800000000000000000e+01
-1.868531942367553933e+00 2.466166019439696822e+00 -6.014299392700195312e-01 1.100000000000000000e+01
-2.275075912475585938e+00 3.004917860031127930e+00 -5.969539284706115723e-01 9.000000000000000000e+00
-2.864897966384888139e+00 3.786700248718262163e+00 -5.830229520797729492e-01 9.000000000000000000e+00
-3.777336597442626953e+00 4.994534492492675781e+00 -5.478609800338745117e-01 9.000000000000000000e+00
-5.706734657287597656e+00 7.551133155822753906e+00 -4.960401952266693115e-01 2.000000000000000000e+00
-1.133293437957764027e+01 1.500658893585205078e+01 -3.282448649406433105e-01 3.000000000000000000e+00
-1.397980690002440962e+00 1.856531023979187012e+00 -6.227186322212219238e-01 1.600000000000000000e+01
-1.609907984733581987e+00 2.139526128768920898e+00 -6.181654930114746094e-01 1.600000000000000000e+01
-1.868173122406006081e+00 2.483655929565430132e+00 -6.041013002395629883e-01 1.000000000000000000e+01
-2.266946554183959961e+00 3.015999317169189009e+00 -5.975796580314636230e-01 9.000000000000000000e+00
-2.854046821594237837e+00 3.799852132797241211e+00 -5.835103988647460938e-01 9.000000000000000000e+00
-3.763468265533446822e+00 5.012469291687011719e+00 -5.483839511871337891e-01 6.000000000000000000e+00
-5.665957927703857422e+00 7.551836013793945312e+00 -4.947841167449951172e-01 2.000000000000000000e+00
-1.129727554321289062e+01 1.506845664978026988e+01 -3.287335336208344061e-01 3.000000000000000000e+00
-1.393805027008057085e+00 1.864494204521178977e+00 -6.237539052963256836e-01 1.600000000000000000e+01
-1.600097298622130904e+00 2.142010211944580078e+00 -6.172657012939453125e-01 1.600000000000000000e+01
-1.859492182731627974e+00 2.490161895751953125e+00 -6.041013002395629883e-01 1.000000000000000000e+01
-2.246954202651977983e+00 3.011228561401367188e+00 -5.950766801834106445e-01 9.000000000000000000e+00
-2.833645820617675781e+00 3.800243139266968218e+00 -5.820479989051818848e-01 9.000000000000000000e+00
-3.732850790023804155e+00 5.008003711700438565e+00 -5.464665293693542480e-01 8.000000000000000000e+00
-5.639562606811523438e+00 7.571568012237548828e+00 -4.947841167449951172e-01 2.000000000000000000e+00
-1.124460792541504084e+01 1.510779953002930043e+01 -3.287335336208344061e-01 3.000000000000000000e+00
-1.386137008666991965e+00 1.867796778678894043e+00 -6.232362389564514160e-01 1.300000000000000000e+01
-1.579841732978821023e+00 2.130364418029785156e+00 -6.123167872428894043e-01 1.600000000000000000e+01
-1.856634378433227983e+00 2.504523515701293945e+00 -6.060093641281127930e-01 1.100000000000000000e+01
-2.236429214477539062e+00 3.019053459167480025e+00 -5.950766801834106445e-01 9.000000000000000000e+00
-2.818001031875609907e+00 3.806920051574707031e+00 -5.815604925155639648e-01 9.000000000000000000e+00
-3.716531991958618164e+00 5.022604465484619141e+00 -5.466408133506774902e-01 8.000000000000000000e+00
-5.589349269866943359e+00 7.559089183807373047e+00 -4.926906824111937921e-01 1.000000000000000000e+00
-1.117516708374023082e+01 1.512444210052490057e+01 -3.282448649406433105e-01 3.000000000000000000e+00
-1.381900429725646973e+00 1.875734567642211914e+00 -6.242715120315551758e-01 1.100000000000000000e+01
-1.583949089050292969e+00 2.151559352874755859e+00 -6.168158054351806641e-01 1.500000000000000000e+01
-1.847880601882935014e+00 2.510988950729370117e+00 -6.060093641281127930e-01 1.100000000000000000e+01
-2.230558395385742188e+00 3.033207178115845171e+00 -5.963281989097595215e-01 9.000000000000000000e+00
-2.807046175003052202e+00 3.819932937622069868e+00 -5.820479989051818848e-01 9.000000000000000000e+00
-3.704874753952025923e+00 5.043575763702392578e+00 -5.475123524665832520e-01 8.000000000000000000e+00
-5.586565971374511719e+00 7.610754489898681641e+00 -4.947841167449951172e-01 2.000000000000000000e+00
-1.375016212463378906e+00 1.880786895751952903e+00 -6.242715120315551758e-01 9.000000000000000000e+00
-1.571454286575316939e+00 2.151056051254272017e+00 -6.150161623954772949e-01 1.500000000000000000e+01
-1.828244328498840110e+00 2.503475666046143022e+00 -6.025748252868652344e-01 1.200000000000000000e+01
-2.214768409729003906e+00 3.034979581832886186e+00 -5.950766801834106445e-01 1.000000000000000000e+01
-2.786009073257445845e+00 3.820571899414062944e+00 -5.805855393409729004e-01 1.100000000000000000e+01
-3.673454284667969194e+00 5.039410591125488281e+00 -5.455949306488037109e-01 8.000000000000000000e+00
-5.544522285461425781e+00 7.611806869506835938e+00 -4.935280680656433105e-01 1.000000000000000000e+00
-1.102428817749023082e+01 1.514581871032715021e+01 -3.269882798194885254e-01 3.000000000000000000e+00
-1.369577407836914062e+00 1.887138605117798074e+00 -6.247891783714294434e-01 7.000000000000000000e+00
-1.573088645935059038e+00 2.169148921966553178e+00 -6.186153888702392578e-01 1.800000000000000000e+01
-1.824103713035583052e+00 2.516200304031372070e+00 -6.041013002395629883e-01 1.200000000000000000e+01
-2.205319643020629883e+00 3.044291734695435014e+00 -5.953895449638366699e-01 9.000000000000000000e+00
-2.769163846969604048e+00 3.825449705123900923e+00 -5.798543095588684082e-01 1.100000000000000000e+01
-3.651169061660767046e+00 5.045746326446533203e+00 -5.448976755142211914e-01 8.000000000000000000e+00
-5.531961917877197266e+00 7.650536060333251953e+00 -4.947841167449951172e-01 2.000000000000000000e+00
-1.097135257720947088e+01 1.518420886993408025e+01 -3.269882798194885254e-01 3.000000000000000000e+00
-1.354275822639465110e+00 1.879131913185120073e+00 -6.206480860710144043e-01 6.000000000000000000e+00
-1.561331510543823020e+00 2.168028116226195845e+00 -6.168158054351806641e-01 1.600000000000000000e+01
-1.812308549880981001e+00 2.517455339431763139e+00 -6.029564142227172852e-01 1.100000000000000000e+01
-2.184830188751221147e+00 3.037156105041503906e+00 -5.925737619400024414e-01 9.000000000000000000e+00
-2.764573574066162109e+00 3.845894575119018999e+00 -5.815604925155639648e-01 9.000000000000000000e+00
-3.639067411422729048e+00 5.064298152923583984e+00 -5.455949306488037109e-01 8.000000000000000000e+00
-5.506561279296875000e+00 7.668838500976563388e+00 -4.947841167449951172e-01 2.000000000000000000e+00
-1.092093944549561080e+01 1.522050762176514027e+01 -3.269882798194885254e-01 3.000000000000000000e+00
-1.357824444770812988e+00 1.897988438606261985e+00 -6.253067851066589355e-01 8.000000000000000000e+00
-1.544687747955322044e+00 2.160782575607299805e+00 -6.132165789604187012e-01 1.600000000000000000e+01
-1.806934356689452903e+00 2.528558015823363814e+00 -6.041013002395629883e-01 1.000000000000000000e+01
-2.181102991104125977e+00 3.054409503936768022e+00 -5.944509506225585938e-01 9.000000000000000000e+00
-2.743060827255249023e+00 3.844209909439086914e+00 -5.798543095588684082e-01 1.100000000000000000e+01
-3.624838352203369141e+00 5.081836223602294922e+00 -5.461179018020629883e-01 8.000000000000000000e+00
-5.433388710021972656e+00 7.622957229614257812e+00 -4.905972480773925781e-01 1.000000000000000000e+00
-1.080973911285400035e+01 1.517709636688232067e+01 -3.252430558204650879e-01 3.000000000000000000e+00
-1.357117056846619096e+00 1.910355210304260032e+00 -6.278949975967407227e-01 9.000000000000000000e+00
-1.538641929626465066e+00 2.167482137680054155e+00 -6.136664748191833496e-01 1.600000000000000000e+01
-1.799675583839416948e+00 2.536137342453002930e+00 -6.044828891754150391e-01 1.100000000000000000e+01
-2.170962333679199219e+00 3.061625480651855025e+00 -5.944509506225585938e-01 9.000000000000000000e+00
-2.726854801177978960e+00 3.848426103591918945e+00 -5.791231393814086914e-01 1.100000000000000000e+01
-3.609118223190308061e+00 5.095454216003417969e+00 -5.462921857833862305e-01 9.000000000000000000e+00
-5.419618606567382812e+00 7.657235622406005859e+00 -4.916439652442932129e-01 1.000000000000000000e+00
-1.344873905181884988e+00 1.907186865806580034e+00 -6.253067851066589355e-01 1.200000000000000000e+01
-1.536679029464721902e+00 2.180804729461669922e+00 -6.159160137176513672e-01 1.600000000000000000e+01
-1.781767249107361062e+00 2.529563426971435991e+00 -6.014299392700195312e-01 1.100000000000000000e+01
-2.160261869430541992e+00 3.069185018539429155e+00 -5.944509506225585938e-01 9.000000000000000000e+00
-2.712262630462646040e+00 3.856297492980957031e+00 -5.788793563842773438e-01 1.000000000000000000e+01
-3.583288192749022993e+00 5.096612453460693359e+00 -5.450720191001892090e-01 8.000000000000000000e+00
-5.381375312805175781e+00 7.659764289855957031e+00 -4.905972480773925781e-01 1.000000000000000000e+00
-1.064873313903808949e+01 1.516849136352539062e+01 -3.234978020191193182e-01 3.000000000000000000e+00
-1.333777189254760964e+00 1.905539035797118919e+00 -6.232362389564514160e-01 1.400000000000000000e+01
-1.530174136161803977e+00 2.187752246856689009e+00 -6.163659095764160156e-01 1.700000000000000000e+01
-1.775176525115967019e+00 2.538985490798950195e+00 -6.021931767463684082e-01 1.100000000000000000e+01
-2.147272586822510210e+00 3.073468446731566939e+00 -5.938252210617065430e-01 9.000000000000000000e+00
-2.693103551864624023e+00 3.857603073120117188e+00 -5.776606798171997070e-01 1.000000000000000000e+01
-3.552933454513549805e+00 5.091116905212402344e+00 -5.431545972824096680e-01 6.000000000000000000e+00
-5.324901580810546875e+00 7.635907649993895596e+00 -4.878757894039154053e-01 1.000000000000000000e+00
-1.059572029113770064e+01 1.520557022094726918e+01 -3.234978020191193182e-01 3.000000000000000000e+00
-1.328219771385193093e+00 1.911769628524780051e+00 -6.237539052963256836e-01 1.600000000000000000e+01
-1.521416783332824929e+00 2.191479444503784180e+00 -6.159160137176513672e-01 1.500000000000000000e+01
-1.769660949707031028e+00 2.550005435943603960e+00 -6.033380627632141113e-01 1.100000000000000000e+01
-2.134279727935791016e+00 3.077698469161986861e+00 -5.931994915008544922e-01 1.000000000000000000e+01
-2.686405420303345171e+00 3.876770019531250000e+00 -5.791231393814086914e-01 9.000000000000000000e+00
-3.535140514373778853e+00 5.103487968444824219e+00 -5.431545972824096680e-01 6.000000000000000000e+00
-5.307308673858642578e+00 7.667586326599121094e+00 -4.887131452560424805e-01 1.000000000000000000e+00
-1.049707794189452947e+01 1.517667770385742010e+01 -3.221016228199005127e-01 3.000000000000000000e+00
-1.325925230979918990e+00 1.922755837440490945e+00 -6.258244514465332031e-01 2.000000000000000000e+01
-1.508229136466979980e+00 2.188753604888916016e+00 -6.136664748191833496e-01 1.700000000000000000e+01
-1.754066824913024902e+00 2.546466350555419922e+00 -6.010483503341674805e-01 1.100000000000000000e+01
-2.123523712158203125e+00 3.085129737854003906e+00 -5.931994915008544922e-01 9.000000000000000000e+00
-2.670606851577758789e+00 3.882852554321289062e+00 -5.786356329917907715e-01 8.000000000000000000e+00
-3.527463674545288086e+00 5.130572795867919922e+00 -5.447233915328979492e-01 8.000000000000000000e+00
-5.280511379241943359e+00 7.686065196990966797e+00 -4.887131452560424805e-01 1.000000000000000000e+00
-1.322478890419005904e+00 1.932155013084412065e+00 -6.273773908615112305e-01 2.100000000000000000e+01
-1.499479651451111062e+00 2.192396402359008789e+00 -6.132165789604187012e-01 1.600000000000000000e+01
-1.741843223571776900e+00 2.547711610794066939e+00 -5.999034643173217773e-01 1.100000000000000000e+01
-2.110512971878052202e+00 3.089261293411254883e+00 -5.925737619400024414e-01 9.000000000000000000e+00
-2.650321483612060991e+00 3.882314205169678178e+00 -5.771732330322265625e-01 8.000000000000000000e+00
-3.500548601150513139e+00 5.129688739776611328e+00 -5.433288812637329102e-01 6.000000000000000000e+00
-5.242397785186767578e+00 7.687949657440186435e+00 -4.876664280891417902e-01 1.000000000000000000e+00
-1.035258483886718928e+01 1.519340419769286932e+01 -3.209148347377777100e-01 3.000000000000000000e+00
-1.308127284049988015e+00 1.925573706626892090e+00 -6.237539052963256836e-01 1.900000000000000000e+01
-1.495101213455199973e+00 2.202454328536986861e+00 -6.145662665367126465e-01 1.600000000000000000e+01
-1.734041810035706010e+00 2.555400609970093218e+00 -6.002851128578186035e-01 1.200000000000000000e+01
-2.097499370574951172e+00 3.093339681625366211e+00 -5.919480323791503906e-01 9.000000000000000000e+00
-2.637866973876953125e+00 3.893185377120972124e+00 -5.774169564247131348e-01 1.000000000000000000e+01
-3.477034807205200195e+00 5.133628845214843750e+00 -5.424573421478271484e-01 6.000000000000000000e+00
-5.197618484497070312e+00 7.679737567901611328e+00 -4.859916865825653076e-01 1.000000000000000000e+00
-1.031068897247313920e+01 1.524601364135742010e+01 -3.212639093399047852e-01 3.000000000000000000e+00
-1.294917821884155051e+00 1.920517563819885032e+00 -6.206480860710144043e-01 1.800000000000000000e+01
-1.488492965698241965e+00 2.209275960922241211e+00 -6.150161623954772949e-01 1.500000000000000000e+01
-1.726207971572875977e+00 2.563066482543944868e+00 -6.006667017936706543e-01 1.300000000000000000e+01
-2.088894605636597124e+00 3.103919982910155806e+00 -5.925737619400024414e-01 9.000000000000000000e+00
-2.629799842834473100e+00 3.910605669021606001e+00 -5.786356329917907715e-01 8.000000000000000000e+00
-3.454647779464722124e+00 5.139120578765869141e+00 -5.417600870132446289e-01 6.000000000000000000e+00
-5.166325092315673828e+00 7.691202163696289062e+00 -4.855729937553405762e-01 1.000000000000000000e+00
-1.024626350402832031e+01 1.526530838012694957e+01 -3.209148347377777100e-01 3.000000000000000000e+00
-1.292503714561461958e+00 1.931448101997375044e+00 -6.227186322212219238e-01 1.600000000000000000e+01
-1.480772018432616965e+00 2.214458227157593218e+00 -6.150161623954772949e-01 1.500000000000000000e+01
-1.721614718437195046e+00 2.575605154037476030e+00 -6.021931767463684082e-01 1.200000000000000000e+01
-2.073658466339110884e+00 3.104622125625609907e+00 -5.913223028182983398e-01 9.000000000000000000e+00
-2.613929271697998047e+00 3.916459321975708008e+00 -5.781481862068176270e-01 1.000000000000000000e+01
-3.432264804840087891e+00 5.144518852233886719e+00 -5.410628318786621094e-01 8.000000000000000000e+00
-5.139446258544921875e+00 7.709188938140869141e+00 -4.855729937553405762e-01 1.000000000000000000e+00
-1.016409015655517933e+01 1.525771141052245916e+01 -3.200073242187500000e-01 3.000000000000000000e+00
-1.283616185188293013e+00 1.932729482650757058e+00 -6.216833591461181641e-01 1.600000000000000000e+01
-1.462257504463196023e+00 2.203376531600952148e+00 -6.105171442031860352e-01 1.500000000000000000e+01
-1.714784264564513938e+00 2.584871053695679155e+00 -6.029564142227172852e-01 1.200000000000000000e+01
-2.064991474151610884e+00 3.115134477615356001e+00 -5.919480323791503906e-01 9.000000000000000000e+00
-2.592568874359130859e+00 3.913975238800048828e+00 -5.764420032501220703e-01 1.000000000000000000e+01
-3.423085927963256836e+00 5.169757843017578125e+00 -5.424573421478271484e-01 6.000000000000000000e+00
-5.116913318634033203e+00 7.733744621276854581e+00 -4.859916865825653076e-01 1.000000000000000000e+00
-1.011076927185058949e+01 1.529309749603270951e+01 -3.200073242187500000e-01 3.000000000000000000e+00
-1.283240914344788042e+00 1.946876287460326926e+00 -6.247891783714294434e-01 1.800000000000000000e+01
-1.457772970199584961e+00 2.213349580764770952e+00 -6.118668913841247559e-01 1.400000000000000000e+01
-1.703591704368591087e+00 2.587561607360839844e+00 -6.021931767463684082e-01 1.200000000000000000e+01
-2.049762487411499023e+00 3.115722656250000000e+00 -5.906965136528015137e-01 9.000000000000000000e+00
-2.578890800476074219e+00 3.923001050949097124e+00 -5.764420032501220703e-01 1.000000000000000000e+01
-3.409395933151245117e+00 5.188335418701171875e+00 -5.431545972824096680e-01 6.000000000000000000e+00
-5.072346210479736328e+00 7.724846839904785156e+00 -4.843169450759888250e-01 1.000000000000000000e+00
-9.987116813659667969e+00 1.522129440307617010e+01 -3.177734017372130793e-01 3.000000000000000000e+00
-1.275379657745361106e+00 1.949727058410644975e+00 -6.242715120315551758e-01 1.600000000000000000e+01
-1.454302906990051047e+00 2.224949598312377930e+00 -6.136664748191833496e-01 1.300000000000000000e+01
-1.690253615379333052e+00 2.586918354034423828e+00 -6.006667017936706543e-01 1.200000000000000000e+01
-2.041033744812012163e+00 3.126166820526123047e+00 -5.913223028182983398e-01 9.000000000000000000e+00
-2.565181255340576172e+00 3.931979179382324219e+00 -5.764420032501220703e-01 1.000000000000000000e+01
-3.376027822494506836e+00 5.176840782165527344e+00 -5.407142043113708496e-01 6.000000000000000000e+00
-5.067158699035645419e+00 7.775972366333007812e+00 -4.864103794097899836e-01 1.000000000000000000e+00
-1.259099245071410911e+00 1.939583778381348100e+00 -6.196128129959106445e-01 1.700000000000000000e+01
-1.450769543647765891e+00 2.236552000045775923e+00 -6.154660582542419434e-01 1.300000000000000000e+01
-1.679077148437500000e+00 2.589508056640625000e+00 -5.999034643173217773e-01 1.100000000000000000e+01
-2.027960777282714844e+00 3.129956722259521040e+00 -5.906965136528015137e-01 9.000000000000000000e+00
-2.553598165512084961e+00 3.944242000579833984e+00 -5.769294500350952148e-01 1.000000000000000000e+01
-3.352524042129517046e+00 5.180230617523193359e+00 -5.398426651954650879e-01 8.000000000000000000e+00
-5.031308174133300781e+00 7.780195236206054688e+00 -4.855729937553405762e-01 1.000000000000000000e+00
-9.874097824096679688e+00 1.528056812286376953e+01 -3.175639808177947998e-01 3.000000000000000000e+00
-1.259644627571105957e+00 1.955335259437561035e+00 -6.232362389564514160e-01 1.600000000000000000e+01
-1.438734531402587891e+00 2.235048294067382812e+00 -6.136664748191833496e-01 1.300000000000000000e+01
-1.670027852058411089e+00 2.595353364944458008e+00 -5.999034643173217773e-01 1.100000000000000000e+01
-2.012749433517456055e+00 3.130370378494263139e+00 -5.894450545310974121e-01 9.000000000000000000e+00
-2.544106483459473100e+00 3.959812164306641069e+00 -5.779044032096862793e-01 1.000000000000000000e+01
-3.337651252746582031e+00 5.196930885314941406e+00 -5.403655767440795898e-01 6.000000000000000000e+00
-4.969601154327392578e+00 7.743921756744384766e+00 -4.822235107421875000e-01 1.000000000000000000e+00
-9.816380500793457031e+00 1.530820941925049006e+01 -3.174243569374083918e-01 3.000000000000000000e+00
-1.258357763290405051e+00 1.967639088630676047e+00 -6.258244514465332031e-01 1.600000000000000000e+01
-1.422920107841491921e+00 2.226670265197753906e+00 -6.100672483444213867e-01 1.200000000000000000e+01
-1.667753458023071067e+00 2.610804080963135210e+00 -6.021931767463684082e-01 1.200000000000000000e+01
-2.002357721328734907e+00 3.137027502059936968e+00 -5.894450545310974121e-01 9.000000000000000000e+00
-2.516016960144042969e+00 3.944795846939086914e+00 -5.744920969009399414e-01 1.000000000000000000e+01
-3.326825857162476030e+00 5.218050003051757812e+00 -5.414114594459533691e-01 6.000000000000000000e+00
-4.939601421356201172e+00 7.753621101379395419e+00 -4.818048179149628241e-01 1.000000000000000000e+00
-9.737642288208007812e+00 1.529681777954101918e+01 -3.165168464183806818e-01 3.000000000000000000e+00
-1.248376250267029031e+00 1.967126250267029031e+00 -6.242715120315551758e-01 1.600000000000000000e+01
-1.413051724433898926e+00 2.228332042694091797e+00 -6.091674566268920898e-01 1.300000000000000000e+01
-1.658629775047302024e+00 2.616609811782836914e+00 -6.021931767463684082e-01 1.100000000000000000e+01
-1.993509292602539062e+00 3.147335529327393022e+00 -5.900707840919494629e-01 9.000000000000000000e+00
-2.502231597900391069e+00 3.953554391860961914e+00 -5.744920969009399414e-01 1.000000000000000000e+01
-3.307525873184204102e+00 5.227947235107421875e+00 -5.412371754646301270e-01 6.000000000000000000e+00
-4.893295764923095703e+00 7.740428447723388672e+00 -4.799207150936127264e-01 1.000000000000000000e+00
-9.630789756774902344e+00 1.524618339538574041e+01 -3.147715926170349121e-01 3.000000000000000000e+00
-1.238413810729980025e+00 1.966567754745482954e+00 -6.227186322212219238e-01 1.800000000000000000e+01
-1.412529826164246050e+00 2.244796514511107954e+00 -6.123167872428894043e-01 1.400000000000000000e+01
-1.641123652458190918e+00 2.609088659286499023e+00 -5.991402268409729004e-01 1.100000000000000000e+01
-1.986715555191040039e+00 3.160964965820312944e+00 -5.913223028182983398e-01 9.000000000000000000e+00
-2.492638826370238814e+00 3.968988895416260210e+00 -5.754670500755310059e-01 1.000000000000000000e+01
-3.278663396835327148e+00 5.222586631774902344e+00 -5.394940376281738281e-01 6.000000000000000000e+00
-4.874737739562988281e+00 7.770997524261474609e+00 -4.807581007480620783e-01 1.000000000000000000e+00
-9.577511787414550781e+00 1.527970790863036932e+01 -3.147715926170349121e-01 3.000000000000000000e+00
-1.225399255752563032e+00 1.961048841476439986e+00 -6.196128129959106445e-01 1.800000000000000000e+01
-1.406749606132507102e+00 2.253019571304320845e+00 -6.132165789604187012e-01 1.400000000000000000e+01
-1.632006168365478960e+00 2.614801406860352007e+00 -5.991402268409729004e-01 1.200000000000000000e+01
-1.970443010330199973e+00 3.159499883651732954e+00 -5.897579193115234375e-01 9.000000000000000000e+00
-2.480869054794311968e+00 3.981035232543944868e+00 -5.759544968605041504e-01 1.000000000000000000e+01
-3.249878883361815962e+00 5.217088222503662109e+00 -5.377509593963623047e-01 6.000000000000000000e+00
-4.839138507843017578e+00 7.774401187896729404e+00 -4.799207150936127264e-01 1.000000000000000000e+00
-9.538903236389160156e+00 1.533681964874267933e+01 -3.152602612972260077e-01 3.000000000000000000e+00
-1.218203425407409890e+00 1.965526938438415971e+00 -6.196128129959106445e-01 2.000000000000000000e+01
-1.399508476257323997e+00 2.259817123413085938e+00 -6.136664748191833496e-01 1.200000000000000000e+01
-1.630678653717041016e+00 2.634119749069213867e+00 -6.021931767463684082e-01 1.100000000000000000e+01
-1.959888815879821999e+00 3.168380737304687944e+00 -5.900707840919494629e-01 9.000000000000000000e+00
-2.467304944992064986e+00 3.991789817810059038e+00 -5.761982798576354980e-01 8.000000000000000000e+00
-3.230735301971435991e+00 5.228964805603027344e+00 -5.377509593963623047e-01 6.000000000000000000e+00
-4.802217960357666016e+00 7.778489589691162109e+00 -4.790833294391632080e-01 1.000000000000000000e+00
-9.436431884765625000e+00 1.529679393768311080e+01 -3.137244582176207941e-01 3.000000000000000000e+00
-1.214370965957642046e+00 1.974704027175903098e+00 -6.211656928062438965e-01 1.900000000000000000e+01
-1.386510491371155007e+00 2.256386995315552202e+00 -6.114169359207153320e-01 1.100000000000000000e+01
-1.615308523178101030e+00 2.629758596420288086e+00 -5.999034643173217773e-01 1.200000000000000000e+01
-1.942617297172545943e+00 3.165101289749145952e+00 -5.881935954093933105e-01 9.000000000000000000e+00
-2.450242519378662109e+00 3.995301485061645952e+00 -5.754670500755310059e-01 1.000000000000000000e+01
-3.220793724060059038e+00 5.253798961639404297e+00 -5.391454100608825684e-01 8.000000000000000000e+00
-4.766690254211425781e+00 7.781579971313476562e+00 -4.782459735870360773e-01 1.000000000000000000e+00
-9.382978439331054688e+00 1.532964038848876953e+01 -3.137244582176207941e-01 3.000000000000000000e+00
-1.211842060089111106e+00 1.985315918922424094e+00 -6.232362389564514160e-01 1.900000000000000000e+01
-1.374961495399475098e+00 2.254317522048950195e+00 -6.096173524856567383e-01 1.100000000000000000e+01
-1.603513121604918990e+00 2.630071878433227983e+00 -5.987586379051208496e-01 1.200000000000000000e+01
-1.936221599578856978e+00 3.178273677825928178e+00 -5.894450545310974121e-01 9.000000000000000000e+00
-2.428722858428955078e+00 3.989839553833007812e+00 -5.735171437263488770e-01 1.000000000000000000e+01
-3.196104049682617188e+00 5.252536296844482422e+00 -5.379252433776855469e-01 6.000000000000000000e+00
-4.732558727264404297e+00 7.783691406250000000e+00 -4.774085879325867254e-01 3.000000000000000000e+00
-9.363240242004394531e+00 1.541194152832031072e+01 -3.147715926170349121e-01 3.000000000000000000e+00
-1.201902389526366965e+00 1.984576702117919922e+00 -6.216833591461181641e-01 1.900000000000000000e+01
-1.369101881980895996e+00 2.262437820434569868e+00 -6.105171442031860352e-01 1.100000000000000000e+01
-1.593306541442871094e+00 2.633973360061645952e+00 -5.983769893646240234e-01 1.100000000000000000e+01
-1.931246519088744895e+00 3.195156335830688032e+00 -5.913223028182983398e-01 9.000000000000000000e+00
-2.409649610519409180e+00 3.989796876907349077e+00 -5.722984075546264648e-01 8.000000000000000000e+00
-3.169512033462523970e+00 5.250015735626220703e+00 -5.365307331085205078e-01 8.000000000000000000e+00
-4.711549758911132812e+00 7.810424804687500000e+00 -4.780366122722625732e-01 1.000000000000000000e+00
-1.188652276992798074e+00 1.979031920433043990e+00 -6.185775399208068848e-01 2.000000000000000000e+01
-1.365814447402954102e+00 2.275795221328734907e+00 -6.127666831016540527e-01 1.200000000000000000e+01
-1.585661768913269043e+00 2.643162488937377930e+00 -5.991402268409729004e-01 1.100000000000000000e+01
-1.913429021835326926e+00 3.192047595977783203e+00 -5.894450545310974121e-01 9.000000000000000000e+00
-2.406230211257935014e+00 4.017334938049316406e+00 -5.749795436859130859e-01 1.000000000000000000e+01
-3.148201465606689009e+00 5.258178234100341797e+00 -5.361821055412292480e-01 8.000000000000000000e+00
-4.678789615631104404e+00 7.820785522460938388e+00 -4.776179492473601740e-01 3.000000000000000000e+00
-9.201415061950683594e+00 1.539272785186767933e+01 -3.130263686180114746e-01 3.000000000000000000e+00
-1.185692548751831055e+00 1.989807248115539995e+00 -6.206480860710144043e-01 1.800000000000000000e+01
-1.354871273040771040e+00 2.275525808334351030e+00 -6.114169359207153320e-01 1.300000000000000000e+01
-1.581446290016174094e+00 2.657116651535034180e+00 -6.010483503341674805e-01 1.200000000000000000e+01
-1.898236274719238059e+00 3.191915988922119141e+00 -5.881935954093933105e-01 9.000000000000000000e+00
-2.393206596374512163e+00 4.027416229248046875e+00 -5.752233266830444336e-01 1.000000000000000000e+01
-3.132880210876464844e+00 5.274274826049804688e+00 -5.367050766944885254e-01 6.000000000000000000e+00
-4.641267776489257812e+00 7.819894313812255859e+00 -4.765712320804595947e-01 3.000000000000000000e+00
-9.110906600952148438e+00 1.536283397674561080e+01 -3.117697834968566895e-01 3.000000000000000000e+00
-3.157647705078125000e+01 5.326552200317382812e+01 1.659185409545898082e+01 2.700000000000000000e+01
-1.180070996284485085e+00 1.995391130447387917e+00 -6.211656928062438965e-01 1.900000000000000000e+01
-1.337403774261475053e+00 2.263229131698607954e+00 -6.069179177284240723e-01 1.300000000000000000e+01
-1.571627736091613992e+00 2.660655975341796875e+00 -6.006667017936706543e-01 1.200000000000000000e+01
-1.885632872581481934e+00 3.194790840148925781e+00 -5.875678658485412598e-01 9.000000000000000000e+00
-2.368745565414429155e+00 4.016521453857421875e+00 -5.725421905517578125e-01 1.000000000000000000e+01
-3.110313892364501953e+00 5.276052951812744141e+00 -5.358334779739379883e-01 8.000000000000000000e+00
-4.613283157348632812e+00 7.831800460815429688e+00 -4.763618707656859796e-01 3.000000000000000000e+00
-9.059911727905273438e+00 1.539296245574950994e+01 -3.117697834968566895e-01 3.000000000000000000e+00
-3.154660987854003906e+01 5.361969757080078125e+01 1.666950035095214844e+01 2.700000000000000000e+01
-1.171143412590027078e+00 1.996165633201598899e+00 -6.201304197311401367e-01 1.900000000000000000e+01
-1.334423184394835982e+00 2.276289463043212891e+00 -6.091674566268920898e-01 1.300000000000000000e+01
-1.559352993965148926e+00 2.661044120788574219e+00 -5.995218753814697266e-01 1.100000000000000000e+01
-1.874469518661499023e+00 3.201353549957274947e+00 -5.875678658485412598e-01 9.000000000000000000e+00
-2.356715679168701172e+00 4.028192043304443359e+00 -5.730296373367309570e-01 1.000000000000000000e+01
-3.099924564361571822e+00 5.300636768341063565e+00 -5.372279882431030273e-01 8.000000000000000000e+00
-4.587932109832763672e+00 7.851305007934570312e+00 -4.765712320804595947e-01 1.000000000000000000e+00
-8.981925964355468750e+00 1.538304901123047053e+01 -3.109320700168610174e-01 3.000000000000000000e+00
-3.126187133789062855e+01 5.356264114379882812e+01 1.661773490905762074e+01 2.700000000000000000e+01
-1.165140151977539062e+00 2.001911163330078125e+00 -6.206480860710144043e-01 1.800000000000000000e+01
-1.329408407211303933e+00 2.285987377166748047e+00 -6.105171442031860352e-01 1.100000000000000000e+01
-1.544134736061095969e+00 2.656287193298339844e+00 -5.972321629524230957e-01 1.200000000000000000e+01
-1.867251992225646973e+00 3.214709520339965820e+00 -5.888193249702453613e-01 9.000000000000000000e+00
-2.341643810272216797e+00 4.034677028656005859e+00 -5.727859139442443848e-01 1.000000000000000000e+01
-3.062406778335570845e+00 5.278681278228759766e+00 -5.339160561561584473e-01 8.000000000000000000e+00
-4.566508293151854581e+00 7.877639770507813388e+00 -4.771992564201354980e-01 1.000000000000000000e+00
-8.888083457946777344e+00 1.534509181976318004e+01 -3.095358908176422119e-01 3.000000000000000000e+00
-1.152349472045897993e+00 1.995927929878235085e+00 -6.175422668457031250e-01 2.000000000000000000e+01
-1.323368191719054954e+00 2.293989896774291992e+00 -6.114169359207153320e-01 1.300000000000000000e+01
-1.532891631126404031e+00 2.658259630203247070e+00 -5.964689254760742188e-01 1.100000000000000000e+01
-1.852074384689331055e+00 3.214361667633057085e+00 -5.875678658485412598e-01 9.000000000000000000e+00
-2.324574708938599077e+00 4.037665367126464844e+00 -5.720546841621398926e-01 1.000000000000000000e+01
-3.041974544525146040e+00 5.285884857177734375e+00 -5.335674285888671875e-01 9.000000000000000000e+00
-4.542964458465576172e+00 7.900457382202148438e+00 -4.776179492473601740e-01 1.000000000000000000e+00
-8.834465026855468750e+00 1.537602329254150035e+01 -3.095358908176422119e-01 3.000000000000000000e+00
-1.145375370979309082e+00 1.999938249588012917e+00 -6.175422668457031250e-01 1.800000000000000000e+01
-1.312448978424072044e+00 2.293521165847777876e+00 -6.100672483444213867e-01 1.300000000000000000e+01
-1.532376408576965110e+00 2.678931474685668945e+00 -5.999034643173217773e-01 1.100000000000000000e+01
-1.836922049522399902e+00 3.213946819305419922e+00 -5.863163471221923828e-01 9.000000000000000000e+00
-2.314404010772705078e+00 4.052650451660156250e+00 -5.730296373367309570e-01 1.000000000000000000e+01
-3.026468038558959961e+00 5.301662445068359375e+00 -5.340903997421264648e-01 9.000000000000000000e+00
-4.529212951660156250e+00 7.940555572509765625e+00 -4.790833294391632080e-01 1.000000000000000000e+00
-8.780738830566406250e+00 1.540676784515381037e+01 -3.095358908176422119e-01 3.000000000000000000e+00
-1.142204284667968972e+00 2.010643005371094194e+00 -6.196128129959106445e-01 1.900000000000000000e+01
-1.299625277519226074e+00 2.289614677429199219e+00 -6.078177690505981445e-01 1.300000000000000000e+01
-1.524953484535217063e+00 2.687679290771483931e+00 -6.006667017936706543e-01 1.100000000000000000e+01
-1.825692057609558105e+00 3.220339298248291016e+00 -5.863163471221923828e-01 9.000000000000000000e+00
-2.295351505279541016e+00 4.052068233489990234e+00 -5.718109607696533203e-01 8.000000000000000000e+00
-3.018742084503173828e+00 5.331265449523925781e+00 -5.360078215599060059e-01 8.000000000000000000e+00
-4.475896835327148438e+00 7.911120891571044922e+00 -4.763618707656859796e-01 1.000000000000000000e+00
-8.701319694519042969e+00 1.539206409454346058e+01 -3.086283504962921143e-01 3.000000000000000000e+00
-1.136127114295959029e+00 2.016300916671752930e+00 -6.201304197311401367e-01 1.800000000000000000e+01
-1.291625142097472922e+00 2.294137239456177202e+00 -6.078177690505981445e-01 1.400000000000000000e+01
-1.504970908164978027e+00 2.674165964126586914e+00 -5.964689254760742188e-01 1.200000000000000000e+01
-1.814439773559570090e+00 3.226692676544189009e+00 -5.863163471221923828e-01 9.000000000000000000e+00
-2.276331424713135210e+00 4.051402568817138672e+00 -5.705922842025756836e-01 1.000000000000000000e+01
-2.985479354858397993e+00 5.315712928771972656e+00 -5.333931446075439453e-01 9.000000000000000000e+00
-4.440434932708740234e+00 7.912762165069580078e+00 -4.755244851112365723e-01 1.000000000000000000e+00
-8.610374450683593750e+00 1.535606384277343928e+01 -3.073019683361052912e-01 3.000000000000000000e+00
-1.127197146415710005e+00 2.016881704330443892e+00 -6.190951466560363770e-01 1.800000000000000000e+01
-1.285509467124938965e+00 2.302034854888916016e+00 -6.087175607681274414e-01 1.200000000000000000e+01
-1.494670271873473899e+00 2.677688598632812944e+00 -5.960872769355773926e-01 1.200000000000000000e+01
-1.804127693176269975e+00 3.234731674194335938e+00 -5.866292715072631836e-01 1.000000000000000000e+01
-2.267973423004149947e+00 4.069727897644042969e+00 -5.720546841621398926e-01 1.000000000000000000e+01
-2.960118770599364790e+00 5.313918113708496094e+00 -5.321729779243469238e-01 9.000000000000000000e+00
-4.412787437438964844e+00 7.928214073181152344e+00 -4.755244851112365723e-01 1.000000000000000000e+00
-8.521730422973632812e+00 1.532311153411865057e+01 -3.060454130172728937e-01 2.000000000000000000e+00
-1.118276834487915039e+00 2.017424821853638139e+00 -6.180598735809326172e-01 1.800000000000000000e+01
-1.285963535308837891e+00 2.321850776672362837e+00 -6.127666831016540527e-01 1.300000000000000000e+01
-1.491019725799560991e+00 2.693195343017578125e+00 -5.983769893646240234e-01 1.100000000000000000e+01
-1.791869282722472922e+00 3.239280939102172852e+00 -5.863163471221923828e-01 9.000000000000000000e+00
-2.252793312072753906e+00 4.075882434844970703e+00 -5.718109607696533203e-01 1.000000000000000000e+01
-2.940588235855102983e+00 5.322474479675292969e+00 -5.319986343383789062e-01 9.000000000000000000e+00
-4.392807960510253906e+00 7.957557678222656250e+00 -4.763618707656859796e-01 1.000000000000000000e+00
-8.468190193176269531e+00 1.535276508331299006e+01 -3.060454130172728937e-01 2.000000000000000000e+00
-1.108435869216918945e+00 2.016237258911132812e+00 -6.165069937705993652e-01 1.900000000000000000e+01
-1.270345211029052956e+00 2.312661170959473100e+00 -6.091674566268920898e-01 1.200000000000000000e+01
-1.482554435729980025e+00 2.700104475021361861e+00 -5.987586379051208496e-01 1.100000000000000000e+01
-1.780551075935363992e+00 3.245516061782836914e+00 -5.863163471221923828e-01 1.000000000000000000e+01
-2.236643791198730025e+00 4.080239772796630859e+00 -5.713234543800354004e-01 1.000000000000000000e+01
-2.919119358062744141e+00 5.327464580535888672e+00 -5.314757227897644043e-01 9.000000000000000000e+00
-4.365004062652587891e+00 7.972842693328857422e+00 -4.763618707656859796e-01 1.000000000000000000e+00
-8.389595985412597656e+00 1.533661746978759943e+01 -3.051378726959229071e-01 2.000000000000000000e+00
-1.106939673423767090e+00 2.030271053314208984e+00 -6.196128129959106445e-01 1.900000000000000000e+01
-1.256671309471129927e+00 2.306813716888428178e+00 -6.064680218696594238e-01 1.300000000000000000e+01
-1.470303654670715110e+00 2.700090646743773970e+00 -5.976137518882751465e-01 1.100000000000000000e+01
-1.771099448204040971e+00 3.255182027816772017e+00 -5.869421362876892090e-01 9.000000000000000000e+00
-2.217646837234497070e+00 4.079302310943604404e+00 -5.701047778129577637e-01 1.000000000000000000e+01
-2.900505065917969194e+00 5.337621688842773438e+00 -5.314757227897644043e-01 9.000000000000000000e+00
-4.325710773468017578e+00 7.966968536376953125e+00 -4.751058220863341730e-01 1.000000000000000000e+00
-8.290239334106445312e+00 1.528143978118895951e+01 -3.034624457359313965e-01 2.000000000000000000e+00
-1.098927140235901101e+00 2.032423257827758789e+00 -6.190951466560363770e-01 1.800000000000000000e+01
-1.251390218734740989e+00 2.316329956054687944e+00 -6.078177690505981445e-01 1.200000000000000000e+01
-1.463668227195739968e+00 2.710388898849486861e+00 -5.987586379051208496e-01 1.200000000000000000e+01
-1.754097819328308105e+00 3.250913619995117188e+00 -5.850648880004882812e-01 1.000000000000000000e+01
-2.198683738708496094e+00 4.078281879425048828e+00 -5.688861012458801270e-01 8.000000000000000000e+00
-2.884691238403319868e+00 5.352975845336914062e+00 -5.319986343383789062e-01 9.000000000000000000e+00
