-3.326194381713867188e+01 1.193570423126221058e+01 -6.168378591537475586e-01 7.000000000000000000e+00
-2.315384864807128906e+00 8.345029354095458984e-01 -6.594709157943725586e-01 1.800000000000000000e+01
-2.659785747528076172e+00 9.596799015998840332e-01 -6.528079509735107422e-01 1.300000000000000000e+01
-3.154005050659180132e+00 1.138621807098388894e+00 -6.518035531044006348e-01 1.100000000000000000e+01
-3.867887735366820845e+00 1.397865653038024902e+00 -6.513931155204772949e-01 9.000000000000000000e+00
-5.002693176269531250e+00 1.809962272644042969e+00 -6.532196998596191406e-01 1.100000000000000000e+01
-6.984109878540039062e+00 2.528212547302246094e+00 -6.498332023620605469e-01 2.000000000000000000e+00
-1.187684154510498047e+01 4.304046630859375000e+00 -6.620498299598693848e-01 3.000000000000000000e+00
-3.311480712890625000e+01 1.201354694366455078e+01 -6.148831844329833984e-01 7.000000000000000000e+00
-2.321238040924071822e+00 8.466972112655639648e-01 -6.620591282844543457e-01 1.900000000000000000e+01
-6.081272888183593750e+01 2.219414138793944957e+01 1.129973530769347922e+00 4.900000000000000000e+01
-2.654250621795653853e+00 9.692171812057495117e-01 -6.523580551147460938e-01 1.400000000000000000e+01
-3.149609804153441939e+00 1.150723934173583984e+00 -6.518035531044006348e-01 1.200000000000000000e+01
-3.856926202774047852e+00 1.410671234130858931e+00 -6.504545211791992188e-01 8.000000000000000000e+00
-4.980793952941895419e+00 1.823697566986083984e+00 -6.512697935104370117e-01 1.100000000000000000e+01
-6.985575675964354581e+00 2.559123039245605025e+00 -6.508790850639343262e-01 2.000000000000000000e+00
-3.315103149414063211e+01 1.217093372344971058e+01 -6.164190173149108887e-01 7.000000000000000000e+00
-2.307392835617064986e+00 8.507846593856811523e-01 -6.589533090591430664e-01 1.900000000000000000e+01
-2.658164024353026900e+00 9.811756014823913574e-01 -6.541576385498046875e-01 1.300000000000000000e+01
-3.130840539932250977e+00 1.156269788742064986e+00 -6.487506031990051270e-01 1.100000000000000000e+01
-3.863095283508300781e+00 1.428235888481139915e+00 -6.523317098617553711e-01 8.000000000000000000e+00
-4.965089797973632812e+00 1.837627649307250977e+00 -6.500510573387145996e-01 9.000000000000000000e+00
-6.931758880615234375e+00 2.566886425018310991e+00 -6.466956138610839844e-01 2.000000000000000000e+00
-3.306335067749022727e+01 1.226988124847411932e+01 -6.155812740325927734e-01 7.000000000000000000e+00
-2.293845891952515093e+00 8.539852499961853027e-01 -6.558474898338317871e-01 2.000000000000000000e+01
-2.655068397521973100e+00 9.895216226577758789e-01 -6.541576385498046875e-01 1.200000000000000000e+01
-3.140069246292113814e+00 1.170901536941528098e+00 -6.514219045639038086e-01 1.200000000000000000e+01
-3.851186752319335938e+00 1.437601804733275923e+00 -6.510802507400512695e-01 8.000000000000000000e+00
-4.976027488708496094e+00 1.859470605850219949e+00 -6.522447466850280762e-01 4.000000000000000000e+00
-6.946054935455322266e+00 2.597023487091064009e+00 -6.487873196601867676e-01 3.000000000000000000e+00
-1.183111953735351918e+01 4.428182125091552734e+00 -6.620498299598693848e-01 3.000000000000000000e+00
-3.306958007812500000e+01 1.239053058624267933e+01 -6.164190173149108887e-01 1.400000000000000000e+01
-2.294467210769652876e+00 8.633477091789245605e-01 -6.568827629089355469e-01 1.900000000000000000e+01
-6.077022171020507812e+01 2.287834548950194957e+01 1.133429050445557085e+00 4.800000000000000000e+01
-2.658892869949340820e+00 1.001531243324280007e+00 -6.559572815895080566e-01 1.200000000000000000e+01
-3.126777410507202148e+00 1.178393483161926047e+00 -6.495138406753540039e-01 1.200000000000000000e+01
-3.831359386444091797e+00 1.445457935333251953e+00 -6.485772728919982910e-01 8.000000000000000000e+00
-4.999219417572020596e+00 1.888050556182861106e+00 -6.561445593833923340e-01 8.000000000000000000e+00
-6.903399467468261719e+00 2.608577251434326172e+00 -6.456497311592102051e-01 2.000000000000000000e+00
-1.172218608856200994e+01 4.434121608734130859e+00 -6.568162441253662109e-01 3.000000000000000000e+00
-3.306727218627929688e+01 1.252146911621093928e+01 -6.171869039535522461e-01 7.000000000000000000e+00
-2.296856641769409180e+00 8.734115958213806152e-01 -6.584356427192687988e-01 1.900000000000000000e+01
-2.629883289337158203e+00 1.001100420951843040e+00 -6.496586203575134277e-01 1.000000000000000000e+01
-3.122644901275635210e+00 1.189300775527954102e+00 -6.495138406753540039e-01 1.200000000000000000e+01
-3.833673477172852007e+00 1.461637973785399947e+00 -6.498287916183471680e-01 8.000000000000000000e+00
-4.983325481414794922e+00 1.901950478553771973e+00 -6.549258232116699219e-01 9.000000000000000000e+00
-6.920310020446777344e+00 2.642609357833861861e+00 -6.480901241302490234e-01 2.000000000000000000e+00
-1.161335754394531072e+01 4.439355373382568359e+00 -6.515826582908630371e-01 3.000000000000000000e+00
-3.302709579467772727e+01 1.263824844360351918e+01 -6.172567009925842285e-01 1.400000000000000000e+01
-2.291990518569945845e+00 8.807308673858642578e-01 -6.579180359840393066e-01 1.900000000000000000e+01
-6.079193878173828125e+01 2.337236595153808949e+01 1.136849761009216087e+00 4.700000000000000000e+01
-2.635466814041138139e+00 1.013772487640381081e+00 -6.519081592559814453e-01 9.000000000000000000e+00
-3.118474483489989790e+00 1.200193643569946067e+00 -6.495138406753540039e-01 1.100000000000000000e+01
-3.817488193511962891e+00 1.470750093460083008e+00 -6.479515433311462402e-01 8.000000000000000000e+00
-4.961839199066162109e+00 1.913619518280029075e+00 -6.529759168624877930e-01 9.000000000000000000e+00
-6.899890422821044922e+00 2.662446260452270952e+00 -6.470442414283752441e-01 2.000000000000000000e+00
-1.159778976440430043e+01 4.479866504669188565e+00 -6.515826582908630371e-01 3.000000000000000000e+00
-3.305738449096679688e+01 1.278230476379395064e+01 -6.186528801918029785e-01 1.400000000000000000e+01
-2.279897928237915039e+00 8.852298259735107422e-01 -6.553298234939575195e-01 1.900000000000000000e+01
-6.080318069458007812e+01 2.362063407897948863e+01 1.138594985008239968e+00 4.700000000000000000e+01
-2.633728265762329102e+00 1.023671746253967063e+00 -6.523580551147460938e-01 9.000000000000000000e+00
-3.106946945190430132e+00 1.208225607872009055e+00 -6.479873657226562500e-01 1.100000000000000000e+01
-3.823375940322875977e+00 1.488366246223449929e+00 -6.498287916183471680e-01 8.000000000000000000e+00
-4.955129146575927734e+00 1.930927872657776101e+00 -6.529759168624877930e-01 9.000000000000000000e+00
-6.886842250823974609e+00 2.685067653656005859e+00 -6.466956138610839844e-01 3.000000000000000000e+00
-1.158208179473876953e+01 4.520323276519775391e+00 -6.515826582908630371e-01 3.000000000000000000e+00
-3.300511550903320312e+01 1.289470767974854049e+01 -6.185132861137390137e-01 7.000000000000000000e+00
-2.271398782730102983e+00 8.910662531852722168e-01 -6.537768840789794922e-01 1.800000000000000000e+01
-6.081343078613281250e+01 2.386926269531250000e+01 1.140340209007262962e+00 4.700000000000000000e+01
-2.628325223922729048e+00 1.032146692276000977e+00 -6.519081592559814453e-01 6.000000000000000000e+00
-3.104537725448607954e+00 1.219781398773192915e+00 -6.483689546585083008e-01 1.000000000000000000e+01
-3.818157434463500977e+00 1.501703262329102007e+00 -6.498287916183471680e-01 8.000000000000000000e+00
-4.952053070068359375e+00 1.949667215347290039e+00 -6.534634232521057129e-01 9.000000000000000000e+00
-6.847767829895020419e+00 2.697407484054564986e+00 -6.439066529273986816e-01 3.000000000000000000e+00
-3.292270278930664062e+01 1.299515533447265980e+01 -6.178151965141296387e-01 1.400000000000000000e+01
-2.275458335876464844e+00 9.018366336822509766e-01 -6.558474898338317871e-01 1.800000000000000000e+01
-6.072974395751953125e+01 2.408139610290526988e+01 1.140340209007262962e+00 4.700000000000000000e+01
-2.630140542984008789e+00 1.043470859527587891e+00 -6.532578468322753906e-01 7.000000000000000000e+00
-3.105735301971435991e+00 1.232783794403075950e+00 -6.495138406753540039e-01 1.100000000000000000e+01
-3.796370267868041992e+00 1.508457183837891069e+00 -6.470129489898681641e-01 9.000000000000000000e+00
-4.935994148254395419e+00 1.963272929191588911e+00 -6.522447466850280762e-01 1.100000000000000000e+01
-6.832756519317626953e+00 2.719084024429320845e+00 -6.433836817741394043e-01 3.000000000000000000e+00
-1.155024242401123047e+01 4.601070404052734375e+00 -6.515826582908630371e-01 3.000000000000000000e+00
-3.290314483642578125e+01 1.312036705017090021e+01 -6.183038353919982910e-01 1.400000000000000000e+01
-2.268709659576416016e+00 9.083378314971923828e-01 -6.548121571540832520e-01 2.000000000000000000e+01
-6.083094406127929688e+01 2.436759567260741832e+01 1.143830776214600053e+00 4.600000000000000000e+01
-2.619246482849121094e+00 1.049745559692383035e+00 -6.514582633972167969e-01 8.000000000000000000e+00
-3.099591016769409180e+00 1.242886662483215110e+00 -6.491321921348571777e-01 1.000000000000000000e+01
-3.792914867401123047e+00 1.522435545921325906e+00 -6.473258137702941895e-01 9.000000000000000000e+00
-4.940163135528563565e+00 1.984931349754333052e+00 -6.537071466445922852e-01 1.100000000000000000e+01
-6.825072288513183594e+00 2.743661403656005859e+00 -6.435580253601074219e-01 3.000000000000000000e+00
-1.134882354736327947e+01 4.566800117492675781e+00 -6.411154866218566895e-01 3.000000000000000000e+00
-3.289424133300781250e+01 1.325008392333984020e+01 -6.190019249916076660e-01 1.400000000000000000e+01
-2.270897865295410156e+00 9.184245467185974121e-01 -6.563650965690612793e-01 1.900000000000000000e+01
-6.083819580078125000e+01 2.461729049682616832e+01 1.145576000213623047e+00 4.600000000000000000e+01
-2.611953496932982954e+00 1.057419538497925027e+00 -6.505584716796875000e-01 1.200000000000000000e+01
-3.089774608612060991e+00 1.251487612724303977e+00 -6.479873657226562500e-01 1.100000000000000000e+01
-3.785746812820435014e+00 1.534923791885375977e+00 -6.470129489898681641e-01 9.000000000000000000e+00
-4.912971019744873047e+00 1.993951916694640891e+00 -6.510260105133056641e-01 1.100000000000000000e+01
-6.811761379241943359e+00 2.765969514846802202e+00 -6.432093977928161621e-01 3.000000000000000000e+00
-1.136981868743895951e+01 4.621428489685058594e+00 -6.432089209556579590e-01 3.000000000000000000e+00
-3.284408569335938211e+01 1.336331748962401988e+01 -6.189321279525756836e-01 2.100000000000000000e+01
-2.258736133575439009e+00 9.226930737495422363e-01 -6.537768840789794922e-01 1.800000000000000000e+01
-6.084444808959960938e+01 2.486733245849609020e+01 1.147321224212646040e+00 4.600000000000000000e+01
-2.611854076385498047e+00 1.068005681037903054e+00 -6.514582633972167969e-01 1.400000000000000000e+01
-3.078119039535522017e+00 1.259291768074036089e+00 -6.464608907699584961e-01 1.100000000000000000e+01
-3.780365943908690962e+00 1.548129200935363992e+00 -6.470129489898681641e-01 9.000000000000000000e+00
-4.891286849975585938e+00 2.005065679550170898e+00 -6.490761041641235352e-01 9.000000000000000000e+00
-6.802064895629882812e+00 2.789730072021483931e+00 -6.432093977928161621e-01 3.000000000000000000e+00
-1.131666564941406072e+01 4.645917892456054688e+00 -6.411154866218566895e-01 3.000000000000000000e+00
-3.284902954101563211e+01 1.349916648864745916e+01 -6.199094653129577637e-01 1.400000000000000000e+01
-2.253715753555297852e+00 9.298350811004638672e-01 -6.532592773437500000e-01 1.900000000000000000e+01
-2.613513708114624023e+00 1.079347848892211914e+00 -6.528079509735107422e-01 1.500000000000000000e+01
-3.080962419509888139e+00 1.273027539253235085e+00 -6.479873657226562500e-01 1.200000000000000000e+01
-3.782240390777587891e+00 1.564335703849792036e+00 -6.482644081115722656e-01 9.000000000000000000e+00
-4.886092185974121094e+00 2.022886753082274947e+00 -6.493198871612548828e-01 1.100000000000000000e+01
-6.744426727294921875e+00 2.793632984161376953e+00 -6.386772990226745605e-01 2.000000000000000000e+00
-1.130037879943848012e+01 4.685392379760742188e+00 -6.411154866218566895e-01 3.000000000000000000e+00
-3.282017517089843750e+01 1.362141418457031072e+01 -6.202585101127624512e-01 2.100000000000000000e+01
-2.254022836685181108e+00 9.391824007034301758e-01 -6.542945504188537598e-01 1.900000000000000000e+01
-6.085393524169921875e+01 2.536844062805176137e+01 1.150811672210692915e+00 4.500000000000000000e+01
-2.609730243682860884e+00 1.088464140892029031e+00 -6.528079509735107422e-01 1.500000000000000000e+01
-3.074687957763671875e+00 1.283018350601196067e+00 -6.476057171821594238e-01 1.200000000000000000e+01
-3.754883766174315962e+00 1.568392395973206010e+00 -6.445099711418151855e-01 9.000000000000000000e+00
-4.873507022857666016e+00 2.037632703781127930e+00 -6.485886573791503906e-01 1.100000000000000000e+01
-6.741986274719238281e+00 2.820233821868896040e+00 -6.393745541572570801e-01 2.000000000000000000e+00
-1.128395557403563920e+01 4.724809646606445312e+00 -6.411154866218566895e-01 3.000000000000000000e+00
-3.279824829101563211e+01 1.374671649932860973e+01 -6.207472085952758789e-01 1.400000000000000000e+01
-2.258019208908081055e+00 9.496476054191589355e-01 -6.563650965690612793e-01 1.900000000000000000e+01
-2.591737747192382812e+00 1.091063380241394043e+00 -6.492087244987487793e-01 1.600000000000000000e+01
-3.068607091903686968e+00 1.292445302009582964e+00 -6.472241282463073730e-01 1.200000000000000000e+01
-3.756942987442017046e+00 1.583904981613158958e+00 -6.457614898681640625e-01 9.000000000000000000e+00
-4.868552207946777344e+00 2.054554462432860884e+00 -6.488323807716369629e-01 1.100000000000000000e+01
-6.736268043518066406e+00 2.844125509262084961e+00 -6.397231221199035645e-01 3.000000000000000000e+00
-1.126822471618651988e+01 4.762202262878417969e+00 -6.411154866218566895e-01 3.000000000000000000e+00
-3.278931427001953125e+01 1.387098598480224965e+01 -6.214452981948852539e-01 7.000000000000000000e+00
-2.258246660232543945e+00 9.590340852737426758e-01 -6.574003696441650391e-01 1.900000000000000000e+01
-6.086389541625977273e+01 2.586026763916015980e+01 1.154302120208740012e+00 4.400000000000000000e+01
-2.584326505661011186e+00 1.098578929901123047e+00 -6.483089327812194824e-01 1.500000000000000000e+01
-3.056850433349608931e+00 1.300075411796570046e+00 -6.456976532936096191e-01 1.100000000000000000e+01
-3.747756242752075195e+00 1.595461964607238992e+00 -6.451357603073120117e-01 9.000000000000000000e+00
-4.835783958435058594e+00 2.060641765594481978e+00 -6.454200148582458496e-01 1.100000000000000000e+01
-6.702472686767578125e+00 2.857464313507080078e+00 -6.374570727348327637e-01 3.000000000000000000e+00
-1.125153350830077947e+01 4.801506996154785156e+00 -6.411154866218566895e-01 3.000000000000000000e+00
-3.278483200073242188e+01 1.400420951843262074e+01 -6.222829818725585938e-01 1.400000000000000000e+01
-2.242456912994385210e+00 9.615815281867980957e-01 -6.537768840789794922e-01 1.800000000000000000e+01
-2.578685283660889116e+00 1.106824517250061035e+00 -6.478590369224548340e-01 1.400000000000000000e+01
-3.045077800750731978e+00 1.307639241218566895e+00 -6.441711783409118652e-01 1.100000000000000000e+01
-3.738534688949584961e+00 1.606974244117737038e+00 -6.445099711418151855e-01 9.000000000000000000e+00
-4.826737880706787109e+00 2.076724767684936968e+00 -6.451762914657592773e-01 1.100000000000000000e+01
-6.708928108215332031e+00 2.887932777404785156e+00 -6.390259265899658203e-01 2.000000000000000000e+00
-1.123470401763916016e+01 4.840752601623535156e+00 -6.411154866218566895e-01 3.000000000000000000e+00
-3.276145553588867188e+01 1.412965202331542969e+01 -6.227716803550720215e-01 7.000000000000000000e+00
-2.231995344161986861e+00 9.663331508636474609e-01 -6.517063379287719727e-01 1.700000000000000000e+01
-2.590898752212523970e+00 1.122792959213257058e+00 -6.519081592559814453e-01 1.500000000000000000e+01
-3.051302194595336914e+00 1.322946310043334961e+00 -6.464608907699584961e-01 1.200000000000000000e+01
-3.729278326034545898e+00 1.618441462516784890e+00 -6.438842415809631348e-01 9.000000000000000000e+00
-4.823100566864013672e+00 2.095142364501953125e+00 -6.456637978553771973e-01 1.100000000000000000e+01
-6.654951572418212891e+00 2.892274379730225053e+00 -6.348424553871154785e-01 3.000000000000000000e+00
-3.271193313598632812e+01 1.424392414093017933e+01 -6.227716803550720215e-01 7.000000000000000000e+00
-2.228608608245850053e+00 9.741184115409851074e-01 -6.517063379287719727e-01 1.800000000000000000e+01
-2.579822301864624023e+00 1.128705620765686035e+00 -6.501085758209228516e-01 1.500000000000000000e+01
-3.043068647384643999e+00 1.332014799118041992e+00 -6.456976532936096191e-01 1.100000000000000000e+01
-3.712750196456909180e+00 1.626692891120911089e+00 -6.420070528984069824e-01 9.000000000000000000e+00
-6.095154571533203125e+01 2.671780204772948863e+01 8.171339035034179688e+00 6.300000000000000000e+01
-4.823029994964599609e+00 2.115154504776000977e+00 -6.466387510299682617e-01 9.000000000000000000e+00
-6.644814968109130859e+00 2.915486812591553178e+00 -6.348424553871154785e-01 2.000000000000000000e+00
-1.108360099792479936e+01 4.867668151855468750e+00 -6.344164609909057617e-01 3.000000000000000000e+00
-3.257414245605468750e+01 1.431939697265625000e+01 -6.210962533950805664e-01 7.000000000000000000e+00
-2.234031915664672852e+00 9.857912659645080566e-01 -6.542945504188537598e-01 1.900000000000000000e+01
-6.086277008056641336e+01 2.686906051635741832e+01 1.161283135414123979e+00 4.300000000000000000e+01
-2.566953420639038086e+00 1.133767247200011985e+00 -6.478590369224548340e-01 1.400000000000000000e+01
-3.043787717819213867e+00 1.345009446144104004e+00 -6.468424797058105469e-01 1.100000000000000000e+01
-3.707049369812012163e+00 1.639642834663390891e+00 -6.420070528984069824e-01 9.000000000000000000e+00
-4.797465324401854581e+00 2.123940944671630859e+00 -6.442013382911682129e-01 9.000000000000000000e+00
-6.627310752868652344e+00 2.935436248779296875e+00 -6.341452002525329590e-01 2.000000000000000000e+00
-1.109210395812987926e+01 4.917660236358642578e+00 -6.358818411827087402e-01 3.000000000000000000e+00
-3.272136306762695312e+01 1.452061462402343928e+01 -6.248659491539001465e-01 7.000000000000000000e+00
-2.233932733535767046e+00 9.955455064773559570e-01 -6.553298234939575195e-01 1.900000000000000000e+01
-2.566340208053588867e+00 1.144755721092223899e+00 -6.487588286399841309e-01 1.400000000000000000e+01
-3.033459186553955078e+00 1.353756189346313032e+00 -6.456976532936096191e-01 1.100000000000000000e+01
-3.704622030258179155e+00 1.654830217361449973e+00 -6.426327824592590332e-01 9.000000000000000000e+00
-4.771526813507080078e+00 2.133407592773437944e+00 -6.417639851570129395e-01 1.100000000000000000e+01
-6.649244308471679688e+00 2.974350690841674805e+00 -6.372827887535095215e-01 2.000000000000000000e+00
-1.098286151885985973e+01 4.917472839355468750e+00 -6.306482553482055664e-01 3.000000000000000000e+00
-3.269347000122070312e+01 1.465189647674561080e+01 -6.253546476364135742e-01 7.000000000000000000e+00
-2.218111515045166016e+00 9.977896213531494141e-01 -6.517063379287719727e-01 1.800000000000000000e+01
-2.565882444381713867e+00 1.155307173728943093e+00 -6.496586203575134277e-01 1.400000000000000000e+01
-3.021555185317993164e+00 1.361111283302306907e+00 -6.441711783409118652e-01 1.200000000000000000e+01
-3.695221424102783203e+00 1.666127681732177956e+00 -6.420070528984069824e-01 9.000000000000000000e+00
-4.771287918090820312e+00 2.153316736221313032e+00 -6.427389383316040039e-01 1.300000000000000000e+01
-6.620662689208984375e+00 2.989343881607056108e+00 -6.355396509170532227e-01 2.000000000000000000e+00
-1.096562957763672053e+01 4.955780029296875000e+00 -6.306482553482055664e-01 3.000000000000000000e+00
-3.266034698486328125e+01 1.477417087554931996e+01 -6.257036924362182617e-01 7.000000000000000000e+00
-2.204235553741455078e+00 1.000349521636962891e+00 -6.486005187034606934e-01 1.800000000000000000e+01
-2.563811540603638139e+00 1.164615511894226074e+00 -6.501085758209228516e-01 1.600000000000000000e+01
-3.017024993896483931e+00 1.371123671531677024e+00 -6.441711783409118652e-01 1.100000000000000000e+01
-3.695070266723632812e+00 1.680826187133789062e+00 -6.429456472396850586e-01 1.000000000000000000e+01
-4.756894588470458984e+00 2.165836811065673828e+00 -6.417639851570129395e-01 9.000000000000000000e+00
-6.603460788726806641e+00 3.007978677749633789e+00 -6.348424553871154785e-01 2.000000000000000000e+00
-3.267302703857421875e+01 1.491062259674072088e+01 -6.268904209136962891e-01 7.000000000000000000e+00
-2.205999374389647993e+00 1.010451078414916992e+00 -6.501534581184387207e-01 1.900000000000000000e+01
-6.084526443481445312e+01 2.788283348083496094e+01 1.168264031410217063e+00 4.200000000000000000e+01
-2.550873517990111861e+00 1.169497013092041016e+00 -6.478590369224548340e-01 1.400000000000000000e+01
-3.017573833465576172e+00 1.384102225303649902e+00 -6.453160047531127930e-01 1.200000000000000000e+01
-3.674818754196166992e+00 1.687120556831360085e+00 -6.404427289962768555e-01 1.000000000000000000e+01
-4.756520271301270419e+00 2.185743808746337891e+00 -6.427389383316040039e-01 9.000000000000000000e+00
-6.553095340728759766e+00 3.012701511383057085e+00 -6.310075521469116211e-01 2.000000000000000000e+00
-1.086632442474365057e+01 5.000248908996582031e+00 -6.268801093101501465e-01 3.000000000000000000e+00
-2.211226463317871094e+00 1.022198438644408958e+00 -6.527416110038757324e-01 1.700000000000000000e+01
-2.541469812393188032e+00 1.175939083099365012e+00 -6.465093493461608887e-01 1.600000000000000000e+01
-3.005597591400146040e+00 1.391328215599060059e+00 -6.437895298004150391e-01 1.200000000000000000e+01
-3.663530349731444868e+00 1.697446465492248979e+00 -6.395040750503540039e-01 9.000000000000000000e+00
-4.732654094696044922e+00 2.194817304611206055e+00 -6.405452489852905273e-01 1.100000000000000000e+01
-6.567842006683349609e+00 3.047297477722167969e+00 -6.334479451179504395e-01 2.000000000000000000e+00
-1.091401672363281072e+01 5.068433284759520596e+00 -6.306482553482055664e-01 3.000000000000000000e+00
-2.204143524169921875e+00 1.028277397155761941e+00 -6.517063379287719727e-01 1.800000000000000000e+01
-2.537349462509154829e+00 1.184803366661071999e+00 -6.465093493461608887e-01 1.500000000000000000e+01
-2.998943805694580078e+00 1.400980234146117942e+00 -6.434079408645629883e-01 1.100000000000000000e+01
-3.661161661148070845e+00 1.711897611618041992e+00 -6.401298046112060547e-01 9.000000000000000000e+00
-4.721368312835693359e+00 2.209640979766846147e+00 -6.400578022003173828e-01 1.100000000000000000e+01
-6.557164669036865234e+00 3.070204973220825195e+00 -6.334479451179504395e-01 2.000000000000000000e+00
-1.089625835418700994e+01 5.106499671936035156e+00 -6.306482553482055664e-01 3.000000000000000000e+00
-2.193729400634766069e+00 1.032290697097778098e+00 -6.496357917785644531e-01 1.700000000000000000e+01
-2.535169601440430132e+00 1.194041371345520020e+00 -6.469592452049255371e-01 1.400000000000000000e+01
-2.987177848815917969e+00 1.407570004463196023e+00 -6.418814659118652344e-01 1.100000000000000000e+01
-3.659037828445435014e+00 1.725714325904845969e+00 -6.407555937767028809e-01 9.000000000000000000e+00
-4.706834316253662109e+00 2.221895933151245117e+00 -6.390828490257263184e-01 1.200000000000000000e+01
-6.525328636169433594e+00 3.081722497940063032e+00 -6.313561797142028809e-01 2.000000000000000000e+00
-1.069869613647460938e+01 5.057250499725341797e+00 -6.201810836791992188e-01 3.000000000000000000e+00
-2.186622619628905806e+00 1.038284778594970925e+00 -6.486005187034606934e-01 1.700000000000000000e+01
-2.532746315002440962e+00 1.203719973564147949e+00 -6.474091410636901855e-01 1.300000000000000000e+01
-2.989338397979735884e+00 1.421360850334167036e+00 -6.434079408645629883e-01 1.100000000000000000e+01
-3.642289638519287109e+00 1.733383059501647949e+00 -6.388783454895019531e-01 9.000000000000000000e+00
-4.699049472808837891e+00 2.238312244415283203e+00 -6.390828490257263184e-01 1.000000000000000000e+01
-6.521726131439208984e+00 3.107909679412841797e+00 -6.320534348487854004e-01 2.000000000000000000e+00
-2.184727191925048828e+00 1.046745896339416948e+00 -6.491181850433349609e-01 1.900000000000000000e+01
-6.089539718627929688e+01 2.918925476074219105e+01 1.178735494613647017e+00 4.000000000000000000e+01
-2.526772022247314009e+00 1.211710929870605025e+00 -6.469592452049255371e-01 1.400000000000000000e+01
-2.977278232574462891e+00 1.428390026092529075e+00 -6.418814659118652344e-01 1.100000000000000000e+01
-3.618409633636475053e+00 1.737535595893860085e+00 -6.357496380805969238e-01 9.000000000000000000e+00
-4.694786071777343750e+00 2.256421327590941939e+00 -6.395702958106994629e-01 1.000000000000000000e+01
-6.471334457397460938e+00 3.111661195755004883e+00 -6.282185912132263184e-01 3.000000000000000000e+00
-1.066312885284424006e+01 5.131817340850830078e+00 -6.201810836791992188e-01 3.000000000000000000e+00
-2.186277866363524947e+00 1.056887984275818093e+00 -6.506710648536682129e-01 1.900000000000000000e+01
-2.512001752853393999e+00 1.215430974960326926e+00 -6.442598104476928711e-01 1.400000000000000000e+01
-2.968739986419678178e+00 1.437063097953795943e+00 -6.411182284355163574e-01 1.200000000000000000e+01
-3.615877866744995117e+00 1.751878142356873003e+00 -6.363754272460937500e-01 1.000000000000000000e+01
-4.672591686248779297e+00 2.265866041183472124e+00 -6.376203894615173340e-01 1.000000000000000000e+01
-6.456848144531250000e+00 3.132492303848267046e+00 -6.278699636459350586e-01 3.000000000000000000e+00
-1.064515113830566051e+01 5.169007301330566406e+00 -6.201810836791992188e-01 3.000000000000000000e+00
-2.184311628341674805e+00 1.065359950065613015e+00 -6.511887311935424805e-01 1.900000000000000000e+01
-2.502490043640137163e+00 1.221627473831176980e+00 -6.429101228713989258e-01 1.500000000000000000e+01
-2.963705539703369141e+00 1.447417259216309038e+00 -6.411182284355163574e-01 1.200000000000000000e+01
-3.616839408874512163e+00 1.767959237098694070e+00 -6.376268863677978516e-01 1.000000000000000000e+01
-4.652172088623046875e+00 2.276056051254272017e+00 -6.359142065048217773e-01 9.000000000000000000e+00
-6.449453353881835938e+00 3.156763553619385210e+00 -6.282185912132263184e-01 3.000000000000000000e+00
-1.055888652801514027e+01 5.172745227813720703e+00 -6.162035465240478516e-01 3.000000000000000000e+00
-2.178846120834351030e+00 1.072125196456908958e+00 -6.506710648536682129e-01 1.900000000000000000e+01
-2.510448217391968218e+00 1.236382365226746050e+00 -6.460594534873962402e-01 1.300000000000000000e+01
-2.956873893737792969e+00 1.456885933876038042e+00 -6.407365798950195312e-01 1.200000000000000000e+01
-3.619504451751708984e+00 1.784942030906677024e+00 -6.391912102699279785e-01 1.000000000000000000e+01
-4.637078762054443359e+00 2.288766860961914062e+00 -6.349392533302307129e-01 9.000000000000000000e+00
-6.440181255340576172e+00 3.180139303207397017e+00 -6.283929347991943359e-01 3.000000000000000000e+00
-1.054792785644531072e+01 5.213110446929931641e+00 -6.166222095489501953e-01 3.000000000000000000e+00
-2.171629667282104048e+00 1.078006386756896973e+00 -6.496357917785644531e-01 1.900000000000000000e+01
-2.502626657485961914e+00 1.243403673171997070e+00 -6.451596021652221680e-01 1.300000000000000000e+01
-2.950012445449829102e+00 1.466324687004088911e+00 -6.403549909591674805e-01 1.100000000000000000e+01
-3.599102973937987837e+00 1.790526747703552024e+00 -6.366882920265197754e-01 1.000000000000000000e+01
-4.629061222076416016e+00 2.304939270019530806e+00 -6.349392533302307129e-01 9.000000000000000000e+00
-6.409424304962158203e+00 3.192828178405762163e+00 -6.264754533767700195e-01 3.000000000000000000e+00
-1.050464248657226918e+01 5.237421512603759766e+00 -6.151568293571472168e-01 3.000000000000000000e+00
-2.164398908615111861e+00 1.083850145339966042e+00 -6.486005187034606934e-01 1.800000000000000000e+01
-6.091306304931641336e+01 3.051628875732421875e+01 1.189206957817078081e+00 3.800000000000000000e+01
-2.501755475997924805e+00 1.253878235816956010e+00 -6.460594534873962402e-01 1.400000000000000000e+01
-2.943120956420897993e+00 1.475733160972594993e+00 -6.399733424186706543e-01 1.200000000000000000e+01
-3.582237720489501953e+00 1.797762751579284890e+00 -6.348110437393188477e-01 1.000000000000000000e+01
-4.628082752227783203e+00 2.324647665023804155e+00 -6.359142065048217773e-01 9.000000000000000000e+00
-6.419603347778320312e+00 3.225916862487792969e+00 -6.285672187805175781e-01 3.000000000000000000e+00
-1.046488475799561080e+01 5.263288974761962891e+00 -6.139007806777954102e-01 3.000000000000000000e+00
-2.160602331161499023e+00 1.091398715972899947e+00 -6.486005187034606934e-01 1.900000000000000000e+01
-2.479972362518310991e+00 1.253810882568358931e+00 -6.415604352951049805e-01 1.300000000000000000e+01
-2.943207502365111861e+00 1.488655924797058105e+00 -6.411182284355163574e-01 1.200000000000000000e+01
-3.568891048431396040e+00 1.806687474250793013e+00 -6.335595846176147461e-01 1.000000000000000000e+01
-4.600461483001708984e+00 2.330919504165648970e+00 -6.332331299781799316e-01 7.000000000000000000e+00
-6.390532493591308594e+00 3.239297866821289062e+00 -6.268240809440612793e-01 2.000000000000000000e+00
-1.042151260375976918e+01 5.287135124206542969e+00 -6.124353408813476562e-01 3.000000000000000000e+00
-2.158500671386719194e+00 1.099811077117919922e+00 -6.491181850433349609e-01 1.900000000000000000e+01
-2.485996723175048828e+00 1.267771840095520020e+00 -6.442598104476928711e-01 1.300000000000000000e+01
-2.934495687484741211e+00 1.497136116027832031e+00 -6.403549909591674805e-01 1.300000000000000000e+01
-3.571359157562255859e+00 1.823625802993773970e+00 -6.351239085197448730e-01 9.000000000000000000e+00
-4.595832347869873047e+00 2.348770618438721147e+00 -6.337205767631530762e-01 7.000000000000000000e+00
-6.396925926208496094e+00 3.270655155181885210e+00 -6.285672187805175781e-01 2.000000000000000000e+00
-1.036032199859618963e+01 5.301644802093505859e+00 -6.099232435226440430e-01 3.000000000000000000e+00
-2.151211977005004883e+00 1.105572819709778054e+00 -6.480829119682312012e-01 1.900000000000000000e+01
-2.485022068023682085e+00 1.278224587440490945e+00 -6.451596021652221680e-01 1.300000000000000000e+01
-2.917032003402709961e+00 1.501082181930541992e+00 -6.376836895942687988e-01 1.200000000000000000e+01
-3.561459541320800781e+00 1.834272146224976030e+00 -6.344981789588928223e-01 1.000000000000000000e+01
-4.584076881408691406e+00 2.362979650497436968e+00 -6.332331299781799316e-01 9.000000000000000000e+00
-6.374845504760742188e+00 3.287485599517821822e+00 -6.275213360786437988e-01 2.000000000000000000e+00
-1.034175300598145064e+01 5.337776660919188565e+00 -6.099232435226440430e-01 3.000000000000000000e+00
-2.135333776473999023e+00 1.106851935386657937e+00 -6.444594264030456543e-01 1.800000000000000000e+01
-2.482275009155272993e+00 1.287788629531859907e+00 -6.456094980239868164e-01 1.500000000000000000e+01
-2.915259599685668945e+00 1.513064146041869895e+00 -6.384469270706176758e-01 1.200000000000000000e+01
-3.553282022476195845e+00 1.845782160758971946e+00 -6.341853141784667969e-01 8.000000000000000000e+00
-4.563471317291259766e+00 2.372556686401367188e+00 -6.315269470214843750e-01 9.000000000000000000e+00
-6.342120170593261719e+00 3.298685550689696822e+00 -6.254296302795410156e-01 2.000000000000000000e+00
-1.032305717468262074e+01 5.373843669891357422e+00 -6.099232435226440430e-01 3.000000000000000000e+00
-2.140017271041870117e+00 1.118774056434630904e+00 -6.470476388931274414e-01 1.900000000000000000e+01
-2.472584486007689986e+00 1.293735146522521973e+00 -6.442598104476928711e-01 1.400000000000000000e+01
-2.904742240905762163e+00 1.520499587059020996e+00 -6.373020410537719727e-01 1.300000000000000000e+01
-3.515321254730225053e+00 1.841673374176024947e+00 -6.285536885261535645e-01 6.000000000000000000e+00
-6.101591873168945312e+01 3.197975540161133168e+01 8.458463668823242188e+00 6.300000000000000000e+01
-4.570984363555908203e+00 2.396768331527709961e+00 -6.337205767631530762e-01 1.000000000000000000e+01
-6.348210811614990234e+00 3.330058813095093218e+00 -6.271727085113525391e-01 2.000000000000000000e+00
-1.026886940002441051e+01 5.391276836395263672e+00 -6.078298091888427734e-01 3.000000000000000000e+00
-2.144643306732178178e+00 1.130742192268372026e+00 -6.496357917785644531e-01 1.900000000000000000e+01
-2.461159467697143999e+00 1.298720359802246094e+00 -6.424602270126342773e-01 1.300000000000000000e+01
-2.913306236267089844e+00 1.537962198257446067e+00 -6.403549909591674805e-01 1.300000000000000000e+01
-3.549042463302611861e+00 1.875157713890075906e+00 -6.357496380805969238e-01 4.000000000000000000e+00
-6.093901824951171875e+01 3.221109771728516336e+01 8.463338851928710938e+00 6.300000000000000000e+01
-4.555571079254150391e+00 2.408997535705565962e+00 -6.327456235885620117e-01 1.200000000000000000e+01
-6.317175388336181641e+00 3.341949462890625000e+00 -6.252552866935729980e-01 3.000000000000000000e+00
-1.019703388214110973e+01 5.399051666259765625e+00 -6.046896576881408691e-01 3.000000000000000000e+00
-2.140683412551879883e+00 1.138221502304076926e+00 -6.496357917785644531e-01 1.900000000000000000e+01
-2.456611156463623047e+00 1.307303547859191895e+00 -6.424602270126342773e-01 1.300000000000000000e+01
-2.894056320190430132e+00 1.540741324424744096e+00 -6.373020410537719727e-01 1.300000000000000000e+01
-3.530271768569945845e+00 1.881032347679137962e+00 -6.335595846176147461e-01 6.000000000000000000e+00
-4.540127754211425781e+00 2.421148538589477983e+00 -6.317706704139709473e-01 1.000000000000000000e+01
-6.300197601318359375e+00 3.361166715621947798e+00 -6.247323751449584961e-01 2.000000000000000000e+00
-1.020279121398925959e+01 5.447783470153808594e+00 -6.061550378799438477e-01 3.000000000000000000e+00
-2.126481771469116211e+00 1.140209555625915971e+00 -6.465299725532531738e-01 2.000000000000000000e+01
-2.452032804489136186e+00 1.315870642662047896e+00 -6.424602270126342773e-01 1.400000000000000000e+01
-2.878282070159912109e+00 1.545262217521667036e+00 -6.350123286247253418e-01 1.400000000000000000e+01
-3.535865068435668945e+00 1.899888753890990989e+00 -6.357496380805969238e-01 9.000000000000000000e+00
-4.531649112701416016e+00 2.436981678009033203e+00 -6.317706704139709473e-01 1.000000000000000000e+01
-6.281408309936523438e+00 3.379362106323242188e+00 -6.240351200103759766e-01 3.000000000000000000e+00
-2.115691423416138139e+00 1.143950104713439941e+00 -6.444594264030456543e-01 2.000000000000000000e+01
-2.454280138015747070e+00 1.328131794929503950e+00 -6.442598104476928711e-01 1.400000000000000000e+01
-2.878050088882445845e+00 1.558103919029236062e+00 -6.361572146415710449e-01 1.400000000000000000e+01
-3.520527601242064986e+00 1.907514452934264915e+00 -6.341853141784667969e-01 1.000000000000000000e+01
-4.523114681243895596e+00 2.452785253524779829e+00 -6.317706704139709473e-01 1.000000000000000000e+01
-6.252061367034912109e+00 3.391767024993896040e+00 -6.222919821739196777e-01 2.000000000000000000e+00
-1.013993740081786932e+01 5.505537033081054688e+00 -6.046896576881408691e-01 3.000000000000000000e+00
-2.118469953536986861e+00 1.155027270317078081e+00 -6.465299725532531738e-01 1.900000000000000000e+01
-6.086251831054688211e+01 3.319710540771483664e+01 1.210114955902100053e+00 3.400000000000000000e+01
-2.446208000183105025e+00 1.334823846817017046e+00 -6.433600187301635742e-01 1.400000000000000000e+01
-2.870870590209960938e+00 1.567199945449829102e+00 -6.357755661010742188e-01 1.400000000000000000e+01
-3.501713037490845171e+00 1.913161993026732954e+00 -6.319952607154846191e-01 9.000000000000000000e+00
-4.514525413513183594e+00 2.468559026718140093e+00 -6.317706704139709473e-01 1.000000000000000000e+01
-6.236687660217285156e+00 3.411657810211182085e+00 -6.219433546066284180e-01 3.000000000000000000e+00
-1.012065792083740057e+01 5.540898323059082031e+00 -6.046896576881408691e-01 3.000000000000000000e+00
-2.121196746826171875e+00 1.166137814521789995e+00 -6.486005187034606934e-01 1.900000000000000000e+01
-2.434704065322875977e+00 1.339596867561340110e+00 -6.415604352951049805e-01 1.300000000000000000e+01
-2.861942768096923828e+00 1.575318217277527078e+00 -6.350123286247253418e-01 1.700000000000000000e+01
-3.495013475418090820e+00 1.925373554229736106e+00 -6.319952607154846191e-01 9.000000000000000000e+00
-4.493712425231933594e+00 2.477593421936035156e+00 -6.300644874572753906e-01 1.000000000000000000e+01
-6.209039211273193359e+00 3.424746513366699219e+00 -6.203745603561401367e-01 3.000000000000000000e+00
-1.010125446319580078e+01 5.576192378997802734e+00 -6.046896576881408691e-01 3.000000000000000000e+00
-2.123871803283690962e+00 1.177281379699707031e+00 -6.506710648536682129e-01 1.900000000000000000e+01
-2.423197031021118164e+00 1.344305992126465066e+00 -6.397607922554016113e-01 1.400000000000000000e+01
-2.854709625244141069e+00 1.584345936775207964e+00 -6.346307396888732910e-01 1.700000000000000000e+01
-3.479636907577515093e+00 1.932765722274780051e+00 -6.304308772087097168e-01 9.000000000000000000e+00
-4.479831218719482422e+00 2.490370750427246094e+00 -6.293333172798156738e-01 1.000000000000000000e+01
-6.205753326416015625e+00 3.451241016387939009e+00 -6.212461590766906738e-01 3.000000000000000000e+00
-9.994471549987792969e+00 5.562851428985595703e+00 -5.994560718536376953e-01 3.000000000000000000e+00
-2.115102767944335938e+00 1.181122303009032981e+00 -6.491181850433349609e-01 2.100000000000000000e+01
-2.425766229629517046e+00 1.355714917182921919e+00 -6.415604352951049805e-01 1.400000000000000000e+01
-2.846291065216064009e+00 1.591390371322632058e+00 -6.338675022125244141e-01 1.400000000000000000e+01
-3.495957851409912109e+00 1.956227779388427956e+00 -6.344981789588928223e-01 9.000000000000000000e+00
-4.456397533416748047e+00 2.495702505111693892e+00 -6.271396279335021973e-01 1.200000000000000000e+01
-6.180974483489990234e+00 3.462929487228393999e+00 -6.198516488075256348e-01 3.000000000000000000e+00
-9.976945877075195312e+00 5.594222545623779297e+00 -5.994560718536376953e-01 3.000000000000000000e+00
-2.095816612243651900e+00 1.179968237876892090e+00 -6.444594264030456543e-01 1.900000000000000000e+01
-2.421019077301024947e+00 1.364174127578734907e+00 -6.415604352951049805e-01 1.300000000000000000e+01
-2.840718746185303178e+00 1.601315975189208984e+00 -6.338675022125244141e-01 1.300000000000000000e+01
-3.471903324127196822e+00 1.958712816238403098e+00 -6.313694715499877930e-01 9.000000000000000000e+00
-4.459759235382080078e+00 2.518075227737427202e+00 -6.288458108901977539e-01 1.000000000000000000e+01
-6.158440589904785156e+00 3.478604555130004883e+00 -6.188057661056518555e-01 2.000000000000000000e+00
-9.894764900207519531e+00 5.593630313873291016e+00 -5.956878662109375000e-01 3.000000000000000000e+00
-2.089797735214232954e+00 1.186687946319580078e+00 -6.439417600631713867e-01 1.900000000000000000e+01
-6.097534561157227273e+01 3.463881683349608664e+01 1.224076867103577104e+00 3.200000000000000000e+01
-2.409225940704346147e+00 1.369186997413635032e+00 -6.397607922554016113e-01 1.400000000000000000e+01
-2.841657400131226030e+00 1.615598320960998979e+00 -6.353939771652221680e-01 1.200000000000000000e+01
-3.461267232894897017e+00 1.969470977783202903e+00 -6.307437419891357422e-01 1.000000000000000000e+01
-4.450500011444091797e+00 2.534404039382935014e+00 -6.288458108901977539e-01 1.000000000000000000e+01
-6.123144149780273438e+00 3.488332033157349077e+00 -6.165397167205810547e-01 3.000000000000000000e+00
-9.874197006225585938e+00 5.629858970642089844e+00 -5.956878662109375000e-01 3.000000000000000000e+00
-2.090672492980957031e+00 1.196854829788208008e+00 -6.454946994781494141e-01 1.700000000000000000e+01
-2.401050090789794922e+00 1.375650882720947044e+00 -6.388610005378723145e-01 1.400000000000000000e+01
-2.836000442504882812e+00 1.625507712364196999e+00 -6.353939771652221680e-01 1.200000000000000000e+01
-3.452657938003540039e+00 1.980558156967163086e+00 -6.304308772087097168e-01 1.000000000000000000e+01
-4.427853584289550781e+00 2.542016983032227007e+00 -6.268959045410156250e-01 1.000000000000000000e+01
-6.123024463653563565e+00 3.516630411148070845e+00 -6.177598834037780762e-01 3.000000000000000000e+00
-9.806000709533691406e+00 5.636423110961914062e+00 -5.927570462226867676e-01 3.000000000000000000e+00
-2.088365316390991211e+00 1.204746484756469949e+00 -6.460123658180236816e-01 1.900000000000000000e+01
-2.399850368499755859e+00 1.385554194450377974e+00 -6.397607922554016113e-01 1.300000000000000000e+01
-2.825494289398192915e+00 1.631957530975342019e+00 -6.342490911483764648e-01 1.200000000000000000e+01
-3.440940618515015093e+00 1.989030838012695090e+00 -6.294922828674316406e-01 1.100000000000000000e+01
-4.402216911315917969e+00 2.546745777130126953e+00 -6.244584918022155762e-01 1.000000000000000000e+01
-6.128573417663574219e+00 3.546895742416381836e+00 -6.195030212402343750e-01 3.000000000000000000e+00
-9.759603500366210938e+00 5.652893543243408203e+00 -5.910822749137878418e-01 3.000000000000000000e+00
-2.077467441558837891e+00 1.208144187927246094e+00 -6.439417600631713867e-01 1.900000000000000000e+01
-2.398367643356322798e+00 1.395883321762084961e+00 -6.406605839729309082e-01 1.400000000000000000e+01
-2.814690828323363814e+00 1.638846874237060991e+00 -6.331042647361755371e-01 1.300000000000000000e+01
-3.440803527832030806e+00 2.005007982254027876e+00 -6.307437419891357422e-01 1.100000000000000000e+01
-4.400159358978270596e+00 2.566097021102904829e+00 -6.254334449768066406e-01 1.000000000000000000e+01
-6.081736564636229581e+00 3.548186540603638139e+00 -6.160168051719665527e-01 2.000000000000000000e+00
-9.757059097290039062e+00 5.696997165679931641e+00 -5.921289920806884766e-01 3.000000000000000000e+00
-2.073237419128417969e+00 1.215388536453247070e+00 -6.439417600631713867e-01 1.900000000000000000e+01
-2.388438224792480025e+00 1.401288270950316939e+00 -6.393108963966369629e-01 1.200000000000000000e+01
-2.800487041473389116e+00 1.643693089485168013e+00 -6.311961412429809570e-01 1.300000000000000000e+01
-3.423564195632935014e+00 2.011003494262694868e+00 -6.288665533065795898e-01 1.100000000000000000e+01
-3.605548477172852273e+01 2.118747901916503906e+01 5.134842872619628906e+00 2.700000000000000000e+01
-4.377484798431395596e+00 2.573392868041992188e+00 -6.234835386276245117e-01 1.000000000000000000e+01
-6.048705101013183594e+00 3.557273864746094194e+00 -6.139250397682189941e-01 2.000000000000000000e+00
-9.685476303100585938e+00 5.700628280639648438e+00 -5.889888405799865723e-01 3.000000000000000000e+00
-2.067319154739379883e+00 1.221635341644287109e+00 -6.434241533279418945e-01 1.900000000000000000e+01
-2.385209560394287109e+00 1.410609006881714089e+00 -6.397607922554016113e-01 1.400000000000000000e+01
-2.804870605468750000e+00 1.659456729888916016e+00 -6.334858536720275879e-01 1.200000000000000000e+01
-3.404625177383422852e+00 2.015896558761597124e+00 -6.266764402389526367e-01 1.000000000000000000e+01
-4.378722190856933594e+00 2.594729185104370117e+00 -6.249459981918334961e-01 1.000000000000000000e+01
-6.029395580291748047e+00 3.574302196502685991e+00 -6.132277846336364746e-01 2.000000000000000000e+00
-9.638034820556640625e+00 5.718096733093261719e+00 -5.873141288757324219e-01 3.000000000000000000e+00
-2.066146850585937944e+00 1.231181979179382102e+00 -6.444594264030456543e-01 1.900000000000000000e+01
-2.364959955215454102e+00 1.410358548164367898e+00 -6.357116699218750000e-01 1.200000000000000000e+01
-2.797083616256713867e+00 1.668720006942749023e+00 -6.331042647361755371e-01 1.200000000000000000e+01
-3.397213697433472124e+00 2.028361797332764116e+00 -6.266764402389526367e-01 1.000000000000000000e+01
-4.348733901977539062e+00 2.598541736602783203e+00 -6.220211386680603027e-01 1.000000000000000000e+01
-6.023095130920410156e+00 3.600466251373291016e+00 -6.139250397682189941e-01 2.000000000000000000e+00
-9.575877189636230469e+00 5.728774547576904297e+00 -5.848019719123840332e-01 3.000000000000000000e+00
-2.066804885864257812e+00 1.241370797157288042e+00 -6.460123658180236816e-01 1.900000000000000000e+01
-6.088217544555664062e+01 3.658170318603516336e+01 1.239784002304076926e+00 2.900000000000000000e+01
-2.373384237289429155e+00 1.426636934280395952e+00 -6.393108963966369629e-01 1.300000000000000000e+01
-2.787876605987548828e+00 1.676450014114380105e+00 -6.323410272598266602e-01 1.200000000000000000e+01
-3.403652906417847124e+00 2.048356533050537109e+00 -6.291794180870056152e-01 1.100000000000000000e+01
-4.336236000061035156e+00 2.611657619476317915e+00 -6.215336322784423828e-01 1.000000000000000000e+01
-3.462501907348632812e+01 2.085419082641601918e+01 6.401924133300781250e+00 1.400000000000000000e+01
-6.025849342346191406e+00 3.630722999572753906e+00 -6.154938340187072754e-01 3.000000000000000000e+00
-9.555821418762207031e+00 5.762165546417236328e+00 -5.848019719123840332e-01 3.000000000000000000e+00
-2.054196119308472124e+00 1.243575453758239968e+00 -6.434241533279418945e-01 1.900000000000000000e+01
-2.358389616012572798e+00 1.428854227066040039e+00 -6.366114616394042969e-01 1.200000000000000000e+01
-2.763539314270019975e+00 1.674977660179137962e+00 -6.281431913375854492e-01 1.100000000000000000e+01
-3.391415119171143022e+00 2.057151556015015093e+00 -6.282408237457275391e-01 1.100000000000000000e+01
-3.336626815795897727e+01 2.024715042114258168e+01 4.792146205902099609e+00 2.000000000000000000e+01
-4.323698997497558594e+00 2.624717712402344194e+00 -6.210461854934692383e-01 1.000000000000000000e+01
-5.987595081329345703e+00 3.636222124099731001e+00 -6.128791570663452148e-01 3.000000000000000000e+00
-9.498101234436035156e+00 5.772665500640869141e+00 -5.824992060661315918e-01 3.000000000000000000e+00
-2.046544551849364790e+00 1.248725891113281028e+00 -6.423888802528381348e-01 2.000000000000000000e+01
-2.363366603851317915e+00 1.443171381950377974e+00 -6.393108963966369629e-01 1.200000000000000000e+01
-2.767728090286254883e+00 1.690754771232604980e+00 -6.304329037666320801e-01 1.200000000000000000e+01
-3.382528305053710938e+00 2.067946910858153853e+00 -6.279279589653015137e-01 1.000000000000000000e+01
-4.311124324798583984e+00 2.637722253799438032e+00 -6.205586791038513184e-01 1.000000000000000000e+01
-5.968068122863770419e+00 3.652940034866333008e+00 -6.121819615364074707e-01 2.000000000000000000e+00
-9.481299400329589844e+00 5.807871818542479581e+00 -5.827085375785827637e-01 3.000000000000000000e+00
-2.042173147201538086e+00 1.255861997604369895e+00 -6.423888802528381348e-01 2.000000000000000000e+01
-2.353335857391356978e+00 1.448348045349121094e+00 -6.379612088203430176e-01 1.300000000000000000e+01
-2.763481140136719194e+00 1.701434969902039018e+00 -6.308145523071289062e-01 1.200000000000000000e+01
-3.358471632003784180e+00 2.069379091262816939e+00 -6.247992515563964844e-01 1.100000000000000000e+01
-4.318787097930908203e+00 2.663174152374268022e+00 -6.229960918426513672e-01 1.000000000000000000e+01
-5.960367679595947266e+00 3.676888227462768999e+00 -6.127048730850219727e-01 3.000000000000000000e+00
-9.426979064941406250e+00 5.819948196411132812e+00 -5.806151032447814941e-01 3.000000000000000000e+00
-2.042703151702880859e+00 1.266036033630371094e+00 -6.439417600631713867e-01 2.100000000000000000e+01
-2.338329553604125977e+00 1.450390815734863059e+00 -6.352617740631103516e-01 1.400000000000000000e+01
-2.765866279602050781e+00 1.716246604919434038e+00 -6.327226161956787109e-01 1.200000000000000000e+01
-3.354583978652954102e+00 2.083173990249633789e+00 -6.254249811172485352e-01 1.000000000000000000e+01
-4.282488346099854404e+00 2.661468029022216797e+00 -6.190962791442871094e-01 1.000000000000000000e+01
-5.939036846160888672e+00 3.692411661148070845e+00 -6.118333339691162109e-01 3.000000000000000000e+00
-9.413389205932617188e+00 5.857039451599121094e+00 -5.810337662696838379e-01 3.000000000000000000e+00
-3.388759231567382812e+01 2.109316825866698863e+01 9.215344429016113281e+00 1.200000000000000000e+01
