3.591906356811522727e+01 2.748207092285155895e+01 1.211842536926270064e+01 1.200000000000000000e+01
1.787809848785399947e+00 1.363919615745543990e+00 -6.025307178497314453e-01 1.700000000000000000e+01
2.036383152008057085e+00 1.552431821823119895e+00 -5.911713838577270508e-01 1.100000000000000000e+01
2.375055313110352007e+00 1.809962511062622070e+00 -5.804409384727478027e-01 1.200000000000000000e+01
2.819394111633300781e+00 2.147025346755981001e+00 -5.612868666648864746e-01 1.000000000000000000e+01
3.486437559127808061e+00 2.653069972991942915e+00 -5.379312634468078613e-01 9.000000000000000000e+00
4.554232120513916016e+00 3.464373350143433061e+00 -5.006225705146789551e-01 9.000000000000000000e+00
6.581147193908691406e+00 5.002608299255371094e+00 -4.332370460033416748e-01 2.000000000000000000e+00
1.078051471710205078e+01 8.188788414001464844e+00 -2.363055795431137085e-01 2.000000000000000000e+00
1.798719882965087891e+00 1.362336277961730957e+00 -6.046012639999389648e-01 1.800000000000000000e+01
2.041789531707764116e+00 1.545314073562622070e+00 -5.911713838577270508e-01 1.100000000000000000e+01
2.375096321105957031e+00 1.796922922134398970e+00 -5.789144635200500488e-01 1.200000000000000000e+01
2.833174467086791992e+00 2.141935825347899947e+00 -5.625383257865905762e-01 9.000000000000000000e+00
3.490925550460814986e+00 2.637294054031372070e+00 -5.372000932693481445e-01 7.000000000000000000e+00
4.567887306213378906e+00 3.449655532836914062e+00 -5.007969141006469727e-01 9.000000000000000000e+00
6.598569869995117188e+00 4.979605197906494141e+00 -4.332370460033416748e-01 2.000000000000000000e+00
1.077710151672362926e+01 8.127027511596679688e+00 -2.356074899435043057e-01 2.000000000000000000e+00
1.794200062751770020e+00 1.349083185195923074e+00 -6.014954447746276855e-01 1.800000000000000000e+01
2.053403139114379883e+00 1.542859911918639915e+00 -5.929709672927856445e-01 1.100000000000000000e+01
2.371935606002808061e+00 1.781546950340270996e+00 -5.766248106956481934e-01 1.000000000000000000e+01
2.843793630599976030e+00 2.134404659271239790e+00 -5.631640553474426270e-01 9.000000000000000000e+00
3.511226654052733931e+00 2.633429765701293945e+00 -5.389062166213989258e-01 9.000000000000000000e+00
4.599030494689941406e+00 3.448031663894652876e+00 -5.028886198997497559e-01 9.000000000000000000e+00
6.619108200073242188e+00 4.958936691284179688e+00 -4.334463775157927912e-01 2.000000000000000000e+00
1.076698493957520064e+01 8.060597419738769531e+00 -2.347697764635086060e-01 2.000000000000000000e+00
1.797350168228148970e+00 1.341656446456908958e+00 -6.009778380393981934e-01 1.900000000000000000e+01
2.068148612976074219e+00 1.542673707008362038e+00 -5.956704020500183105e-01 1.200000000000000000e+01
2.378139734268188032e+00 1.773256540298461914e+00 -5.766248106956481934e-01 1.000000000000000000e+01
2.844890832901000977e+00 2.119744062423706055e+00 -5.619125962257385254e-01 9.000000000000000000e+00
3.518805265426636186e+00 2.619971752166748047e+00 -5.386624932289123535e-01 7.000000000000000000e+00
4.574277877807617188e+00 3.404596567153931108e+00 -4.988794624805449884e-01 9.000000000000000000e+00
6.639583110809326172e+00 4.938185214996337891e+00 -4.336557388305664062e-01 1.000000000000000000e+00
3.146983718872069957e+01 2.339714050292969105e+01 9.053380012512207031e+00 1.200000000000000000e+01
1.082715511322020951e+01 8.046820640563964844e+00 -2.354678660631180087e-01 2.000000000000000000e+00
3.219348907470703125e+01 2.392643737792969105e+01 1.074771976470947088e+01 9.000000000000000000e+00
1.809783101081847922e+00 1.341125369071960005e+00 -6.035659909248352051e-01 1.900000000000000000e+01
2.071954727172852007e+00 1.534285426139831987e+00 -5.952205061912536621e-01 1.300000000000000000e+01
2.395360946655272993e+00 1.773120880126952903e+00 -5.792961120605468750e-01 1.100000000000000000e+01
2.858625173568726030e+00 2.114499330520629883e+00 -5.631640553474426270e-01 9.000000000000000000e+00
3.529525756835937944e+00 2.608852863311768022e+00 -5.389062166213989258e-01 9.000000000000000000e+00
4.618182659149169922e+00 3.412288665771483931e+00 -5.023657083511352539e-01 9.000000000000000000e+00
6.656780242919921875e+00 4.914978504180908203e+00 -4.336557388305664062e-01 1.000000000000000000e+00
3.150741577148437855e+01 2.325474357604980113e+01 9.040782928466796875e+00 1.200000000000000000e+01
1.085517787933349965e+01 8.008977890014648438e+00 -2.354678660631180087e-01 2.000000000000000000e+00
3.223950576782227273e+01 2.378638839721680043e+01 1.073529624938965021e+01 9.000000000000000000e+00
1.809785127639770952e+00 1.331365585327147993e+00 -6.020131111145019531e-01 1.900000000000000000e+01
2.063166618347167969e+00 1.516655564308166948e+00 -5.911713838577270508e-01 1.100000000000000000e+01
2.412610054016112837e+00 1.772886633872986062e+00 -5.819674134254455566e-01 1.200000000000000000e+01
2.858027696609497070e+00 2.098662137985229048e+00 -5.615997314453125000e-01 1.000000000000000000e+01
3.541811704635620117e+00 2.598865270614624023e+00 -5.393937230110168457e-01 9.000000000000000000e+00
4.623639583587645596e+00 3.391433715820312944e+00 -5.016684532165527344e-01 9.000000000000000000e+00
6.670674324035645419e+00 4.889350891113281250e+00 -4.334463775157927912e-01 2.000000000000000000e+00
3.152237510681151988e+01 2.309624671936035156e+01 9.021886825561523438e+00 1.200000000000000000e+01
1.090242767333984020e+01 7.985216617584229404e+00 -2.358867228031157892e-01 2.000000000000000000e+00
3.165840530395508168e+01 2.318742370605469105e+01 1.051478290557860973e+01 9.000000000000000000e+00
1.822221994400023970e+00 1.330736756324768066e+00 -6.046012639999389648e-01 1.800000000000000000e+01
2.068448066711425781e+00 1.509444594383239968e+00 -5.911713838577270508e-01 1.100000000000000000e+01
2.407681226730347124e+00 1.756355047225951926e+00 -5.792961120605468750e-01 1.200000000000000000e+01
2.871721267700194868e+00 2.093327522277832031e+00 -5.628511905670166016e-01 1.400000000000000000e+01
3.544443607330321822e+00 2.581811189651488814e+00 -5.384187698364257812e-01 1.000000000000000000e+01
4.588740825653076172e+00 3.341262817382812944e+00 -4.966134130954741877e-01 9.000000000000000000e+00
6.687700748443604404e+00 4.866035938262938565e+00 -4.334463775157927912e-01 2.000000000000000000e+00
3.166584205627441051e+01 2.303192329406737926e+01 9.039882659912109375e+00 1.200000000000000000e+01
1.093346977233887074e+01 7.949463367462158203e+00 -2.359565347433089932e-01 2.000000000000000000e+00
3.177599525451660156e+01 2.309508705139160156e+01 1.052565288543700994e+01 1.800000000000000000e+01
1.820599675178528054e+00 1.319832444190979004e+00 -6.025307178497314453e-01 2.000000000000000000e+01
2.080017089843750000e+00 1.506788015365601030e+00 -5.929709672927856445e-01 1.100000000000000000e+01
2.404256582260131836e+00 1.741031169891356978e+00 -5.770063996315002441e-01 1.100000000000000000e+01
2.875810146331787109e+00 2.080974578857421875e+00 -5.622254610061645508e-01 1.300000000000000000e+01
3.558260202407836914e+00 2.572912454605102983e+00 -5.391499996185302734e-01 1.000000000000000000e+01
4.689186573028563565e+00 3.389418363571166992e+00 -5.062005519866943359e-01 9.000000000000000000e+00
6.720836639404296875e+00 4.854356288909912109e+00 -4.344930946826934814e-01 1.000000000000000000e+00
3.184716415405273082e+01 2.299425697326660156e+01 9.068676948547363281e+00 1.200000000000000000e+01
1.096439456939697088e+01 7.913590431213378906e+00 -2.360263466835021973e-01 2.000000000000000000e+00
3.184770774841308949e+01 2.298619461059569957e+01 1.052410030364990057e+01 9.000000000000000000e+00
1.811083316802978960e+00 1.303313612937927024e+00 -5.978720188140869141e-01 1.900000000000000000e+01
2.091592550277709961e+00 1.504069209098815918e+00 -5.947706103324890137e-01 1.100000000000000000e+01
2.423072338104248047e+00 1.741795420646667036e+00 -5.800593495368957520e-01 1.300000000000000000e+01
2.883056640625000000e+00 2.070923328399658203e+00 -5.622254610061645508e-01 1.300000000000000000e+01
3.727212905883789062e+01 2.676301765441894887e+01 5.634019851684570312e+00 4.000000000000000000e+01
3.567219495773314986e+00 2.560476064682006836e+00 -5.391499996185302734e-01 1.000000000000000000e+01
3.156023216247558949e+01 2.264493370056151988e+01 6.152254581451416016e+00 1.400000000000000000e+01
4.699370384216308594e+00 3.371867895126343218e+00 -5.060262680053710938e-01 9.000000000000000000e+00
6.728001594543457031e+00 4.823884010314941406e+00 -4.338650703430175781e-01 2.000000000000000000e+00
1.100495624542235973e+01 7.884586334228515625e+00 -2.363055795431137085e-01 2.000000000000000000e+00
3.193089103698730113e+01 2.287713623046875000e+01 1.052513504028319957e+01 9.000000000000000000e+00
1.829769372940063032e+00 1.307090163230895996e+00 -6.025307178497314453e-01 2.000000000000000000e+01
2.090485572814940962e+00 1.492230176925658958e+00 -5.929709672927856445e-01 1.200000000000000000e+01
2.430735826492310014e+00 1.734467148780822976e+00 -5.804409384727478027e-01 1.200000000000000000e+01
2.891876220703125000e+00 2.061993837356566939e+00 -5.625383257865905762e-01 1.100000000000000000e+01
3.736532211303710938e+01 2.663275146484375000e+01 5.634019851684570312e+00 4.000000000000000000e+01
3.584218978881835938e+00 2.553768157958983931e+00 -5.403686761856079102e-01 1.000000000000000000e+01
3.147427368164062855e+01 2.242552566528319957e+01 6.120967864990234375e+00 1.400000000000000000e+01
4.725717067718505859e+00 3.365846157073975053e+00 -5.075950622558593750e-01 8.000000000000000000e+00
3.157038116455078125e+01 2.247739219665526988e+01 7.533139228820800781e+00 6.300000000000000000e+01
6.738290309906005859e+00 4.795737266540527344e+00 -4.334463775157927912e-01 2.000000000000000000e+00
1.104870700836181996e+01 7.857713699340820312e+00 -2.366546243429183960e-01 2.000000000000000000e+00
3.182478332519530895e+01 2.263341903686523082e+01 1.046405410766601918e+01 9.000000000000000000e+00
1.846927881240844949e+00 1.309634566307068093e+00 -6.066718697547912598e-01 1.900000000000000000e+01
2.086141586303710938e+00 1.478164076805114968e+00 -5.902715921401977539e-01 1.300000000000000000e+01
2.438377380371094194e+00 1.727106451988219993e+00 -5.808225870132446289e-01 1.200000000000000000e+01
2.897444009780883789e+00 2.050745487213135210e+00 -5.622254610061645508e-01 1.300000000000000000e+01
3.244096374511718750e+01 2.295248603820801137e+01 4.879404544830322266e+00 2.100000000000000000e+01
3.585007905960083008e+00 2.535510063171387163e+00 -5.391499996185302734e-01 1.000000000000000000e+01
3.171755409240723012e+01 2.242405319213866832e+01 6.152254581451416016e+00 1.400000000000000000e+01
4.737437248229979581e+00 3.349329710006713867e+00 -5.075950622558593750e-01 9.000000000000000000e+00
6.754989147186279297e+00 4.772186756134033203e+00 -4.334463775157927912e-01 2.000000000000000000e+00
1.108587074279784979e+01 7.826017856597900391e+00 -2.368640601634978970e-01 2.000000000000000000e+00
3.195803451538085938e+01 2.255226707458496094e+01 1.048061847686767933e+01 9.000000000000000000e+00
1.844942331314086914e+00 1.299053907394408958e+00 -6.046012639999389648e-01 1.900000000000000000e+01
2.094219446182250977e+00 1.473480820655822976e+00 -5.911713838577270508e-01 1.100000000000000000e+01
2.445697069168090820e+00 1.720140457153320090e+00 -5.812041759490966797e-01 1.200000000000000000e+01
2.912309169769287109e+00 2.046805143356322798e+00 -5.637897849082946777e-01 1.100000000000000000e+01
3.257537460327147727e+01 2.288586425781250000e+01 4.888179302215576172e+00 2.100000000000000000e+01
3.591771841049193892e+00 2.522466897964477983e+00 -5.389062166213989258e-01 9.000000000000000000e+00
4.766455650329589844e+00 3.346194028854370117e+00 -5.095124840736389160e-01 8.000000000000000000e+00
6.770777225494384766e+00 4.749760150909423828e+00 -4.334463775157927912e-01 2.000000000000000000e+00
3.143361091613769887e+01 2.204277038574219105e+01 8.863521575927734375e+00 1.200000000000000000e+01
1.112486076354979936e+01 7.798395633697509766e+00 -2.371432930231094083e-01 2.000000000000000000e+00
3.166172599792480113e+01 2.219449424743651988e+01 1.036052608489990057e+01 8.000000000000000000e+00
1.852632522583008035e+00 1.294819355010986106e+00 -6.056365370750427246e-01 1.900000000000000000e+01
2.110533714294434038e+00 1.473972201347351074e+00 -5.943207144737243652e-01 1.500000000000000000e+01
2.440418243408203125e+00 1.703726053237915039e+00 -5.785328745841979980e-01 1.100000000000000000e+01
2.925916671752930132e+00 2.041147708892821822e+00 -5.650413036346435547e-01 1.100000000000000000e+01
3.600554943084716797e+00 2.509913921356201172e+00 -5.389062166213989258e-01 1.000000000000000000e+01
3.186945343017578125e+01 2.220763969421387074e+01 6.152254581451416016e+00 1.400000000000000000e+01
4.787914752960205078e+00 3.336369991302489790e+00 -5.105583667755126953e-01 9.000000000000000000e+00
6.803706169128417969e+00 4.737509727478027344e+00 -4.344930946826934814e-01 2.000000000000000000e+00
3.026280784606933949e+01 2.106454658508301137e+01 8.512598037719726562e+00 1.100000000000000000e+01
1.112903404235840021e+01 7.743525505065917969e+00 -2.366546243429183960e-01 2.000000000000000000e+00
3.248748397827147727e+01 2.260462570190430043e+01 1.060485172271729049e+01 9.000000000000000000e+00
1.852379083633423074e+00 1.285041093826293945e+00 -6.040836572647094727e-01 1.900000000000000000e+01
2.114064455032349077e+00 1.465485930442810059e+00 -5.938707590103149414e-01 1.300000000000000000e+01
2.449577808380126953e+00 1.697433471679687944e+00 -5.792961120605468750e-01 1.200000000000000000e+01
2.929775714874268022e+00 2.028672933578491211e+00 -5.644155740737915039e-01 1.200000000000000000e+01
3.619088888168334961e+00 2.504107475280762163e+00 -5.403686761856079102e-01 9.000000000000000000e+00
4.794615745544433594e+00 3.316236734390258789e+00 -5.100353956222534180e-01 9.000000000000000000e+00
6.833345890045166016e+00 4.722815990447998047e+00 -4.353304803371428888e-01 2.000000000000000000e+00
3.038425064086914062e+01 2.099201202392578125e+01 8.526094436645507812e+00 1.100000000000000000e+01
1.117903232574463068e+01 7.720540046691895419e+00 -2.371432930231094083e-01 2.000000000000000000e+00
3.257965469360352273e+01 2.249198722839355113e+01 1.060795783996582031e+01 9.000000000000000000e+00
1.856853485107422097e+00 1.278567314147948997e+00 -6.040836572647094727e-01 1.900000000000000000e+01
2.122377872467041016e+00 1.460306763648987038e+00 -5.947706103324890137e-01 1.400000000000000000e+01
2.466811180114746094e+00 1.696660399436950906e+00 -5.819674134254455566e-01 1.200000000000000000e+01
2.927071571350098100e+00 2.011720418930054155e+00 -5.625383257865905762e-01 1.100000000000000000e+01
3.250891876220703125e+01 2.233440780639648082e+01 4.842844009399414062e+00 2.000000000000000000e+01
3.631080389022827148e+00 2.493706703186035156e+00 -5.408561229705810547e-01 1.000000000000000000e+01
4.812732696533203125e+00 3.303990840911864790e+00 -5.107326507568359375e-01 9.000000000000000000e+00
6.833320617675781250e+00 4.687636375427246094e+00 -4.342837631702423096e-01 2.000000000000000000e+00
3.046698379516601918e+01 2.089243698120116832e+01 8.528794288635253906e+00 1.100000000000000000e+01
1.118942070007324041e+01 7.670164585113525391e+00 -2.367942482233046930e-01 2.000000000000000000e+00
3.240936279296875000e+01 2.220777511596680043e+01 1.052720546722411932e+01 9.000000000000000000e+00
1.858115315437316895e+00 1.269897818565369096e+00 -6.030483841896057129e-01 1.900000000000000000e+01
2.116197586059569868e+00 1.445196270942687988e+00 -5.916212797164916992e-01 1.500000000000000000e+01
2.464611291885375977e+00 1.682504773139954057e+00 -5.800593495368957520e-01 1.100000000000000000e+01
2.940603256225585938e+00 2.005943536758422852e+00 -5.637897849082946777e-01 1.200000000000000000e+01
3.266868591308593750e+01 2.227671241760253906e+01 4.855031013488770419e+00 2.000000000000000000e+01
3.629921436309814009e+00 2.474308252334595171e+00 -5.393937230110168457e-01 1.000000000000000000e+01
4.834115505218505859e+00 3.293902397155762163e+00 -5.117785334587097168e-01 9.000000000000000000e+00
6.852943420410156250e+00 4.666003227233886719e+00 -4.344930946826934814e-01 2.000000000000000000e+00
3.063316535949707031e+01 2.084955596923828125e+01 8.554888725280761719e+00 1.100000000000000000e+01
1.123927211761474965e+01 7.646807670593261719e+00 -2.372829169034957886e-01 2.000000000000000000e+00
1.870530486106873003e+00 1.268826365470886008e+00 -6.056365370750427246e-01 1.800000000000000000e+01
2.127681732177733931e+00 1.442174077033997026e+00 -5.934208631515502930e-01 1.500000000000000000e+01
2.465593338012694868e+00 1.670587658882140891e+00 -5.789144635200500488e-01 1.200000000000000000e+01
2.950858831405640093e+00 1.997881650924683061e+00 -5.644155740737915039e-01 1.100000000000000000e+01
3.641824483871459961e+00 2.463847160339355025e+00 -5.398811697959899902e-01 1.000000000000000000e+01
3.176358604431151988e+01 2.148939895629883168e+01 6.074037551879882812e+00 1.400000000000000000e+01
4.858787059783936435e+00 3.285937309265137163e+00 -5.131729841232299805e-01 6.000000000000000000e+00
6.879117965698242188e+00 4.648763179779052734e+00 -4.351211488246917725e-01 1.000000000000000000e+00
3.076066017150878906e+01 2.077958869934082031e+01 8.570185661315917969e+00 1.100000000000000000e+01
1.125263881683349965e+01 7.598576068878173828e+00 -2.370036840438843051e-01 2.000000000000000000e+00
3.085993576049805043e+01 2.083096694946289062e+01 9.976438522338867188e+00 8.000000000000000000e+00
1.874948024749756081e+00 1.262289285659790039e+00 -6.056365370750427246e-01 1.800000000000000000e+01
2.139170408248900923e+00 1.439089298248291016e+00 -5.952205061912536621e-01 1.500000000000000000e+01
2.476297140121459961e+00 1.665257692337035911e+00 -5.800593495368957520e-01 1.100000000000000000e+01
2.956175088882445845e+00 1.986467242240905984e+00 -5.641027092933654785e-01 1.100000000000000000e+01
3.455035018920897727e+01 2.320811843872069957e+01 5.110468864440917969e+00 2.700000000000000000e+01
3.650402784347534180e+00 2.451119661331177202e+00 -5.398811697959899902e-01 9.000000000000000000e+00
4.853684902191162109e+00 3.257853269577025923e+00 -5.114299058914184570e-01 9.000000000000000000e+00
6.891985893249511719e+00 4.622497081756591797e+00 -4.349117875099182129e-01 2.000000000000000000e+00
3.224444198608397727e+01 2.161838531494140980e+01 8.962499618530273438e+00 1.200000000000000000e+01
1.129238319396973012e+01 7.568157196044921875e+00 -2.372829169034957886e-01 2.000000000000000000e+00
1.871311426162719949e+00 1.250370383262634055e+00 -6.030483841896057129e-01 1.600000000000000000e+01
3.240121459960938211e+01 2.164162063598633168e+01 6.801202893257141113e-01 3.300000000000000000e+01
2.142560243606566939e+00 1.430531382560729980e+00 -5.947706103324890137e-01 1.100000000000000000e+01
2.477196216583251953e+00 1.653334021568297896e+00 -5.789144635200500488e-01 1.200000000000000000e+01
2.963091373443603960e+00 1.976136207580565962e+00 -5.641027092933654785e-01 1.000000000000000000e+01
3.663892269134521040e+00 2.441664934158325195e+00 -5.406123995780944824e-01 1.000000000000000000e+01
3.189311027526855113e+01 2.125397872924805043e+01 6.070282936096191406e+00 1.400000000000000000e+01
4.870001792907714844e+00 3.244204521179199219e+00 -5.119528174400329590e-01 9.000000000000000000e+00
6.898103713989257812e+00 4.591771125793457031e+00 -4.342837631702423096e-01 3.000000000000000000e+00
3.209906005859375000e+01 2.135888099670410156e+01 8.901312828063964844e+00 1.200000000000000000e+01
1.131873226165770951e+01 7.528693199157714844e+00 -2.372829169034957886e-01 2.000000000000000000e+00
3.283853530883789062e+01 2.183439826965332031e+01 1.056654644012450994e+01 9.000000000000000000e+00
1.877274751663208008e+00 1.244898319244384988e+00 -6.035659909248352051e-01 1.700000000000000000e+01
3.247655868530272727e+01 2.152838706970214844e+01 6.801202893257141113e-01 3.300000000000000000e+01
2.137793779373168945e+00 1.416585087776184082e+00 -5.920711755752563477e-01 1.100000000000000000e+01
2.491136074066162109e+00 1.650097727775573953e+00 -5.808225870132446289e-01 1.200000000000000000e+01
2.965029478073120117e+00 1.962510228157043013e+00 -5.631640553474426270e-01 1.000000000000000000e+01
3.682327270507812944e+00 2.435431241989136186e+00 -5.420748591423034668e-01 1.000000000000000000e+01
4.892930507659912109e+00 3.234877109527587891e+00 -5.131729841232299805e-01 9.000000000000000000e+00
6.920755863189697266e+00 4.572068214416503906e+00 -4.347024559974669855e-01 2.000000000000000000e+00
3.223196411132813211e+01 2.128536415100098012e+01 8.917510032653808594e+00 1.200000000000000000e+01
1.138165760040283025e+01 7.513374328613281250e+00 -2.380508184432983121e-01 2.000000000000000000e+00
3.295590209960938211e+01 2.175518226623535156e+01 1.058104038238525035e+01 9.000000000000000000e+00
1.886449933052062988e+00 1.241523981094359907e+00 -6.051189303398132324e-01 1.900000000000000000e+01
3.255150985717772727e+01 2.141489028930664062e+01 6.801202893257141113e-01 3.300000000000000000e+01
2.145982027053833008e+00 1.411255717277527078e+00 -5.929709672927856445e-01 1.100000000000000000e+01
2.498521327972412109e+00 1.642470479011536089e+00 -5.812041759490966797e-01 1.300000000000000000e+01
2.973512887954711914e+00 1.953232884407043013e+00 -5.634769201278686523e-01 1.100000000000000000e+01
3.510012435913085938e+01 2.304770278930664062e+01 5.155804634094238281e+00 2.800000000000000000e+01
3.692465543746947798e+00 2.423651933670043945e+00 -5.423185825347900391e-01 9.000000000000000000e+00
4.904192447662354404e+00 3.217777729034423828e+00 -5.131729841232299805e-01 6.000000000000000000e+00
6.923311233520507812e+00 4.539121627807617188e+00 -4.338650703430175781e-01 2.000000000000000000e+00
3.243319702148438211e+01 2.125604438781737926e+01 8.952602386474609375e+00 1.200000000000000000e+01
1.142119693756104049e+01 7.482365608215332031e+00 -2.383300662040709894e-01 2.000000000000000000e+00
3.320672988891602273e+01 2.174643325805664062e+01 1.063591003417968928e+01 9.000000000000000000e+00
1.895624518394469993e+00 1.238100647926331010e+00 -6.066718697547912598e-01 1.800000000000000000e+01
2.154159069061278853e+00 1.405886411666869895e+00 -5.938707590103149414e-01 1.000000000000000000e+01
2.509172201156616211e+00 1.636957168579102007e+00 -5.823490619659423828e-01 1.300000000000000000e+01
2.973693609237670898e+00 1.938526511192321999e+00 -5.622254610061645508e-01 1.000000000000000000e+01
3.689260005950928178e+00 2.403163671493529829e+00 -5.406123995780944824e-01 1.000000000000000000e+01
3.304414367675781250e+01 2.152477264404296875e+01 6.246115207672119141e+00 1.400000000000000000e+01
4.923742771148681641e+00 3.206075191497803178e+00 -5.140445828437805176e-01 9.000000000000000000e+00
6.975943565368652344e+00 4.538890361785888672e+00 -4.361678659915924072e-01 2.000000000000000000e+00
3.264768981933593750e+01 2.123407554626464844e+01 8.991293907165527344e+00 1.200000000000000000e+01
1.143383312225341975e+01 7.433732509613037109e+00 -2.380508184432983121e-01 2.000000000000000000e+00
3.257897949218750000e+01 2.118129539489746094e+01 1.041229057312012074e+01 8.000000000000000000e+00
1.898313641548156960e+00 1.230425357818603960e+00 -6.061542034149169922e-01 1.900000000000000000e+01
2.165596008300780806e+00 1.402595877647399902e+00 -5.956704020500183105e-01 1.200000000000000000e+01
2.503334760665893999e+00 1.620719790458678977e+00 -5.796777009963989258e-01 1.300000000000000000e+01
2.998686313629149947e+00 1.939937233924865945e+00 -5.656670331954956055e-01 9.000000000000000000e+00
3.695958852767943892e+00 2.389193296432495117e+00 -5.403686761856079102e-01 9.000000000000000000e+00
3.307635879516602273e+01 2.137349700927734020e+01 6.237354755401611328e+00 1.400000000000000000e+01
4.926537036895751953e+00 3.183461904525756836e+00 -5.131729841232299805e-01 9.000000000000000000e+00
3.094760131835937855e+01 1.999026679992676137e+01 7.161443233489990234e+00 6.100000000000000000e+01
6.981677055358886719e+00 4.508011817932128906e+00 -4.355398416519165039e-01 2.000000000000000000e+00
3.075683975219726918e+01 1.985183525085448863e+01 8.451411247253417969e+00 1.100000000000000000e+01
1.145971202850341975e+01 7.393775939941406250e+00 -2.380508184432983121e-01 2.000000000000000000e+00
3.262392425537108664e+01 2.104080390930176137e+01 1.040193748474120916e+01 8.000000000000000000e+00
1.900545358657836914e+00 1.223409891128540039e+00 -6.056365370750427246e-01 1.900000000000000000e+01
3.226213073730468750e+01 2.075966072082519887e+01 6.696488261222839355e-01 3.200000000000000000e+01
2.166713714599608931e+00 1.393677115440369096e+00 -5.947706103324890137e-01 1.100000000000000000e+01
2.510065555572510210e+00 1.613909125328063965e+00 -5.800593495368957520e-01 1.300000000000000000e+01
3.006428003311156782e+00 1.931574821472167969e+00 -5.659798979759216309e-01 8.000000000000000000e+00
3.713469505310059038e+00 2.384005069732666016e+00 -5.418310761451721191e-01 9.000000000000000000e+00
4.936513900756835938e+00 3.167968988418579102e+00 -5.131729841232299805e-01 9.000000000000000000e+00
3.113253211975098012e+01 1.997138786315917969e+01 7.189682960510253906e+00 6.100000000000000000e+01
6.995805263519287109e+00 4.486056327819824219e+00 -4.355398416519165039e-01 2.000000000000000000e+00
3.075999259948730113e+01 1.971725273132323863e+01 8.435214996337890625e+00 1.100000000000000000e+01
1.148288440704346058e+01 7.357737541198729581e+00 -2.380508184432983121e-01 2.000000000000000000e+00
3.385409545898438211e+01 2.169224739074707031e+01 1.077360153198242010e+01 9.000000000000000000e+00
1.899920105934143066e+00 1.213648438453674094e+00 -6.040836572647094727e-01 1.900000000000000000e+01
2.171565294265747070e+00 1.386105298995971902e+00 -5.947706103324890137e-01 1.100000000000000000e+01
2.522304058074951172e+00 1.609361529350280984e+00 -5.815858244895935059e-01 1.600000000000000000e+01
2.991498708724976030e+00 1.907263278961182085e+00 -5.619125962257385254e-01 8.000000000000000000e+00
3.601996612548828125e+01 2.295608901977539062e+01 5.244525432586669922e+00 3.000000000000000000e+01
3.728465318679810014e+00 2.375294446945189986e+00 -5.428060293197631836e-01 1.000000000000000000e+01
3.143121528625487926e+01 2.001618194580078125e+01 5.901959419250488281e+00 1.300000000000000000e+01
4.940819740295410156e+00 3.146437168121337891e+00 -5.124757885932922363e-01 9.000000000000000000e+00
7.011421680450438565e+00 4.461608886718750000e+00 -4.355398416519165039e-01 2.000000000000000000e+00
3.098977088928223012e+01 1.971225929260253906e+01 8.479305267333984375e+00 1.100000000000000000e+01
1.155237102508544922e+01 7.345507144927979404e+00 -2.389583438634871881e-01 2.000000000000000000e+00
3.269101333618164062e+01 2.077837753295898082e+01 1.037916088104248047e+01 8.000000000000000000e+00
1.909039974212646040e+00 1.210111856460571067e+00 -6.056365370750427246e-01 1.800000000000000000e+01
2.163220167160034180e+00 1.370174765586853027e+00 -5.911713838577270508e-01 1.000000000000000000e+01
2.529565095901488814e+00 1.601597428321837935e+00 -5.819674134254455566e-01 1.400000000000000000e+01
2.991460800170897993e+00 1.892584919929503950e+00 -5.606611371040344238e-01 7.000000000000000000e+00
3.593210601806641336e+01 2.272411346435546875e+01 5.220151424407958984e+00 3.000000000000000000e+01
3.728344440460205078e+00 2.356961488723754883e+00 -5.415873527526855469e-01 1.000000000000000000e+01
4.958509922027587891e+00 3.133428812026977983e+00 -5.131729841232299805e-01 9.000000000000000000e+00
7.016820430755615234e+00 4.430709362030029297e+00 -4.349117875099182129e-01 2.000000000000000000e+00
3.103861427307128906e+01 1.959148216247558949e+01 8.473906517028808594e+00 1.100000000000000000e+01
1.155764770507813033e+01 7.292332172393798828e+00 -2.385394871234894076e-01 2.000000000000000000e+00
3.237415695190429688e+01 2.042657089233398082e+01 1.025699901580811080e+01 8.000000000000000000e+00
1.921428680419922097e+00 1.208583712577820046e+00 -6.082247495651245117e-01 1.900000000000000000e+01
3.281632614135742188e+01 2.063356208801269887e+01 6.766297817230224609e-01 3.200000000000000000e+01
2.176239490509033203e+00 1.367800354957581010e+00 -5.934208631515502930e-01 1.200000000000000000e+01
2.528490781784058061e+00 1.588580131530761941e+00 -5.804409384727478027e-01 1.300000000000000000e+01
3.011433124542235884e+00 1.890533566474914995e+00 -5.631640553474426270e-01 9.000000000000000000e+00
3.148815917968750000e+01 1.976014518737792969e+01 4.564494609832763672e+00 1.900000000000000000e+01
3.734867334365845171e+00 2.342877864837646040e+00 -5.413436293601989746e-01 9.000000000000000000e+00
4.972793579101563388e+00 3.118218183517456055e+00 -5.135216116905212402e-01 4.000000000000000000e+00
7.032243728637695312e+00 4.406188964843750000e+00 -4.349117875099182129e-01 2.000000000000000000e+00
3.105066108703612926e+01 1.944784736633301137e+01 8.458609580993652344e+00 1.100000000000000000e+01
1.160337066650390980e+01 7.264678001403808594e+00 -2.389583438634871881e-01 2.000000000000000000e+00
3.259946441650391336e+01 2.040206527709960938e+01 1.030462169647216975e+01 8.000000000000000000e+00
1.925425887107848899e+00 1.202205300331115945e+00 -6.082247495651245117e-01 1.900000000000000000e+01
2.179109811782836914e+00 1.359544634819030984e+00 -5.929709672927856445e-01 1.100000000000000000e+01
2.537076473236083984e+00 1.582264423370361106e+00 -5.812041759490966797e-01 1.500000000000000000e+01
3.031097650527954102e+00 1.888894796371459961e+00 -5.656670331954956055e-01 1.400000000000000000e+01
3.164786911010741832e+01 1.971439361572265980e+01 4.578143596649169922e+00 1.900000000000000000e+01
3.745986223220825195e+00 2.332578420639038086e+00 -5.418310761451721191e-01 1.000000000000000000e+01
4.962808609008789062e+00 3.089076280593872070e+00 -5.114299058914184570e-01 9.000000000000000000e+00
3.090485382080078125e+01 1.922909355163573863e+01 7.075197696685791016e+00 6.100000000000000000e+01
7.077344417572020596e+00 4.401832103729248047e+00 -4.367958903312683105e-01 2.000000000000000000e+00
3.112822151184082031e+01 1.935300445556640980e+01 8.462208747863769531e+00 1.100000000000000000e+01
1.166815948486327947e+01 7.251492500305175781e+00 -2.397960573434829989e-01 2.000000000000000000e+00
3.280778884887695312e+01 2.038928604125976918e+01 1.035017395019531072e+01 8.000000000000000000e+00
1.914830684661865012e+00 1.186320185661315918e+00 -6.035659909248352051e-01 2.000000000000000000e+01
2.197097778320312944e+00 1.360135793685913086e+00 -5.965701937675476074e-01 1.100000000000000000e+01
2.544253587722777876e+00 1.574431896209717019e+00 -5.815858244895935059e-01 1.300000000000000000e+01
3.039352893829346147e+00 1.879341721534729004e+00 -5.659798979759216309e-01 1.300000000000000000e+01
3.165232658386230113e+01 1.956414222717285156e+01 4.568881511688232422e+00 1.900000000000000000e+01
3.767615795135498047e+00 2.327835321426392046e+00 -5.437809824943542480e-01 1.000000000000000000e+01
4.982037067413330078e+00 3.076968908309936968e+00 -5.123014450073242188e-01 8.000000000000000000e+00
7.068871021270751953e+00 4.362415790557861328e+00 -4.353304803371428888e-01 2.000000000000000000e+00
3.132163619995116832e+01 1.932198715209960938e+01 8.496401786804199219e+00 1.100000000000000000e+01
1.167978382110596058e+01 7.202322483062744141e+00 -2.395168244838714877e-01 2.000000000000000000e+00
3.267486190795897727e+01 2.014890670776366832e+01 1.028598690032958984e+01 8.000000000000000000e+00
1.927602291107177956e+00 1.184014558792114036e+00 -6.061542034149169922e-01 2.100000000000000000e+01
2.203964948654174805e+00 1.352708816528320090e+00 -5.970200896263122559e-01 1.200000000000000000e+01
2.555300474166870117e+00 1.567731142044066939e+00 -5.827306509017944336e-01 1.300000000000000000e+01
3.039810180664062944e+00 1.863527894020081010e+00 -5.647284388542175293e-01 1.300000000000000000e+01
3.197094345092773082e+01 1.959181976318359020e+01 4.603980064392089844e+00 1.900000000000000000e+01
3.788375377655028853e+00 2.320610046386719194e+00 -5.454871654510498047e-01 1.000000000000000000e+01
3.144222640991210938e+01 1.925272750854491832e+01 5.839385509490966797e+00 1.300000000000000000e+01
4.992115974426270419e+00 3.056776046752930132e+00 -5.121271610260009766e-01 8.000000000000000000e+00
3.271946334838867188e+01 2.002695655822753906e+01 7.456815719604492188e+00 6.200000000000000000e+01
7.116235733032226562e+00 4.354003906250000000e+00 -4.372145831584929865e-01 2.000000000000000000e+00
1.175512409210205078e+01 7.186627864837645596e+00 -2.404941618442535123e-01 2.000000000000000000e+00
3.158833694458008168e+01 1.931188583374023082e+01 9.920534133911132812e+00 7.000000000000000000e+00
1.941621303558350053e+00 1.183310985565185991e+00 -6.092600226402282715e-01 2.100000000000000000e+01
2.192029237747191939e+00 1.334871649742126021e+00 -5.925210714340209961e-01 1.200000000000000000e+01
2.564111232757567915e+00 1.560843467712401900e+00 -5.834938883781433105e-01 1.300000000000000000e+01
3.049671888351439986e+00 1.854958653450011985e+00 -5.653541684150695801e-01 1.200000000000000000e+01
3.412543869018554688e+01 2.074859237670898082e+01 4.903778553009033203e+00 2.100000000000000000e+01
3.784578323364257812e+00 2.300155162811278853e+00 -5.437809824943542480e-01 1.000000000000000000e+01
5.018080711364746094e+00 3.048642158508300781e+00 -5.136959552764892578e-01 9.000000000000000000e+00
7.117732048034667969e+00 4.320845603942871094e+00 -4.363771975040435791e-01 2.000000000000000000e+00
3.179562950134276988e+01 1.929406166076660156e+01 8.586381912231445312e+00 1.100000000000000000e+01
1.176304149627686080e+01 7.135179996490479404e+00 -2.401451170444489081e-01 2.000000000000000000e+00
3.702101516723632812e+01 2.244722557067871094e+01 1.160078716278075994e+01 1.100000000000000000e+01
1.946982026100158913e+00 1.178205490112304910e+00 -6.097776889801025391e-01 2.000000000000000000e+01
2.197879791259766069e+00 1.328986883163451926e+00 -5.929709672927856445e-01 1.100000000000000000e+01
2.563961505889893022e+00 1.549733757972717063e+00 -5.823490619659423828e-01 1.300000000000000000e+01
3.065629959106444868e+00 1.851496100425719993e+00 -5.672313570976257324e-01 1.000000000000000000e+01
3.410548400878906250e+01 2.058998298645019887e+01 4.891591548919677734e+00 2.100000000000000000e+01
3.783287763595581055e+00 2.283125877380371094e+00 -5.425623059272766113e-01 1.000000000000000000e+01
3.156922340393066051e+01 1.904377365112305043e+01 5.839385509490966797e+00 1.300000000000000000e+01
5.013985157012938565e+00 3.024629354476929155e+00 -5.123014450073242188e-01 9.000000000000000000e+00
7.144955635070800781e+00 4.306711673736572266e+00 -4.372145831584929865e-01 2.000000000000000000e+00
3.186610221862792969e+01 1.920011329650878906e+01 8.589080810546875000e+00 1.100000000000000000e+01
1.179567718505859020e+01 7.104380130767822266e+00 -2.403545379638671875e-01 2.000000000000000000e+00
3.353277587890625000e+01 2.019634819030762074e+01 1.048890018463134943e+01 9.000000000000000000e+00
1.942801475524901900e+00 1.166430115699768066e+00 -6.071894764900207520e-01 2.100000000000000000e+01
2.209189653396606001e+00 1.325316905975342019e+00 -5.947706103324890137e-01 1.200000000000000000e+01
2.567671775817871094e+00 1.539764761924744096e+00 -5.819674134254455566e-01 1.300000000000000000e+01
3.072074174880981001e+00 1.840783834457397017e+00 -5.672313570976257324e-01 1.300000000000000000e+01
3.409199905395507812e+01 2.041980552673339844e+01 4.879404544830322266e+00 2.100000000000000000e+01
3.804859638214110884e+00 2.278063535690308061e+00 -5.445122122764587402e-01 1.000000000000000000e+01
3.163550567626953125e+01 1.893346023559569957e+01 5.839385509490966797e+00 1.300000000000000000e+01
5.027931690216063565e+00 3.009155273437500000e+00 -5.126500725746154785e-01 9.000000000000000000e+00
7.159945487976074219e+00 4.281744956970214844e+00 -4.372145831584929865e-01 1.000000000000000000e+00
1.181010437011718928e+01 7.057008266448974609e+00 -2.401451170444489081e-01 2.000000000000000000e+00
3.368598937988281250e+01 2.012872123718262074e+01 1.051478290557860973e+01 9.000000000000000000e+00
1.950180768966675027e+00 1.161618590354918990e+00 -6.082247495651245117e-01 2.200000000000000000e+01
2.222175359725952148e+00 1.322580575942992942e+00 -5.970200896263122559e-01 1.500000000000000000e+01
3.717116928100585938e+01 2.212330818176269887e+01 2.266984224319458008e+00 3.000000000000000000e+01
2.569656372070312944e+00 1.528784990310668945e+00 -5.812041759490966797e-01 1.300000000000000000e+01
3.068292856216431108e+00 1.823992609977721946e+00 -5.653541684150695801e-01 1.300000000000000000e+01
3.399241638183593750e+01 2.019927215576171875e+01 4.855031013488770419e+00 2.000000000000000000e+01
3.809375047683715820e+00 2.262740612030028853e+00 -5.440247654914855957e-01 1.000000000000000000e+01
3.181700325012207031e+01 1.889906501770019887e+01 5.861286640167236328e+00 1.300000000000000000e+01
5.036692142486572266e+00 2.990568876266479048e+00 -5.124757885932922363e-01 9.000000000000000000e+00
7.174848079681395596e+00 4.256726264953613281e+00 -4.372145831584929865e-01 2.000000000000000000e+00
3.236476898193358664e+01 1.919388008117676137e+01 8.687159538269042969e+00 1.100000000000000000e+01
1.186562919616699041e+01 7.034095287322998047e+00 -2.407733947038651068e-01 2.000000000000000000e+00
3.624873733520507812e+01 2.148871231079101918e+01 1.129123973846436080e+01 1.000000000000000000e+01
1.945907831192017046e+00 1.149890065193176047e+00 -6.056365370750427246e-01 2.000000000000000000e+01
2.220066308975220171e+00 1.310852408409119096e+00 -5.952205061912536621e-01 1.200000000000000000e+01
2.574977159500122070e+00 1.519805908203125000e+00 -5.812041759490966797e-01 1.300000000000000000e+01
3.079745769500731978e+00 1.816281557083130105e+00 -5.662927627563476562e-01 1.200000000000000000e+01
3.194566154479980113e+01 1.883245658874512074e+01 4.553282260894775391e+00 1.900000000000000000e+01
3.822381019592285156e+00 2.252453088760375977e+00 -5.447559356689453125e-01 9.000000000000000000e+00
3.185201644897460938e+01 1.876227188110351918e+01 5.855029106140136719e+00 1.300000000000000000e+01
5.047100543975830078e+00 2.972969293594359907e+00 -5.124757885932922363e-01 9.000000000000000000e+00
3.327037048339843750e+01 1.958992576599121094e+01 7.504899501800537109e+00 6.300000000000000000e+01
7.182777881622313565e+00 4.227602958679199219e+00 -4.367958903312683105e-01 2.000000000000000000e+00
1.189355754852294922e+01 6.994661331176757812e+00 -2.408432066440581998e-01 2.000000000000000000e+00
1.954909563064574973e+00 1.146021604537964089e+00 -6.071894764900207520e-01 2.100000000000000000e+01
2.224628448486328125e+00 1.303094983100890891e+00 -5.952205061912536621e-01 1.300000000000000000e+01
2.595514535903931108e+00 1.519736170768738015e+00 -5.846387743949890137e-01 1.200000000000000000e+01
3.079246997833251953e+00 1.801530122756958008e+00 -5.650413036346435547e-01 1.100000000000000000e+01
3.826792716979980025e+00 2.237093210220336914e+00 -5.442684888839721680e-01 9.000000000000000000e+00
3.177063941955566051e+01 1.856526374816894887e+01 5.828122615814208984e+00 1.300000000000000000e+01
5.060887813568115234e+00 2.957344055175780806e+00 -5.128244161605834961e-01 1.100000000000000000e+01
3.329447174072266336e+01 1.944792556762694957e+01 7.494977474212645596e+00 6.300000000000000000e+01
7.204390525817871094e+00 4.206532955169677734e+00 -4.372145831584929865e-01 2.000000000000000000e+00
3.363571548461914062e+01 1.963150787353515980e+01 8.991293907165527344e+00 1.200000000000000000e+01
1.192826461791992010e+01 6.959148406982421875e+00 -2.410526424646378119e-01 2.000000000000000000e+00
1.965577960014343040e+00 1.143075346946716087e+00 -6.092600226402282715e-01 2.100000000000000000e+01
2.230848550796508789e+00 1.296300768852234109e+00 -5.956704020500183105e-01 1.400000000000000000e+01
2.588919878005981001e+00 1.503764390945435014e+00 -5.819674134254455566e-01 1.200000000000000000e+01
3.083808183670043945e+00 1.789778947830199973e+00 -5.647284388542175293e-01 1.000000000000000000e+01
3.224806213378906250e+01 1.870858955383301137e+01 4.577656269073486328e+00 1.900000000000000000e+01
3.827709436416625977e+00 2.219738245010375977e+00 -5.432935357093811035e-01 1.000000000000000000e+01
3.223857498168945312e+01 1.868804740905762074e+01 5.901959419250488281e+00 1.300000000000000000e+01
5.072903633117675781e+00 2.940659284591674805e+00 -5.129987001419067383e-01 9.000000000000000000e+00
7.219029903411865234e+00 4.181359291076660156e+00 -4.372145831584929865e-01 2.000000000000000000e+00
3.286080551147460938e+01 1.902576255798339844e+01 8.766342163085937500e+00 1.100000000000000000e+01
1.197671413421631037e+01 6.931491851806640625e+00 -2.415413111448287964e-01 2.000000000000000000e+00
3.730444335937500000e+01 2.158984756469726918e+01 1.154902362823485973e+01 1.100000000000000000e+01
1.969556093215941939e+00 1.136207222938538042e+00 -6.092600226402282715e-01 2.200000000000000000e+01
2.235359907150268999e+00 1.288505673408508079e+00 -5.956704020500183105e-01 1.200000000000000000e+01
2.585647821426392046e+00 1.489817500114440918e+00 -5.800593495368957520e-01 1.100000000000000000e+01
3.098596572875977007e+00 1.783931612968445046e+00 -5.662927627563476562e-01 1.100000000000000000e+01
3.230628967285156250e+01 1.859194946289062855e+01 4.576681137084960938e+00 1.900000000000000000e+01
3.847479343414307085e+00 2.213292360305786133e+00 -5.449997186660766602e-01 1.000000000000000000e+01
5.084864616394042969e+00 2.923926830291748047e+00 -5.131729841232299805e-01 9.000000000000000000e+00
7.254363059997558594e+00 4.168074607849121094e+00 -4.384706318378447931e-01 1.000000000000000000e+00
3.296081542968750000e+01 1.893035125732421875e+01 8.775341033935546875e+00 1.100000000000000000e+01
1.198349380493164062e+01 6.879686832427979404e+00 -2.411922514438628873e-01 2.000000000000000000e+00
3.374736785888671875e+01 1.936642837524414062e+01 1.042574882507324041e+01 8.000000000000000000e+00
1.970156788825988992e+00 1.127406358718872070e+00 -6.082247495651245117e-01 2.100000000000000000e+01
2.249994277954102007e+00 1.286498785018920898e+00 -5.983697772026062012e-01 1.300000000000000000e+01
2.592537164688109907e+00 1.481757044792175071e+00 -5.804409384727478027e-01 1.000000000000000000e+01
3.104804754257202148e+00 1.773104548454284890e+00 -5.662927627563476562e-01 9.000000000000000000e+00
3.247787857055664062e+01 1.854008293151855113e+01 4.591793060302734375e+00 1.900000000000000000e+01
3.863802433013916016e+00 2.204767704010010210e+00 -5.462183952331542969e-01 1.000000000000000000e+01
5.084656238555908203e+00 2.900236606597899947e+00 -5.121271610260009766e-01 9.000000000000000000e+00
7.258456707000732422e+00 4.136793136596679688e+00 -4.378426074981688898e-01 2.000000000000000000e+00
3.358546447753906250e+01 1.913351058959960938e+01 8.923808097839355469e+00 1.200000000000000000e+01
1.201091098785400035e+01 6.839794158935546875e+00 -2.412620633840560913e-01 5.000000000000000000e+00
1.977244377136230025e+00 1.122774720191956010e+00 -6.092600226402282715e-01 2.100000000000000000e+01
2.250858306884766069e+00 1.277107119560241921e+00 -5.974699854850769043e-01 1.100000000000000000e+01
2.605975151062012163e+00 1.477994441986083984e+00 -5.823490619659423828e-01 1.100000000000000000e+01
3.107230424880981001e+00 1.760851144790648970e+00 -5.656670331954956055e-01 1.000000000000000000e+01
3.865910291671752930e+00 2.189008474349976030e+00 -5.454871654510498047e-01 1.000000000000000000e+01
5.090777873992919922e+00 2.881396532058715820e+00 -5.117785334587097168e-01 8.000000000000000000e+00
7.244318962097167969e+00 4.096969604492188388e+00 -4.361678659915924072e-01 2.000000000000000000e+00
1.203700828552245916e+01 6.801894187927246094e+00 -2.413318753242492953e-01 2.000000000000000000e+00
3.729635620117188211e+01 2.106690406799316051e+01 1.147758960723876953e+01 1.100000000000000000e+01
1.986201167106627974e+00 1.118710160255431907e+00 -6.108129620552062988e-01 2.000000000000000000e+01
2.253604173660277876e+00 1.268286585807800071e+00 -5.970200896263122559e-01 1.200000000000000000e+01
2.611118316650391069e+00 1.468888878822327104e+00 -5.823490619659423828e-01 1.200000000000000000e+01
3.123689889907836914e+00 1.755801558494568093e+00 -5.675442218780517578e-01 9.000000000000000000e+00
3.863142967224121094e+00 2.169668197631835938e+00 -5.440247654914855957e-01 1.000000000000000000e+01
5.125127315521240234e+00 2.877263784408568892e+00 -5.142188668251037598e-01 9.000000000000000000e+00
7.269027233123779297e+00 4.077519893646240234e+00 -4.367958903312683105e-01 2.000000000000000000e+00
1.208161067962645951e+01 6.771568298339843750e+00 -2.417507320642471036e-01 2.000000000000000000e+00
3.259164810180664062e+01 1.825967216491698863e+01 1.001008510589599965e+01 1.600000000000000000e+01
1.988407611846924050e+00 1.110828042030334029e+00 -6.102952957153320312e-01 2.100000000000000000e+01
2.254614591598511186e+00 1.258512616157531960e+00 -5.961202979087829590e-01 1.300000000000000000e+01
2.616229772567749023e+00 1.459765434265136941e+00 -5.823490619659423828e-01 1.300000000000000000e+01
3.131525039672852007e+00 1.745849132537842019e+00 -5.678570866584777832e-01 1.000000000000000000e+01
3.872426986694335938e+00 2.157136201858520952e+00 -5.442684888839721680e-01 9.000000000000000000e+00
3.243614196777343750e+01 1.806855773925780895e+01 5.880684375762938565e+00 1.300000000000000000e+01
5.133399009704589844e+00 2.858386993408203125e+00 -5.140445828437805176e-01 9.000000000000000000e+00
7.290197372436523438e+00 4.056005477905273438e+00 -4.372145831584929865e-01 2.000000000000000000e+00
1.209468746185302912e+01 6.723524570465087891e+00 -2.415413111448287964e-01 2.000000000000000000e+00
3.261993789672852273e+01 1.813366127014160156e+01 1.000024986267090021e+01 8.000000000000000000e+00
1.988893389701843040e+00 1.102007865905761941e+00 -6.092600226402282715e-01 1.900000000000000000e+01
2.267518281936645952e+00 1.255354285240172896e+00 -5.983697772026062012e-01 1.400000000000000000e+01
2.616156101226807085e+00 1.447772383689879927e+00 -5.812041759490966797e-01 1.200000000000000000e+01
3.146243572235106978e+00 1.739686727523803933e+00 -5.694214701652526855e-01 1.000000000000000000e+01
3.286940383911132812e+01 1.816734695434569957e+01 4.611292362213134766e+00 1.900000000000000000e+01
3.878195762634276900e+00 2.142645597457886186e+00 -5.440247654914855957e-01 1.000000000000000000e+01
5.157298088073729581e+00 2.848156213760375977e+00 -5.154390335083007812e-01 9.000000000000000000e+00
7.314803123474121094e+00 4.036322593688964844e+00 -4.378426074981688898e-01 2.000000000000000000e+00
3.355599212646483664e+01 1.850862312316894887e+01 8.847325325012207031e+00 1.200000000000000000e+01
1.210757637023925959e+01 6.675472259521484375e+00 -2.413318753242492953e-01 2.000000000000000000e+00
3.277077865600585938e+01 1.806060218811035156e+01 1.002613258361816051e+01 8.000000000000000000e+00
1.989341855049133079e+00 1.093197822570801003e+00 -6.082247495651245117e-01 2.100000000000000000e+01
2.275302886962891069e+00 1.249307394027709961e+00 -5.992696285247802734e-01 1.200000000000000000e+01
2.626357078552246094e+00 1.441465258598328081e+00 -5.823490619659423828e-01 1.300000000000000000e+01
3.154029130935668945e+00 1.729643583297729048e+00 -5.697343349456787109e-01 1.000000000000000000e+01
3.896096706390380859e+00 2.134818553924560991e+00 -5.454871654510498047e-01 1.000000000000000000e+01
5.154976844787597656e+00 2.823436737060546875e+00 -5.142188668251037598e-01 9.000000000000000000e+00
3.278804397583007812e+01 1.795092964172362926e+01 7.266006469726563388e+00 6.200000000000000000e+01
7.318336009979248047e+00 4.005012035369873047e+00 -4.372145831584929865e-01 2.000000000000000000e+00
3.356910705566406250e+01 1.836332130432128906e+01 8.833827972412109375e+00 1.200000000000000000e+01
1.215185928344726918e+01 6.644680976867675781e+00 -2.417507320642471036e-01 2.000000000000000000e+00
3.292541122436522727e+01 1.800373458862305043e+01 1.005511951446533025e+01 8.000000000000000000e+00
1.998234629631042036e+00 1.089020490646362083e+00 -6.097776889801025391e-01 1.900000000000000000e+01
