3.331752777099608664e+01 -6.163010120391845703e+00 7.822447776794433594e+00 9.000000000000000000e+00
1.983183860778808949e+01 -3.672033786773682085e+00 -3.520499467849730890e-01 3.000000000000000000e+00
3.525780868530272727e+01 -6.528283596038818359e+00 9.607880592346191406e+00 7.000000000000000000e+00
2.387132406234741211e+00 -4.454461336135864258e-01 -6.506710648536682129e-01 2.000000000000000000e+01
5.970812606811522727e+01 -1.115250110626221058e+01 1.060233712196350098e+00 6.100000000000000000e+01
2.733487129211425781e+00 -5.110644102096557617e-01 -6.420103311538696289e-01 1.200000000000000000e+01
3.228475332260131836e+00 -6.041927337646484375e-01 -6.384469270706176758e-01 1.200000000000000000e+01
3.881139755249022993e+00 -7.277378439903259277e-01 -6.254249811172485352e-01 1.200000000000000000e+01
4.990561008453369141e+00 -9.375646114349365234e-01 -6.234835386276245117e-01 1.000000000000000000e+01
6.641771316528320312e+00 -1.248973727226257102e+00 -5.912645459175109863e-01 4.000000000000000000e+00
1.045544242858887074e+01 -1.969907045364380105e+00 -5.575872659683227539e-01 2.000000000000000000e+00
3.327666091918945312e+01 -6.275660991668701172e+00 7.817948818206787109e+00 1.900000000000000000e+01
1.978156471252441051e+01 -3.734189748764038086e+00 -3.513867557048798163e-01 1.000000000000000000e+01
3.533731460571289062e+01 -6.670667648315429688e+00 9.635832786560058594e+00 7.000000000000000000e+00
2.389358520507812944e+00 -4.544980525970458984e-01 -6.517063379287719727e-01 2.000000000000000000e+01
2.735515117645264116e+00 -5.213326215744018555e-01 -6.429101228713989258e-01 1.300000000000000000e+01
3.212847232818603960e+00 -6.128833889961242676e-01 -6.357755661010742188e-01 1.100000000000000000e+01
3.884396553039550781e+00 -7.423936128616333008e-01 -6.263635754585266113e-01 1.100000000000000000e+01
4.975559711456298828e+00 -9.527392387390136719e-01 -6.220211386680603027e-01 1.000000000000000000e+01
6.664765834808349609e+00 -1.277400851249695046e+00 -5.937049388885498047e-01 5.000000000000000000e+00
3.507202148437500000e+01 -6.728416919708251953e+00 6.941631317138671875e+00 6.000000000000000000e+01
1.048773097991943004e+01 -2.013924360275268999e+00 -5.596807003021240234e-01 2.000000000000000000e+00
3.336172103881835938e+01 -6.412378311157226562e+00 7.843143463134765625e+00 1.900000000000000000e+01
1.985284805297851918e+01 -3.819462537765502930e+00 -3.528876602649689276e-01 3.000000000000000000e+00
3.550352096557617188e+01 -6.830474376678466797e+00 9.687597274780273438e+00 7.000000000000000000e+00
2.376378297805786133e+00 -4.606299698352814276e-01 -6.486005187034606934e-01 1.800000000000000000e+01
2.743243694305419922e+00 -5.327357053756713867e-01 -6.451596021652221680e-01 1.400000000000000000e+01
3.206833839416503906e+00 -6.233453750610351562e-01 -6.350123286247253418e-01 1.100000000000000000e+01
3.881781339645386186e+00 -7.559481859207153320e-01 -6.263635754585266113e-01 1.100000000000000000e+01
4.972203731536865234e+00 -9.701013565063476562e-01 -6.220211386680603027e-01 1.000000000000000000e+01
3.618490219116210938e+01 -7.066408157348632812e+00 5.839385509490966797e+00 1.300000000000000000e+01
6.685687065124511719e+00 -1.305621743202209029e+00 -5.959709882736206055e-01 6.000000000000000000e+00
3.514465713500977273e+01 -6.869631290435791016e+00 6.960711956024169922e+00 6.000000000000000000e+01
1.046495628356933949e+01 -2.047453165054320845e+00 -5.588433146476745605e-01 2.000000000000000000e+00
3.334678268432617188e+01 -6.530291557312011719e+00 7.844943046569824219e+00 9.000000000000000000e+00
2.071852874755859020e+01 -4.061058521270751953e+00 -3.685250282287598211e-01 6.000000000000000000e+00
2.372942209243773970e+00 -4.681338965892791748e-01 -6.480829119682312012e-01 1.900000000000000000e+01
2.741461992263793945e+00 -5.418297052383422852e-01 -6.451596021652221680e-01 1.300000000000000000e+01
3.204749107360839844e+00 -6.339761614799499512e-01 -6.350123286247253418e-01 1.200000000000000000e+01
3.888941764831542969e+00 -7.707365751266479492e-01 -6.279279589653015137e-01 1.000000000000000000e+01
4.974800586700438565e+00 -9.877442717552185059e-01 -6.227523684501647949e-01 9.000000000000000000e+00
6.644191741943359375e+00 -1.320406436920166016e+00 -5.926590561866760254e-01 5.000000000000000000e+00
1.049336814880370916e+01 -2.089164733886719194e+00 -5.607274174690246582e-01 2.000000000000000000e+00
3.350077438354492188e+01 -6.675875663757324219e+00 7.886333942413330078e+00 9.000000000000000000e+00
2.013231658935546875e+01 -4.015526294708251953e+00 -3.583328127861022949e-01 3.000000000000000000e+00
3.528948593139647727e+01 -7.038725852966308594e+00 9.642045021057128906e+00 7.000000000000000000e+00
2.369399785995482954e+00 -4.760336279869080145e-01 -6.475652456283569336e-01 1.800000000000000000e+01
2.743374824523925781e+00 -5.521649122238159180e-01 -6.460594534873962402e-01 1.400000000000000000e+01
3.221762657165526900e+00 -6.490361690521240234e-01 -6.388285160064697266e-01 1.200000000000000000e+01
3.878482341766356978e+00 -7.827436923980712891e-01 -6.266764402389526367e-01 1.100000000000000000e+01
3.761409759521483664e+01 -7.597997188568115234e+00 4.711712360382080078e+00 2.000000000000000000e+01
4.998562335968017578e+00 -1.010610938072205034e+00 -6.261646747589111328e-01 9.000000000000000000e+00
6.680551052093505859e+00 -1.351889610290526900e+00 -5.963196158409118652e-01 5.000000000000000000e+00
1.050167083740234020e+01 -2.128955125808715820e+00 -5.615648031234741211e-01 2.000000000000000000e+00
3.366824722290039062e+01 -6.831525802612304688e+00 7.931324481964111328e+00 9.000000000000000000e+00
1.969880294799805043e+01 -4.000606536865234375e+00 -3.508631885051726740e-01 6.000000000000000000e+00
2.371424198150635210e+00 -4.854896366596221924e-01 -6.486005187034606934e-01 2.000000000000000000e+01
2.737514495849608931e+00 -5.614331364631652832e-01 -6.451596021652221680e-01 1.300000000000000000e+01
3.215515851974486861e+00 -6.600506305694580078e-01 -6.380652785301208496e-01 1.300000000000000000e+01
3.887196779251099077e+00 -7.993410229682922363e-01 -6.285536885261535645e-01 1.000000000000000000e+01
4.971493721008300781e+00 -1.024118661880492942e+00 -6.232398152351379395e-01 9.000000000000000000e+00
3.804497146606445312e+01 -7.837194442749023438e+00 6.152254581451416016e+00 1.400000000000000000e+01
6.689210414886474609e+00 -1.379182219505310059e+00 -5.975397825241088867e-01 5.000000000000000000e+00
1.046641349792479936e+01 -2.161775588989257812e+00 -5.600994229316711426e-01 2.000000000000000000e+00
1.812722396850585938e+01 -3.750668525695800781e+00 -3.231138586997985840e-01 9.000000000000000000e+00
3.559386825561522727e+01 -7.364657402038574219e+00 9.739360809326171875e+00 7.000000000000000000e+00
2.390518665313721147e+00 -4.980992376804351807e-01 -6.542945504188537598e-01 2.100000000000000000e+01
2.731722831726074219e+00 -5.701890587806701660e-01 -6.442598104476928711e-01 1.400000000000000000e+01
3.209348678588867188e+00 -6.704678535461425781e-01 -6.373020410537719727e-01 1.200000000000000000e+01
3.886316299438477007e+00 -8.133096694946289062e-01 -6.288665533065795898e-01 1.100000000000000000e+01
3.704971694946289062e+01 -7.760337352752686435e+00 4.647852897644042969e+00 1.900000000000000000e+01
4.979545593261718750e+00 -1.043909907341002974e+00 -6.247022747993469238e-01 1.000000000000000000e+01
6.686305522918701172e+00 -1.402932643890381081e+00 -5.977140665054321289e-01 5.000000000000000000e+00
1.050962257385254084e+01 -2.208978176116942915e+00 -5.628208518028259277e-01 2.000000000000000000e+00
1.803770637512207031e+01 -3.797853231430054155e+00 -3.217525780200958252e-01 3.000000000000000000e+00
3.552883148193358664e+01 -7.487099170684813565e+00 9.729007720947265625e+00 7.000000000000000000e+00
2.371844530105590820e+00 -5.024207234382629395e-01 -6.496357917785644531e-01 2.000000000000000000e+01
2.741254806518555132e+00 -5.816716551780700684e-01 -6.469592452049255371e-01 1.400000000000000000e+01
3.203266859054564986e+00 -6.802910566329956055e-01 -6.365388035774230957e-01 1.200000000000000000e+01
3.885529994964600053e+00 -8.266037106513977051e-01 -6.291794180870056152e-01 1.000000000000000000e+01
3.737326431274414062e+01 -7.957568645477294922e+00 4.691726207733154297e+00 2.000000000000000000e+01
4.983822345733642578e+00 -1.062071919441222922e+00 -6.256772279739379883e-01 9.000000000000000000e+00
3.625059890747070312e+01 -7.731757640838623047e+00 5.870672702789306641e+00 1.300000000000000000e+01
6.664079666137695312e+00 -1.421357154846190962e+00 -5.961452722549438477e-01 5.000000000000000000e+00
1.047489452362061080e+01 -2.237975120544434038e+00 -5.613554716110229492e-01 2.000000000000000000e+00
4.175108337402343750e+01 -8.927793502807617188e+00 9.856904983520507812e+00 1.300000000000000000e+01
1.797417259216308949e+01 -3.846766710281372070e+00 -3.208450376987457275e-01 6.000000000000000000e+00
2.366299390792847124e+00 -5.098831057548522949e-01 -6.486005187034606934e-01 1.900000000000000000e+01
2.743017435073852983e+00 -5.920591950416564941e-01 -6.478590369224548340e-01 1.400000000000000000e+01
3.202791690826416016e+00 -6.918829679489135742e-01 -6.369204521179199219e-01 1.200000000000000000e+01
3.884551763534545898e+00 -8.405795097351074219e-01 -6.294922828674316406e-01 1.100000000000000000e+01
3.748106765747070312e+01 -8.117389678955078125e+00 4.708787918090820312e+00 2.000000000000000000e+01
4.983964920043945312e+00 -1.080303311347960982e+00 -6.261646747589111328e-01 1.000000000000000000e+01
6.664918899536132812e+00 -1.445877671241760032e+00 -5.966682434082031250e-01 6.000000000000000000e+00
1.063096237182617010e+01 -2.310151338577270952e+00 -5.701479315757751465e-01 3.000000000000000000e+00
1.912909317016601918e+01 -4.163822650909423828e+00 -3.417181074619293213e-01 3.000000000000000000e+00
3.793233871459960938e+01 -8.256718635559082031e+00 1.040193748474120916e+01 8.000000000000000000e+00
2.370166301727294922e+00 -5.193804502487182617e-01 -6.501534581184387207e-01 2.100000000000000000e+01
2.727610111236571822e+00 -5.987058877944946289e-01 -6.447097063064575195e-01 1.300000000000000000e+01
3.206109523773192915e+00 -7.043223381042480469e-01 -6.380652785301208496e-01 1.200000000000000000e+01
3.875806093215941939e+00 -8.528604507446289062e-01 -6.285536885261535645e-01 1.000000000000000000e+01
3.677397918701171875e+01 -8.098742485046386719e+00 4.623479366302490234e+00 1.900000000000000000e+01
5.003426551818847656e+00 -1.102821350097656028e+00 -6.290895342826843262e-01 9.000000000000000000e+00
6.679286956787109375e+00 -1.473425745964050071e+00 -5.984113216400146484e-01 5.000000000000000000e+00
1.058382987976074041e+01 -2.338627576828002930e+00 -5.680544972419738770e-01 2.000000000000000000e+00
3.631432342529296875e+01 -8.030745506286621094e+00 8.586381912231445312e+00 1.100000000000000000e+01
2.377767086029053178e+00 -5.297512412071228027e-01 -6.527416110038757324e-01 2.000000000000000000e+01
2.723601579666138139e+00 -6.077989339828491211e-01 -6.442598104476928711e-01 1.400000000000000000e+01
3.222791910171508789e+00 -7.197887897491455078e-01 -6.418814659118652344e-01 1.100000000000000000e+01
3.870877742767333984e+00 -8.659530878067016602e-01 -6.282408237457275391e-01 1.100000000000000000e+01
3.693920135498046875e+01 -8.270428657531738281e+00 4.647852897644042969e+00 1.900000000000000000e+01
4.989861011505126953e+00 -1.118109583854675071e+00 -6.278708577156066895e-01 1.000000000000000000e+01
6.681879520416259766e+00 -1.498475670814513938e+00 -5.991085767745971680e-01 6.000000000000000000e+00
1.052493572235107067e+01 -2.364176988601685014e+00 -5.653330087661743164e-01 2.000000000000000000e+00
3.643817138671875000e+01 -8.191651344299316406e+00 8.622373580932617188e+00 1.100000000000000000e+01
1.866645240783691051e+01 -4.199820518493652344e+00 -3.339692354202271063e-01 6.000000000000000000e+00
3.781574630737304688e+01 -8.515211105346679688e+00 1.038640785217284979e+01 8.000000000000000000e+00
2.375903367996215820e+00 -5.380479693412780762e-01 -6.527416110038757324e-01 1.900000000000000000e+01
2.725264310836791992e+00 -6.181645393371582031e-01 -6.451596021652221680e-01 1.400000000000000000e+01
3.206858158111571822e+00 -7.279917001724243164e-01 -6.392101049423217773e-01 1.200000000000000000e+01
3.887093544006348100e+00 -8.838394880294799805e-01 -6.313694715499877930e-01 1.100000000000000000e+01
4.993669986724854404e+00 -1.137283921241760032e+00 -6.288458108901977539e-01 1.000000000000000000e+01
6.697976589202880859e+00 -1.526661157608032005e+00 -6.010259985923767090e-01 6.000000000000000000e+00
3.567856216430664062e+01 -8.138719558715820312e+00 7.113359451293945312e+00 6.100000000000000000e+01
1.061397743225098012e+01 -2.423127889633179155e+00 -5.705665946006774902e-01 3.000000000000000000e+00
1.852691841125487926e+01 -4.236424922943115234e+00 -3.317353427410125732e-01 3.000000000000000000e+00
3.795151138305664062e+01 -8.685085296630859375e+00 1.043196010589599965e+01 8.000000000000000000e+00
2.372128009796143022e+00 -5.459048748016357422e-01 -6.522240042686462402e-01 1.900000000000000000e+01
2.732584714889525923e+00 -6.298622488975524902e-01 -6.474091410636901855e-01 1.500000000000000000e+01
3.196645259857178178e+00 -7.374160885810852051e-01 -6.376836895942687988e-01 1.200000000000000000e+01
3.893608093261719194e+00 -8.996260762214660645e-01 -6.329338550567626953e-01 1.300000000000000000e+01
4.995471477508544922e+00 -1.156050801277161089e+00 -6.295770406723022461e-01 1.000000000000000000e+01
3.594609069824218750e+01 -8.318635940551757812e+00 5.843765735626220703e+00 1.300000000000000000e+01
6.677078723907470703e+00 -1.546435832977294922e+00 -5.996314883232116699e-01 5.000000000000000000e+00
1.059767150878906072e+01 -2.458357572555541992e+00 -5.701479315757751465e-01 3.000000000000000000e+00
1.804064750671387074e+01 -4.191552162170410156e+00 -3.232883810997009277e-01 9.000000000000000000e+00
3.667906951904296875e+01 -8.528738975524902344e+00 1.009031963348389027e+01 8.000000000000000000e+00
2.362780094146728960e+00 -5.520101189613342285e-01 -6.501534581184387207e-01 2.100000000000000000e+01
2.730480909347534180e+00 -6.389203667640686035e-01 -6.474091410636901855e-01 1.500000000000000000e+01
4.172996902465820312e+01 -9.764627456665039062e+00 2.246049880981444868e+00 2.900000000000000000e+01
3.203740119934082031e+00 -7.502506971359252930e-01 -6.395917534828186035e-01 1.200000000000000000e+01
3.888680219650268999e+00 -9.120817184448242188e-01 -6.326209902763366699e-01 1.200000000000000000e+01
4.991610527038574219e+00 -1.172610044479369895e+00 -6.295770406723022461e-01 9.000000000000000000e+00
3.597599792480468750e+01 -8.451344490051269531e+00 5.853151798248291016e+00 1.300000000000000000e+01
6.671913623809813565e+00 -1.568569302558898926e+00 -5.996314883232116699e-01 5.000000000000000000e+00
1.063223075866699041e+01 -2.503558158874512163e+00 -5.724506974220275879e-01 3.000000000000000000e+00
1.803248786926269887e+01 -4.252731323242188388e+00 -3.233930766582489014e-01 1.200000000000000000e+01
3.674987030029296875e+01 -8.666986465454101562e+00 1.011723613739014027e+01 8.000000000000000000e+00
2.362718343734741211e+00 -5.607004761695861816e-01 -6.506710648536682129e-01 2.000000000000000000e+01
2.726338148117064986e+00 -6.479970216751098633e-01 -6.469592452049255371e-01 1.400000000000000000e+01
3.208741426467895952e+00 -7.632465362548828125e-01 -6.411182284355163574e-01 1.100000000000000000e+01
3.875864744186400923e+00 -9.233612418174743652e-01 -6.310566067695617676e-01 1.000000000000000000e+01
4.251415634155272727e+01 -1.013614273071289062e+01 5.366394519805908203e+00 3.300000000000000000e+01
5.008726596832275391e+00 -1.195094704627990945e+00 -6.322581768035888672e-01 1.000000000000000000e+01
6.662521839141845703e+00 -1.590923547744750977e+00 -5.992828607559204102e-01 5.000000000000000000e+00
3.445098876953125000e+01 -8.232804298400878906e+00 6.885151863098145419e+00 6.000000000000000000e+01
1.060011768341063920e+01 -2.535081624984741211e+00 -5.711946487426757812e-01 3.000000000000000000e+00
3.781519317626953125e+01 -9.050707817077636719e+00 8.976897239685058594e+00 1.200000000000000000e+01
1.804670333862305043e+01 -4.322637557983398438e+00 -3.239166736602783203e-01 3.000000000000000000e+00
3.635340118408203125e+01 -8.714260101318359375e+00 1.001681423187256037e+01 8.000000000000000000e+00
2.373793363571166992e+00 -5.725271701812744141e-01 -6.542945504188537598e-01 2.100000000000000000e+01
2.716367721557617188e+00 -6.561549305915832520e-01 -6.451596021652221680e-01 1.400000000000000000e+01
3.211647510528564009e+00 -7.763859629631042480e-01 -6.422630548477172852e-01 1.200000000000000000e+01
3.880134105682373047e+00 -9.394201040267944336e-01 -6.323081254959106445e-01 1.000000000000000000e+01
5.004312515258789062e+00 -1.213444590568542036e+00 -6.322581768035888672e-01 1.000000000000000000e+01
6.672135829925537109e+00 -1.619091033935547097e+00 -6.006773710250854492e-01 3.000000000000000000e+00
1.062957000732422053e+01 -2.583349466323852983e+00 -5.732880830764770508e-01 3.000000000000000000e+00
3.779312896728516336e+01 -9.192009925842285156e+00 8.979596138000488281e+00 1.200000000000000000e+01
1.820171928405762074e+01 -4.430370330810546875e+00 -3.269882798194885254e-01 3.000000000000000000e+00
3.703604125976563211e+01 -9.014719009399414062e+00 1.021351718902588068e+01 8.000000000000000000e+00
2.369904041290283203e+00 -5.803502798080444336e-01 -6.537768840789794922e-01 1.900000000000000000e+01
4.230742645263671875e+01 -1.036821556091308949e+01 7.603315114974975586e-01 4.400000000000000000e+01
2.725416660308837891e+00 -6.684178709983825684e-01 -6.478590369224548340e-01 1.400000000000000000e+01
3.199384450912476030e+00 -7.852520942687988281e-01 -6.403549909591674805e-01 1.100000000000000000e+01
3.882586002349853960e+00 -9.543731808662414551e-01 -6.332467198371887207e-01 1.100000000000000000e+01
4.996191501617431641e+00 -1.229956507682800071e+00 -6.317706704139709473e-01 9.000000000000000000e+00
6.697396278381347656e+00 -1.649996876716613992e+00 -6.034663915634155273e-01 3.000000000000000000e+00
1.063987922668457031e+01 -2.625222206115723100e+00 -5.743348002433776855e-01 3.000000000000000000e+00
3.597484207153320312e+01 -8.882885932922363281e+00 8.554888725280761719e+00 1.100000000000000000e+01
3.915566635131835938e+01 -9.682795524597167969e+00 1.080776596069335938e+01 9.000000000000000000e+00
2.362239360809326172e+00 -5.872210860252380371e-01 -6.522240042686462402e-01 1.900000000000000000e+01
2.717393875122069868e+00 -6.765149235725402832e-01 -6.465093493461608887e-01 1.300000000000000000e+01
3.194718837738037109e+00 -7.959406375885009766e-01 -6.399733424186706543e-01 1.000000000000000000e+01
3.881147623062133789e+00 -9.683983325958251953e-01 -6.335595846176147461e-01 1.100000000000000000e+01
5.007274627685546875e+00 -1.251238942146301047e+00 -6.337205767631530762e-01 9.000000000000000000e+00
6.679998397827148438e+00 -1.670464992523192915e+00 -6.024205088615417480e-01 5.000000000000000000e+00
1.066939926147460938e+01 -2.672050476074219194e+00 -5.764282345771789551e-01 3.000000000000000000e+00
3.598141860961914062e+01 -9.017882347106933594e+00 8.563886642456054688e+00 1.100000000000000000e+01
1.817034721374512074e+01 -4.557333469390869141e+00 -3.269882798194885254e-01 3.000000000000000000e+00
2.352682590484619141e+00 -5.935729146003723145e-01 -6.501534581184387207e-01 1.900000000000000000e+01
2.730130672454833984e+00 -6.898153424263000488e-01 -6.501085758209228516e-01 1.200000000000000000e+01
3.195727825164794922e+00 -8.080499768257141113e-01 -6.407365798950195312e-01 1.200000000000000000e+01
3.883488416671752930e+00 -9.833948612213134766e-01 -6.344981789588928223e-01 1.100000000000000000e+01
3.627438354492188211e+01 -9.192304611206054688e+00 4.594717979431152344e+00 1.900000000000000000e+01
5.010573387145996094e+00 -1.270661830902100053e+00 -6.346955299377441406e-01 9.000000000000000000e+00
6.681851387023925781e+00 -1.695732712745666948e+00 -6.031177639961242676e-01 5.000000000000000000e+00
1.069872093200683949e+01 -2.719116926193236861e+00 -5.785216689109802246e-01 3.000000000000000000e+00
3.592328262329102273e+01 -9.136700630187988281e+00 8.557587623596191406e+00 1.100000000000000000e+01
3.657104110717772727e+01 -9.315044403076171875e+00 1.011206054687500000e+01 8.000000000000000000e+00
2.354444503784180132e+00 -6.023290157318115234e-01 -6.511887311935424805e-01 1.900000000000000000e+01
2.720277070999145952e+00 -6.969304084777832031e-01 -6.483089327812194824e-01 1.300000000000000000e+01
3.206342697143555132e+00 -8.220559954643249512e-01 -6.434079408645629883e-01 1.100000000000000000e+01
3.872552871704102007e+00 -9.943025708198547363e-01 -6.332467198371887207e-01 1.100000000000000000e+01
3.598991394042968750e+01 -9.247334480285644531e+00 4.562544345855712891e+00 1.900000000000000000e+01
5.004409313201904297e+00 -1.286776185035706010e+00 -6.344518065452575684e-01 1.000000000000000000e+01
6.705134391784667969e+00 -1.725328683853148970e+00 -6.057324409484863281e-01 5.000000000000000000e+00
1.068964576721191051e+01 -2.754580020904541016e+00 -5.785216689109802246e-01 3.000000000000000000e+00
3.573050308227539062e+01 -9.213928222656250000e+00 8.518896102905273438e+00 1.100000000000000000e+01
3.636950302124022727e+01 -9.385479927062988281e+00 1.006443691253661932e+01 8.000000000000000000e+00
2.357937335968018022e+00 -6.119998693466186523e-01 -6.527416110038757324e-01 1.800000000000000000e+01
4.235400009155272727e+01 -1.100082111358642933e+01 7.638220191001892090e-01 4.500000000000000000e+01
2.712169647216796875e+00 -7.049510478973388672e-01 -6.469592452049255371e-01 1.400000000000000000e+01
3.199653625488280806e+00 -8.322547674179077148e-01 -6.426447033882141113e-01 1.200000000000000000e+01
3.876704692840576172e+00 -1.009805917739867942e+00 -6.344981789588928223e-01 1.100000000000000000e+01
3.588057708740233664e+01 -9.352878570556640625e+00 4.552794933319091797e+00 1.900000000000000000e+01
4.997966289520263672e+00 -1.303735971450806108e+00 -6.342080831527709961e-01 9.000000000000000000e+00
3.639935302734375000e+01 -9.501675605773925781e+00 5.958275794982910156e+00 1.300000000000000000e+01
6.699070930480957031e+00 -1.748723506927490012e+00 -6.057324409484863281e-01 5.000000000000000000e+00
1.067996501922607067e+01 -2.791877031326293945e+00 -5.785216689109802246e-01 3.000000000000000000e+00
3.569812393188477273e+01 -9.338594436645507812e+00 8.518896102905273438e+00 1.100000000000000000e+01
3.636102294921875000e+01 -9.525571823120117188e+00 1.007168388366699041e+01 8.000000000000000000e+00
2.363259553909302202e+00 -6.221942901611328125e-01 -6.548121571540832520e-01 1.900000000000000000e+01
2.707808017730712891e+00 -7.139171361923217773e-01 -6.465093493461608887e-01 1.500000000000000000e+01
3.202424049377440962e+00 -8.449211120605468750e-01 -6.437895298004150391e-01 1.200000000000000000e+01
3.878885746002196822e+00 -1.024845838546752930e+00 -6.354367733001708984e-01 1.000000000000000000e+01
3.597437667846679688e+01 -9.511557579040527344e+00 4.568881511688232422e+00 1.900000000000000000e+01
4.989547252655029297e+00 -1.320158600807189941e+00 -6.337205767631530762e-01 9.000000000000000000e+00
3.590168380737304688e+01 -9.499042510986328125e+00 5.881936073303222656e+00 1.300000000000000000e+01
6.708334445953369141e+00 -1.776176571846008079e+00 -6.071268916130065918e-01 5.000000000000000000e+00
1.068945980072020951e+01 -2.834259033203125000e+00 -5.795683860778808594e-01 3.000000000000000000e+00
3.622840881347656250e+01 -9.619325637817382812e+00 1.004373168945313033e+01 8.000000000000000000e+00
2.353607416152954102e+00 -6.284463405609130859e-01 -6.527416110038757324e-01 1.800000000000000000e+01
4.231480789184570312e+01 -1.130656147003174006e+01 7.645201086997985840e-01 4.500000000000000000e+01
2.709064722061156782e+00 -7.243716120719909668e-01 -6.474091410636901855e-01 1.500000000000000000e+01
3.193765640258789062e+00 -8.545721173286437988e-01 -6.426447033882141113e-01 1.200000000000000000e+01
3.896273612976074219e+00 -1.044003367424011008e+00 -6.388783454895019531e-01 1.100000000000000000e+01
4.996412277221679688e+00 -1.340654015541077104e+00 -6.351830363273620605e-01 9.000000000000000000e+00
6.702093601226806641e+00 -1.799582242965698020e+00 -6.071268916130065918e-01 5.000000000000000000e+00
1.070650386810302912e+01 -2.878815412521361861e+00 -5.810337662696838379e-01 3.000000000000000000e+00
2.619104766845703125e+01 -7.052177429199218750e+00 -4.734488725662230890e-01 4.000000000000000000e+00
3.613322067260742188e+01 -9.735960960388183594e+00 1.002716732025145951e+01 8.000000000000000000e+00
2.340321540832519975e+00 -6.332203745841979980e-01 -6.496357917785644531e-01 1.900000000000000000e+01
4.223847579956054688e+01 -1.143636798858642933e+01 7.638220191001892090e-01 4.500000000000000000e+01
2.714171409606934038e+00 -7.353897094726562500e-01 -6.492087244987487793e-01 1.500000000000000000e+01
3.185229539871215820e+00 -8.636170625686645508e-01 -6.414998173713684082e-01 1.200000000000000000e+01
3.869913816452025923e+00 -1.050706982612610085e+00 -6.351239085197448730e-01 1.100000000000000000e+01
3.646433639526367188e+01 -9.907140731811523438e+00 4.639565944671630859e+00 1.900000000000000000e+01
5.001516342163085938e+00 -1.359819412231445090e+00 -6.364017128944396973e-01 1.000000000000000000e+01
6.674941539764404297e+00 -1.816043615341186968e+00 -6.052094697952270508e-01 5.000000000000000000e+00
1.072387695312500000e+01 -2.921653747558594194e+00 -5.824992060661315918e-01 3.000000000000000000e+00
3.681067657470703125e+01 -1.004264450073242010e+01 1.022387027740479049e+01 8.000000000000000000e+00
2.356727361679077148e+00 -6.464964151382446289e-01 -6.548121571540832520e-01 2.000000000000000000e+01
2.707829475402832031e+00 -7.438270449638366699e-01 -6.483089327812194824e-01 1.500000000000000000e+01
3.193553924560546875e+00 -8.778524994850158691e-01 -6.437895298004150391e-01 1.200000000000000000e+01
3.866222620010375977e+00 -1.064209103584289995e+00 -6.351239085197448730e-01 1.100000000000000000e+01
3.649460220336914062e+01 -1.005228805541992010e+01 4.647852897644042969e+00 1.900000000000000000e+01
5.019704341888427734e+00 -1.383599519729614036e+00 -6.393265724182128906e-01 1.000000000000000000e+01
6.716578483581542969e+00 -1.852576494216918945e+00 -6.095672845840454102e-01 5.000000000000000000e+00
1.071361255645751953e+01 -2.959069252014160156e+00 -5.824992060661315918e-01 3.000000000000000000e+00
3.572897720336914062e+01 -9.881666183471679688e+00 9.932957649230957031e+00 8.000000000000000000e+00
2.352595090866088867e+00 -6.542013883590698242e-01 -6.542945504188537598e-01 1.900000000000000000e+01
4.639205169677733664e+01 -1.290926361083984020e+01 8.405427932739257812e-01 5.800000000000000000e+01
2.708971261978148970e+00 -7.543200850486755371e-01 -6.492087244987487793e-01 1.500000000000000000e+01
3.196143627166748047e+00 -8.905756473541259766e-01 -6.449344158172607422e-01 1.200000000000000000e+01
3.870095014572143999e+00 -1.079821825027466042e+00 -6.363754272460937500e-01 1.100000000000000000e+01
3.674608612060546875e+01 -1.025969123840332031e+01 4.684413909912109375e+00 2.000000000000000000e+01
5.009108066558837891e+00 -1.399510622024535911e+00 -6.385953426361083984e-01 9.000000000000000000e+00
6.696639060974121094e+00 -1.872255206108093040e+00 -6.083470582962036133e-01 6.000000000000000000e+00
1.072629833221436080e+01 -3.002910137176514116e+00 -5.837552547454833984e-01 3.000000000000000000e+00
3.553429412841796875e+01 -9.961477279663085938e+00 9.888440132141113281e+00 7.000000000000000000e+00
2.348437547683715820e+00 -6.618854403495788574e-01 -6.537768840789794922e-01 1.900000000000000000e+01
2.702570676803588867e+00 -7.627130150794982910e-01 -6.483089327812194824e-01 1.300000000000000000e+01
3.189236879348754883e+00 -9.006597399711608887e-01 -6.441711783409118652e-01 1.200000000000000000e+01
3.870103836059569868e+00 -1.094399452209473100e+00 -6.370011568069458008e-01 1.200000000000000000e+01
3.678263092041016336e+01 -1.040843582153319957e+01 4.693675994873046875e+00 2.000000000000000000e+01
5.002282619476318359e+00 -1.416446328163146973e+00 -6.383516192436218262e-01 1.000000000000000000e+01
6.705398082733154297e+00 -1.899964690208435059e+00 -6.097415685653686523e-01 3.000000000000000000e+00
1.073496532440186080e+01 -3.045784950256348100e+00 -5.848019719123840332e-01 3.000000000000000000e+00
3.806100082397460938e+01 -1.080606079101563033e+01 9.134362220764160156e+00 1.200000000000000000e+01
3.860820388793945312e+01 -1.097598361968993963e+01 1.075496673583984020e+01 9.000000000000000000e+00
2.353543281555175781e+00 -6.722011566162109375e-01 -6.558474898338317871e-01 1.800000000000000000e+01
2.711133718490601030e+00 -7.753571271896362305e-01 -6.510083675384521484e-01 1.600000000000000000e+01
3.178523540496826172e+00 -9.096261262893676758e-01 -6.426447033882141113e-01 1.300000000000000000e+01
3.887148380279541016e+00 -1.113887667655945046e+00 -6.404427289962768555e-01 1.000000000000000000e+01
3.676897430419921875e+01 -1.054333400726318004e+01 4.696600914001464844e+00 2.000000000000000000e+01
4.995399475097656250e+00 -1.433351397514343040e+00 -6.381078958511352539e-01 9.000000000000000000e+00
6.698725223541259766e+00 -1.923359394073486106e+00 -6.097415685653686523e-01 3.000000000000000000e+00
3.517214584350585938e+01 -1.010538387298583984e+01 7.113359451293945312e+00 6.100000000000000000e+01
1.074730205535889027e+01 -3.089860916137694868e+00 -5.860580205917358398e-01 3.000000000000000000e+00
3.851961135864257812e+01 -1.108898830413818004e+01 1.074047279357909979e+01 9.000000000000000000e+00
2.341903924942017046e+00 -6.777273416519165039e-01 -6.532592773437500000e-01 1.900000000000000000e+01
2.712154150009154829e+00 -7.859007716178894043e-01 -6.519081592559814453e-01 1.400000000000000000e+01
3.182871341705321822e+00 -9.229027032852172852e-01 -6.441711783409118652e-01 1.300000000000000000e+01
3.873751401901245117e+00 -1.124695658683777078e+00 -6.388783454895019531e-01 1.100000000000000000e+01
3.644600677490233664e+01 -1.058854389190674006e+01 4.660039901733398438e+00 2.000000000000000000e+01
5.005615234375000000e+00 -1.455213069915771040e+00 -6.400578022003173828e-01 9.000000000000000000e+00
6.680491924285888672e+00 -1.943391442298888938e+00 -6.086956858634948730e-01 3.000000000000000000e+00
1.079014301300049006e+01 -3.142996788024901900e+00 -5.889888405799865723e-01 3.000000000000000000e+00
3.845099639892578125e+01 -1.121472549438476918e+01 1.073219013214110973e+01 9.000000000000000000e+00
2.341377735137939009e+00 -6.864414811134338379e-01 -6.537768840789794922e-01 1.900000000000000000e+01
2.716873645782471147e+00 -7.975587844848632812e-01 -6.537077426910400391e-01 1.400000000000000000e+01
3.187165021896361861e+00 -9.362206459045410156e-01 -6.456976532936096191e-01 1.200000000000000000e+01
3.850850820541381836e+00 -1.132636785507201926e+00 -6.357496380805969238e-01 1.200000000000000000e+01
3.627552032470703125e+01 -1.067646598815917969e+01 4.642978191375732422e+00 1.900000000000000000e+01
5.004313468933104581e+00 -1.473798751831054910e+00 -6.405452489852905273e-01 9.000000000000000000e+00
6.729090690612792969e+00 -1.983031630516052024e+00 -6.137507557868957520e-01 3.000000000000000000e+00
3.524008560180664062e+01 -1.039177513122558949e+01 7.141599178314208984e+00 6.100000000000000000e+01
1.077910614013672053e+01 -3.180642127990723100e+00 -5.889888405799865723e-01 3.000000000000000000e+00
3.716452407836914062e+01 -1.097336483001708984e+01 8.946303367614746094e+00 1.200000000000000000e+01
2.715908241271973012e+01 -8.024267196655273438e+00 -4.943219721317291260e-01 4.000000000000000000e+00
3.837456130981445312e+01 -1.133792781829833984e+01 1.072183799743651988e+01 9.000000000000000000e+00
2.346374988555908203e+00 -6.968101263046264648e-01 -6.558474898338317871e-01 2.000000000000000000e+01
2.699129819869995117e+00 -8.025941252708435059e-01 -6.501085758209228516e-01 1.300000000000000000e+01
3.189522743225098100e+00 -9.490199089050292969e-01 -6.468424797058105469e-01 1.300000000000000000e+01
3.856339454650878906e+00 -1.148891925811768022e+00 -6.373140215873718262e-01 1.000000000000000000e+01
3.637119674682617188e+01 -1.084272480010985973e+01 4.660039901733398438e+00 2.000000000000000000e+01
5.008649826049804688e+00 -1.494095325469970925e+00 -6.417639851570129395e-01 1.100000000000000000e+01
3.646388244628906250e+01 -1.088421630859375000e+01 6.027107238769531250e+00 1.300000000000000000e+01
6.710672378540039062e+00 -2.003089189529418945e+00 -6.127048730850219727e-01 3.000000000000000000e+00
1.080621051788330078e+01 -3.229687452316284180e+00 -5.910822749137878418e-01 3.000000000000000000e+00
3.881392288208007812e+01 -1.162258529663085938e+01 1.085642337799072088e+01 9.000000000000000000e+00
2.349601745605469194e+00 -7.062554955482482910e-01 -6.574003696441650391e-01 1.900000000000000000e+01
2.702051639556885210e+00 -8.132252097129821777e-01 -6.514582633972167969e-01 1.500000000000000000e+01
3.169439554214477983e+00 -9.544963240623474121e-01 -6.434079408645629883e-01 1.300000000000000000e+01
3.869529724121094194e+00 -1.166806221008301003e+00 -6.401298046112060547e-01 1.100000000000000000e+01
3.709523010253906250e+01 -1.119264602661132990e+01 4.757535457611083984e+00 2.000000000000000000e+01
4.990365028381347656e+00 -1.506680130958556907e+00 -6.400578022003173828e-01 9.000000000000000000e+00
6.696363925933837891e+00 -2.023026943206787109e+00 -6.120076179504394531e-01 3.000000000000000000e+00
1.081455802917479936e+01 -3.271287202835083008e+00 -5.921289920806884766e-01 3.000000000000000000e+00
2.341577768325806108e+00 -7.127650976181030273e-01 -6.558474898338317871e-01 2.000000000000000000e+01
2.702924728393555132e+00 -8.237884640693664551e-01 -6.523580551147460938e-01 1.500000000000000000e+01
3.173599958419799805e+00 -9.678446650505065918e-01 -6.449344158172607422e-01 1.200000000000000000e+01
3.867322683334351030e+00 -1.180883169174193892e+00 -6.404427289962768555e-01 1.000000000000000000e+01
3.637248992919921875e+01 -1.111324501037598012e+01 4.669789314270020419e+00 2.000000000000000000e+01
4.986973762512207031e+00 -1.524670958518981934e+00 -6.403015255928039551e-01 1.100000000000000000e+01
6.710219383239746094e+00 -2.052800655364989790e+00 -6.139250397682189941e-01 5.000000000000000000e+00
1.078397655487061080e+01 -3.303167581558227983e+00 -5.910822749137878418e-01 3.000000000000000000e+00
3.895746612548828125e+01 -1.194023799896240057e+01 9.407003402709960938e+00 1.200000000000000000e+01
3.921249771118164062e+01 -1.202589130401610973e+01 1.098997402191161932e+01 1.000000000000000000e+01
2.335383176803588867e+00 -7.197964191436767578e-01 -6.548121571540832520e-01 1.900000000000000000e+01
2.711205244064331055e+00 -8.366662263870239258e-01 -6.550574898719787598e-01 1.500000000000000000e+01
3.175829648971558061e+00 -9.806544184684753418e-01 -6.460792422294616699e-01 1.200000000000000000e+01
3.863177061080933061e+00 -1.194375514984131081e+00 -6.404427289962768555e-01 1.000000000000000000e+01
5.000584602355957031e+00 -1.547939538955688032e+00 -6.427389383316040039e-01 1.100000000000000000e+01
3.582346343994141336e+01 -1.108921432495117010e+01 5.939503669738770419e+00 1.300000000000000000e+01
6.680174350738525391e+00 -2.069137096405028853e+00 -6.118333339691162109e-01 3.000000000000000000e+00
1.082960891723632990e+01 -3.358538627624512163e+00 -5.942224264144897461e-01 3.000000000000000000e+00
3.918660354614257812e+01 -1.217526340484618963e+01 1.099515056610107067e+01 1.000000000000000000e+01
2.331012248992919922e+00 -7.273685932159423828e-01 -6.542945504188537598e-01 1.900000000000000000e+01
2.704547882080078125e+00 -8.449627161026000977e-01 -6.541576385498046875e-01 1.600000000000000000e+01
3.178008794784545898e+00 -9.934915304183959961e-01 -6.472241282463073730e-01 1.200000000000000000e+01
3.853328704833983931e+00 -1.206083059310913086e+00 -6.395040750503540039e-01 1.100000000000000000e+01
3.564993667602539062e+01 -1.116518020629882990e+01 4.586918354034423828e+00 1.900000000000000000e+01
4.993256568908691406e+00 -1.564791798591613992e+00 -6.424951553344726562e-01 9.000000000000000000e+00
6.686218738555908203e+00 -2.096615552902222124e+00 -6.130535006523132324e-01 3.000000000000000000e+00
1.079876422882080078e+01 -3.390338182449340820e+00 -5.931757092475891113e-01 3.000000000000000000e+00
4.179575729370117188e+01 -1.313004779815674006e+01 1.011424922943115057e+01 1.300000000000000000e+01
1.359785366058349965e+01 -4.274344444274902344e+00 -2.488014996051788053e-01 2.000000000000000000e+00
3.909226608276367188e+01 -1.229574584960938033e+01 1.098065662384033025e+01 1.000000000000000000e+01
2.333856582641602007e+00 -7.376539111137390137e-01 -6.558474898338317871e-01 2.000000000000000000e+01
2.686569452285767046e+00 -8.501661419868469238e-01 -6.505584716796875000e-01 1.500000000000000000e+01
3.176217794418334961e+00 -1.005725502967834029e+00 -6.476057171821594238e-01 1.200000000000000000e+01
3.848882436752318892e+00 -1.220198035240172896e+00 -6.395040750503540039e-01 1.100000000000000000e+01
3.549902725219727273e+01 -1.126095485687256037e+01 4.572781562805175781e+00 1.900000000000000000e+01
4.987487792968750000e+00 -1.583082437515259011e+00 -6.424951553344726562e-01 9.000000000000000000e+00
6.695580005645751953e+00 -2.126535654067993164e+00 -6.146222949028015137e-01 2.000000000000000000e+00
3.468916702270507812e+01 -1.102404689788818004e+01 7.075197696685791016e+00 6.100000000000000000e+01
1.078626537322998047e+01 -3.429894685745238814e+00 -5.931757092475891113e-01 3.000000000000000000e+00
3.877985763549804688e+01 -1.233895206451416016e+01 9.395305633544921875e+00 1.200000000000000000e+01
3.991575241088867188e+01 -1.271571636199950994e+01 1.122498226165770951e+01 1.000000000000000000e+01
2.331267595291138139e+00 -7.457960844039916992e-01 -6.558474898338317871e-01 2.000000000000000000e+01
2.691008806228638139e+00 -8.619165420532226562e-01 -6.523580551147460938e-01 1.500000000000000000e+01
3.178296566009521040e+00 -1.018603920936584029e+00 -6.487506031990051270e-01 1.200000000000000000e+01
3.855885028839110884e+00 -1.237246990203856978e+00 -6.413813233375549316e-01 1.100000000000000000e+01
4.981931209564208984e+00 -1.600482344627379927e+00 -6.424951553344726562e-01 9.000000000000000000e+00
6.688116073608398438e+00 -2.149894714355469194e+00 -6.146222949028015137e-01 2.000000000000000000e+00
1.082746124267577947e+01 -3.484657526016234907e+00 -5.961065292358398438e-01 3.000000000000000000e+00
2.328781604766846147e+00 -7.535227537155151367e-01 -6.558474898338317871e-01 1.900000000000000000e+01
2.693697452545166016e+00 -8.726372718811035156e-01 -6.537077426910400391e-01 1.400000000000000000e+01
3.163695573806763139e+00 -1.025505781173706055e+00 -6.464608907699584961e-01 1.200000000000000000e+01
3.861155509948730025e+00 -1.253075599670409934e+00 -6.429456472396850586e-01 1.000000000000000000e+01
4.969044685363770419e+00 -1.614540576934814009e+00 -6.415202021598815918e-01 9.000000000000000000e+00
6.688529014587402344e+00 -2.174525499343872070e+00 -6.153195500373840332e-01 2.000000000000000000e+00
1.078166103363036932e+01 -3.509416341781616211e+00 -5.942224264144897461e-01 3.000000000000000000e+00
4.070851898193358664e+01 -1.326628684997558949e+01 1.147241306304931996e+01 1.100000000000000000e+01
2.318793296813964844e+00 -7.592425346374511719e-01 -6.537768840789794922e-01 2.000000000000000000e+01
2.699893951416016069e+00 -8.850699067115783691e-01 -6.559572815895080566e-01 1.500000000000000000e+01
3.163827657699584961e+00 -1.037766575813293013e+00 -6.472241282463073730e-01 1.200000000000000000e+01
3.853004455566405806e+00 -1.265313267707824929e+00 -6.423199176788330078e-01 1.000000000000000000e+01
4.982236385345458984e+00 -1.638076066970824973e+00 -6.439576148986816406e-01 9.000000000000000000e+00
6.696038722991943359e+00 -2.202840566635131836e+00 -6.167140603065490723e-01 2.000000000000000000e+00
1.086419582366943004e+01 -3.578270196914672852e+00 -5.994560718536376953e-01 3.000000000000000000e+00
4.045782089233397727e+01 -1.334881782531737926e+01 1.141547298431395951e+01 1.100000000000000000e+01
2.321630477905272993e+00 -7.691546678543090820e-01 -6.553298234939575195e-01 1.900000000000000000e+01
2.683840513229370117e+00 -8.901943564414978027e-01 -6.528079509735107422e-01 1.400000000000000000e+01
3.622474288940429688e+01 -1.202228641510009943e+01 2.000280141830443892e+00 2.100000000000000000e+01
3.171365737915039062e+00 -1.052514553070067915e+00 -6.495138406753540039e-01 1.300000000000000000e+01
3.844815015792847124e+00 -1.277509331703186035e+00 -6.416941881179809570e-01 1.000000000000000000e+01
3.883656692504882812e+01 -1.291167926788330078e+01 5.025160312652587891e+00 2.500000000000000000e+01
4.995324134826660156e+00 -1.661723256111145020e+00 -6.463949680328369141e-01 9.000000000000000000e+00
6.701541423797607422e+00 -2.230605363845825195e+00 -6.179342269897460938e-01 3.000000000000000000e+00
1.079858398437500000e+01 -3.598491668701171875e+00 -5.965252518653869629e-01 3.000000000000000000e+00
4.049396514892578125e+01 -1.350980854034424006e+01 1.143824863433838068e+01 1.100000000000000000e+01
2.333585023880004883e+00 -7.821655273437500000e-01 -6.594709157943725586e-01 2.000000000000000000e+01
2.686259269714355025e+00 -9.014171957969665527e-01 -6.541576385498046875e-01 1.500000000000000000e+01
3.176978349685668945e+00 -1.066702723503113015e+00 -6.514219045639038086e-01 1.300000000000000000e+01
3.836587429046630859e+00 -1.289663553237915039e+00 -6.410684585571289062e-01 1.100000000000000000e+01
4.989493370056152344e+00 -1.679150104522705078e+00 -6.463949680328369141e-01 9.000000000000000000e+00
6.706931591033936435e+00 -2.258435249328612837e+00 -6.191543936729431152e-01 3.000000000000000000e+00
1.083895015716552912e+01 -3.654028892517089844e+00 -5.994560718536376953e-01 3.000000000000000000e+00
4.012570571899414062e+01 -1.355058670043944957e+01 1.134817981719971058e+01 1.100000000000000000e+01
2.345476865768433061e+00 -7.952691912651062012e-01 -6.636120080947875977e-01 2.000000000000000000e+01
2.672024488449097124e+00 -9.070300459861755371e-01 -6.514582633972167969e-01 1.300000000000000000e+01
3.163940668106079102e+00 -1.074628949165344016e+00 -6.495138406753540039e-01 1.200000000000000000e+01
3.841413259506226030e+00 -1.306227684020996094e+00 -6.426327824592590332e-01 1.100000000000000000e+01
4.968568325042724609e+00 -1.691438555717468040e+00 -6.444450616836547852e-01 9.000000000000000000e+00
6.706551551818847656e+00 -2.284402608871459961e+00 -6.198516488075256348e-01 5.000000000000000000e+00
1.082612895965575994e+01 -3.691841602325439009e+00 -5.994560718536376953e-01 3.000000000000000000e+00
4.010248565673828125e+01 -1.369106388092041016e+01 1.135439109802245916e+01 1.100000000000000000e+01
2.322585582733153853e+00 -7.965576648712158203e-01 -6.579180359840393066e-01 2.100000000000000000e+01
2.685430049896239790e+00 -9.220471978187561035e-01 -6.555073857307434082e-01 1.300000000000000000e+01
3.158313512802124023e+00 -1.085028767585753950e+00 -6.491321921348571777e-01 1.200000000000000000e+01
3.846170186996459961e+00 -1.322841048240662065e+00 -6.441971063613891602e-01 1.000000000000000000e+01
4.973895549774169922e+00 -1.712649464607238992e+00 -6.459075212478637695e-01 9.000000000000000000e+00
6.694768905639648438e+00 -2.306500911712646040e+00 -6.195030212402343750e-01 5.000000000000000000e+00
1.049597454071044922e+01 -3.620202302932738814e+00 -5.818711519241333008e-01 6.000000000000000000e+00
4.028575897216796875e+01 -1.391870498657226918e+01 1.142064952850341975e+01 1.100000000000000000e+01
2.310665130615233931e+00 -8.014947175979614258e-01 -6.553298234939575195e-01 1.900000000000000000e+01
2.685877084732056108e+00 -9.326940178871154785e-01 -6.564071774482727051e-01 1.300000000000000000e+01
3.160070180892943892e+00 -1.097979784011841042e+00 -6.502770781517028809e-01 1.200000000000000000e+01
3.837797880172729048e+00 -1.334960699081420898e+00 -6.435713768005371094e-01 1.100000000000000000e+01
4.979135036468505859e+00 -1.733918190002440962e+00 -6.473699808120727539e-01 9.000000000000000000e+00
6.675388336181640625e+00 -2.325922727584838867e+00 -6.184571385383605957e-01 5.000000000000000000e+00
1.048704528808593928e+01 -3.658133745193481001e+00 -5.820804834365844727e-01 3.000000000000000000e+00
4.048742294311522727e+01 -1.413884067535400035e+01 1.149104785919188920e+01 1.100000000000000000e+01
2.318790912628173828e+00 -8.133922815322875977e-01 -6.584356427192687988e-01 2.000000000000000000e+01
2.688120841979980025e+00 -9.440008997917175293e-01 -6.577568650245666504e-01 1.400000000000000000e+01
3.159922838211060014e+00 -1.110305428504944070e+00 -6.510403156280517578e-01 1.300000000000000000e+01
3.829387664794921875e+00 -1.347037911415100098e+00 -6.429456472396850586e-01 1.000000000000000000e+01
4.969307422637938565e+00 -1.749969363212585005e+00 -6.468824744224548340e-01 9.000000000000000000e+00
6.704811573028563565e+00 -2.362452268600463867e+00 -6.219433546066284180e-01 6.000000000000000000e+00
1.081324481964110973e+01 -3.814309597015380859e+00 -6.009214520454406738e-01 3.000000000000000000e+00
4.002938842773438211e+01 -1.412799167633056996e+01 9.800217628479003906e+00 1.300000000000000000e+01
4.056647872924804688e+01 -1.433347892761229936e+01 1.152831745147705078e+01 1.100000000000000000e+01
2.319578886032104048e+00 -8.227730989456176758e-01 -6.594709157943725586e-01 1.700000000000000000e+01
2.675627470016479048e+00 -9.501178860664367676e-01 -6.555073857307434082e-01 1.500000000000000000e+01
3.157877922058105025e+00 -1.121986150741576926e+00 -6.514219045639038086e-01 1.200000000000000000e+01
3.824662208557128906e+00 -1.360396862030029075e+00 -6.429456472396850586e-01 1.000000000000000000e+01
4.981869220733642578e+00 -1.773963809013366921e+00 -6.493198871612548828e-01 9.000000000000000000e+00
6.698401451110839844e+00 -2.386510848999022993e+00 -6.221176981925964355e-01 3.000000000000000000e+00
1.084877490997313920e+01 -3.869476795196533203e+00 -6.036429405212402344e-01 3.000000000000000000e+00
2.327603340148925781e+00 -8.347779512405395508e-01 -6.625767350196838379e-01 2.000000000000000000e+01
2.672294616699219194e+00 -9.594517946243286133e-01 -6.555073857307434082e-01 1.500000000000000000e+01
3.148399114608765093e+00 -1.131011128425597922e+00 -6.502770781517028809e-01 1.300000000000000000e+01
3.827325582504272017e+00 -1.376412987709044966e+00 -6.441971063613891602e-01 1.000000000000000000e+01
4.960704803466796875e+00 -1.785963535308837891e+00 -6.473699808120727539e-01 9.000000000000000000e+00
6.712523937225341797e+00 -2.417980670928955078e+00 -6.242094039916992188e-01 3.000000000000000000e+00
1.088029384613036932e+01 -3.923583269119263139e+00 -6.061550378799438477e-01 3.000000000000000000e+00
4.090149307250977273e+01 -1.477384471893311080e+01 1.165255069732666016e+01 1.100000000000000000e+01
2.317410707473754883e+00 -8.402636647224426270e-01 -6.605061888694763184e-01 1.800000000000000000e+01
2.674424648284912109e+00 -9.707687497138977051e-01 -6.568570733070373535e-01 1.400000000000000000e+01
3.135205507278441939e+00 -1.138643383979796919e+00 -6.483689546585083008e-01 1.200000000000000000e+01
3.829923629760742188e+00 -1.392464399337768999e+00 -6.454486250877380371e-01 1.000000000000000000e+01
4.967497825622558594e+00 -1.808021306991576926e+00 -6.490761041641235352e-01 1.100000000000000000e+01
6.715275287628173828e+00 -2.445487737655640093e+00 -6.252552866935729980e-01 3.000000000000000000e+00
1.081399059295653942e+01 -3.942384243011475053e+00 -6.032242178916931152e-01 3.000000000000000000e+00
4.061154937744141336e+01 -1.481351089477539062e+01 9.980178833007812500e+00 1.300000000000000000e+01
4.090308761596679688e+01 -1.492794322967528942e+01 1.166704463958740057e+01 1.100000000000000000e+01
2.299952745437622070e+00 -8.430290222167968750e-01 -6.563650965690612793e-01 1.900000000000000000e+01
2.676508188247681108e+00 -9.821121692657470703e-01 -6.582067608833312988e-01 1.500000000000000000e+01
3.136740684509276900e+00 -1.151610136032104048e+00 -6.495138406753540039e-01 1.200000000000000000e+01
