-5.913541793823242188e+00 -1.738207221031188965e+00 -7.568086385726928711e-01 7.000000000000000000e+00
-8.965503692626953125e+00 -2.633591175079346147e+00 -8.175208568572998047e-01 3.000000000000000000e+00
-1.673287391662598012e+01 -4.908889293670654297e+00 -9.138904809951782227e-01 1.100000000000000000e+01
-2.546467304229735884e+00 -7.422274947166442871e-01 -7.107170820236206055e-01 2.100000000000000000e+01
-2.976885080337523970e+00 -8.665555715560913086e-01 -7.157942652702331543e-01 1.400000000000000000e+01
-3.534580230712891069e+00 -1.028228521347045898e+00 -7.155337333679199219e-01 1.200000000000000000e+01
-4.444534301757813388e+00 -1.291256666183471902e+00 -7.330518960952758789e-01 1.200000000000000000e+01
-5.925292491912841797e+00 -1.719213962554932085e+00 -7.575398683547973633e-01 7.000000000000000000e+00
-8.959333419799804688e+00 -2.597840785980225053e+00 -8.161263465881347656e-01 3.000000000000000000e+00
-1.665398406982421875e+01 -4.822673797607421875e+00 -9.086568951606750488e-01 5.000000000000000000e+00
-2.545329570770264116e+00 -7.322659492492675781e-01 -7.096818089485168457e-01 2.100000000000000000e+01
-2.976145744323730025e+00 -8.550827503204345703e-01 -7.148944735527038574e-01 1.400000000000000000e+01
-3.541921854019165039e+00 -1.016967892646789995e+00 -7.162969708442687988e-01 1.100000000000000000e+01
-4.445217132568359375e+00 -1.274645447731018066e+00 -7.324261665344238281e-01 1.200000000000000000e+01
-5.940799713134765625e+00 -1.701252818107604980e+00 -7.587585449218750000e-01 7.000000000000000000e+00
-8.960684776306152344e+00 -2.564358234405518022e+00 -8.154291510581970215e-01 1.000000000000000000e+00
-1.663615036010741832e+01 -4.754631996154785156e+00 -9.067727923393249512e-01 1.100000000000000000e+01
-2.542294979095458984e+00 -7.217937707901000977e-01 -7.081289291381835938e-01 2.300000000000000000e+01
-2.977237462997436968e+00 -8.441572785377502441e-01 -7.144445776939392090e-01 1.500000000000000000e+01
-3.547339200973511186e+00 -1.005133271217345969e+00 -7.166785597801208496e-01 1.200000000000000000e+01
-4.438234806060791016e+00 -1.255893826484679954e+00 -7.305489778518676758e-01 1.200000000000000000e+01
-5.937150478363037109e+00 -1.677806019783020020e+00 -7.575398683547973633e-01 7.000000000000000000e+00
-8.992590904235839844e+00 -2.539561748504639116e+00 -8.175208568572998047e-01 1.000000000000000000e+00
-1.694483184814453125e+01 -4.778936862945556641e+00 -9.226828813552856445e-01 1.100000000000000000e+01
-3.322216415405272727e+01 -9.357101440429687500e+00 -6.024570465087890625e-01 6.000000000000000000e+00
-2.546659231185913086e+00 -7.134362459182739258e-01 -7.086465358734130859e-01 2.200000000000000000e+01
-2.963275909423828125e+00 -8.290342688560485840e-01 -7.103954553604125977e-01 1.300000000000000000e+01
-3.556498289108275923e+00 -9.943305253982543945e-01 -7.178234457969665527e-01 1.200000000000000000e+01
-4.454007148742675781e+00 -1.243581175804137962e+00 -7.324261665344238281e-01 1.200000000000000000e+01
-5.952531814575195312e+00 -1.659737110137939009e+00 -7.587585449218750000e-01 7.000000000000000000e+00
-8.997562408447265625e+00 -2.507086753845214844e+00 -8.171722292900085449e-01 1.000000000000000000e+00
-1.671896743774414062e+01 -4.652295589447020596e+00 -9.094942212104797363e-01 5.000000000000000000e+00
-2.554720163345336914e+00 -7.060862779617309570e-01 -7.101994752883911133e-01 2.000000000000000000e+01
-2.977422714233397993e+00 -8.217963576316833496e-01 -7.130948305130004883e-01 1.400000000000000000e+01
-3.558054924011230025e+00 -9.813879728317260742e-01 -7.174417972564697266e-01 1.100000000000000000e+01
-4.431658744812011719e+00 -1.220682263374329057e+00 -7.280460000038146973e-01 1.100000000000000000e+01
-5.933406829833984375e+00 -1.632104516029357910e+00 -7.555899024009704590e-01 5.000000000000000000e+00
-8.963994026184082031e+00 -2.464046239852904829e+00 -8.133373856544494629e-01 1.000000000000000000e+00
-1.692000198364258168e+01 -4.644662857055664062e+00 -9.195427298545837402e-01 5.000000000000000000e+00
-2.545986413955688032e+00 -6.941155195236206055e-01 -7.070936560630798340e-01 1.900000000000000000e+01
-4.513766860961914062e+01 -1.229747867584229049e+01 8.165981173515319824e-01 5.400000000000000000e+01
-2.980273246765137163e+00 -8.113982081413269043e-01 -7.130948305130004883e-01 1.400000000000000000e+01
-4.516019439697266336e+01 -1.228668308258056996e+01 2.452776908874512163e+00 3.900000000000000000e+01
-3.544409513473511186e+00 -9.643234014511108398e-01 -7.140072584152221680e-01 1.200000000000000000e+01
-4.447330474853515625e+00 -1.208312988281250000e+00 -7.299231886863708496e-01 1.100000000000000000e+01
-5.942899703979492188e+00 -1.612422704696655051e+00 -7.560774087905883789e-01 7.000000000000000000e+00
-8.949464797973632812e+00 -2.426484584808350053e+00 -8.112456798553466797e-01 3.000000000000000000e+00
-1.698623466491698863e+01 -4.599143981933593750e+00 -9.222642183303833008e-01 1.100000000000000000e+01
-4.517856979370117188e+01 -1.221549510955811080e+01 -8.169122338294982910e-01 1.200000000000000000e+01
-2.546528100967406782e+00 -6.847225427627563477e-01 -7.065759897232055664e-01 2.100000000000000000e+01
-4.514556121826171875e+01 -1.213050270080566051e+01 8.159698247909545898e-01 5.400000000000000000e+01
-2.983087301254272017e+00 -8.009901642799377441e-01 -7.130948305130004883e-01 1.500000000000000000e+01
-4.516423034667968750e+01 -1.211861705780028942e+01 2.450683593750000000e+00 3.800000000000000000e+01
-3.557234764099121094e+00 -9.544891715049743652e-01 -7.159153223037719727e-01 1.200000000000000000e+01
-4.443888664245604581e+00 -1.190736413002013938e+00 -7.286717295646667480e-01 1.100000000000000000e+01
-5.938903808593750000e+00 -1.589102745056151900e+00 -7.548587322235107422e-01 7.000000000000000000e+00
-8.969429016113281250e+00 -2.398318290710449219e+00 -8.122915029525756836e-01 1.000000000000000000e+00
-1.707165336608887074e+01 -4.558372020721436435e+00 -9.260324239730834961e-01 5.000000000000000000e+00
-2.545050144195557085e+00 -6.752833127975463867e-01 -7.055407166481018066e-01 2.100000000000000000e+01
-4.513528442382813211e+01 -1.196740341186523082e+01 8.150622844696044922e-01 5.400000000000000000e+01
-2.980076074600220171e+00 -7.895961403846740723e-01 -7.117451429367065430e-01 1.400000000000000000e+01
-4.519065093994141336e+01 -1.196520233154297053e+01 2.449950695037841797e+00 3.800000000000000000e+01
-3.558482646942139116e+00 -9.421852231025695801e-01 -7.155337333679199219e-01 1.200000000000000000e+01
-4.432535171508789062e+00 -1.171953916549683061e+00 -7.261688113212585449e-01 1.100000000000000000e+01
-5.955656528472900391e+00 -1.572440385818481001e+00 -7.563211321830749512e-01 7.000000000000000000e+00
-8.969626426696777344e+00 -2.366528272628784180e+00 -8.115942478179931641e-01 1.000000000000000000e+00
-1.763517951965332031e+01 -4.646246910095214844e+00 -9.557592272758483887e-01 1.200000000000000000e+01
-2.558605670928955078e+00 -6.693288087844848633e-01 -7.086465358734130859e-01 2.100000000000000000e+01
-4.511487197875977273e+01 -1.179359531402588068e+01 8.139453530311584473e-01 5.300000000000000000e+01
-2.973386764526367188e+00 -7.767263054847717285e-01 -7.094956040382385254e-01 1.500000000000000000e+01
-4.516643905639647727e+01 -1.179023265838623047e+01 2.446391820907593218e+00 3.800000000000000000e+01
-3.567448616027832031e+00 -9.312456846237182617e-01 -7.166785597801208496e-01 1.200000000000000000e+01
-4.436598777770996094e+00 -1.156474351882935014e+00 -7.261688113212585449e-01 1.100000000000000000e+01
-5.949582576751708984e+00 -1.548641443252563032e+00 -7.548587322235107422e-01 7.000000000000000000e+00
-8.946981430053710938e+00 -2.327179431915283203e+00 -8.088052868843078613e-01 1.000000000000000000e+00
-1.775761222839355113e+01 -4.612275600433349609e+00 -9.615162014961242676e-01 1.900000000000000000e+01
-3.375774383544921875e+01 -8.755494117736816406e+00 -6.087399125099182129e-01 6.000000000000000000e+00
-2.555314540863037109e+00 -6.589463353157043457e-01 -7.070936560630798340e-01 1.900000000000000000e+01
-4.514801788330078125e+01 -1.163404655456542969e+01 8.138056993484497070e-01 5.300000000000000000e+01
-2.970418214797974077e+00 -7.648846507072448730e-01 -7.081459164619445801e-01 1.400000000000000000e+01
-4.513768386840820312e+01 -1.161458301544188920e+01 2.442623853683472124e+00 3.800000000000000000e+01
-3.561170816421508789e+00 -9.163410663604736328e-01 -7.147704958915710449e-01 1.200000000000000000e+01
-4.448261737823486328e+00 -1.142947077751159890e+00 -7.274202704429626465e-01 1.100000000000000000e+01
-5.947260856628417969e+00 -1.525890707969665971e+00 -7.538837790489196777e-01 7.000000000000000000e+00
-8.989789009094238281e+00 -2.304841041564940962e+00 -8.119428753852844238e-01 1.000000000000000000e+00
-1.780649566650390980e+01 -4.558682918548583984e+00 -9.632956385612487793e-01 6.000000000000000000e+00
-2.555726766586304155e+00 -6.495467424392700195e-01 -7.065759897232055664e-01 2.100000000000000000e+01
-4.515346527099608664e+01 -1.146751976013183949e+01 8.131774067878723145e-01 5.300000000000000000e+01
-2.980625629425048828e+00 -7.564287185668945312e-01 -7.099454998970031738e-01 1.400000000000000000e+01
-4.515859222412108664e+01 -1.145204257965088068e+01 2.441576957702637163e+00 3.800000000000000000e+01
-3.558638811111450195e+00 -9.024569392204284668e-01 -7.136256694793701172e-01 1.200000000000000000e+01
-4.457969188690186435e+00 -1.128867506980895996e+00 -7.283588647842407227e-01 1.200000000000000000e+01
-5.941003799438476562e+00 -1.502201914787292036e+00 -7.524213194847106934e-01 5.000000000000000000e+00
-8.963009834289550781e+00 -2.264661312103271040e+00 -8.088052868843078613e-01 1.000000000000000000e+00
-1.795786094665526988e+01 -4.530700206756591797e+00 -9.706226587295532227e-01 6.000000000000000000e+00
-2.550371170043944868e+00 -6.391894817352294922e-01 -7.045054435729980469e-01 2.100000000000000000e+01
-4.516020965576171875e+01 -1.130994987487792969e+01 8.126189708709716797e-01 5.300000000000000000e+01
-2.990679264068603960e+00 -7.484328150749206543e-01 -7.117451429367065430e-01 1.300000000000000000e+01
-4.518469619750977273e+01 -1.129932117462158025e+01 2.440948963165283203e+00 3.800000000000000000e+01
-3.563516378402709961e+00 -8.911273479461669922e-01 -7.140072584152221680e-01 1.200000000000000000e+01
-4.444438934326171875e+00 -1.109771132469177024e+00 -7.255430221557617188e-01 1.100000000000000000e+01
-5.951731204986572266e+00 -1.483933210372925027e+00 -7.531525492668151855e-01 5.000000000000000000e+00
-8.927937507629394531e+00 -2.224329948425292969e+00 -8.049704432487487793e-01 2.000000000000000000e+00
-1.812784194946289062e+01 -4.509697914123535156e+00 -9.789963960647583008e-01 6.000000000000000000e+00
-2.554462194442749023e+00 -6.307462453842163086e-01 -7.050230503082275391e-01 2.300000000000000000e+01
-4.512563705444335938e+01 -1.113403892517090021e+01 8.112925887107849121e-01 5.300000000000000000e+01
-2.989489555358887163e+00 -7.370558381080627441e-01 -7.108453512191772461e-01 1.400000000000000000e+01
-4.521222686767578125e+01 -1.113866233825683949e+01 2.440320968627930132e+00 3.800000000000000000e+01
-3.568511724472045898e+00 -8.791525959968566895e-01 -7.143889069557189941e-01 1.100000000000000000e+01
-4.452122211456298828e+00 -1.095194101333617942e+00 -7.261688113212585449e-01 1.100000000000000000e+01
-5.966513633728027344e+00 -1.465516328811645952e+00 -7.543712258338928223e-01 7.000000000000000000e+00
-8.939517974853515625e+00 -2.194101810455321822e+00 -8.053190708160400391e-01 2.000000000000000000e+00
-1.841117286682128906e+01 -4.511997222900390625e+00 -9.934411048889160156e-01 6.000000000000000000e+00
-3.405783462524414062e+01 -8.333899497985839844e+00 -6.120209693908691406e-01 7.000000000000000000e+00
-2.560511350631713867e+00 -6.222919225692749023e-01 -7.060583829879760742e-01 2.000000000000000000e+01
-4.515448379516602273e+01 -1.096573925018311080e+01 8.110831379890441895e-01 5.300000000000000000e+01
-2.984595775604248047e+00 -7.242556810379028320e-01 -7.090457081794738770e-01 1.400000000000000000e+01
-4.519451904296875000e+01 -1.095875644683838068e+01 2.437180757522583008e+00 3.800000000000000000e+01
-3.575525760650635210e+00 -8.669927120208740234e-01 -7.151521444320678711e-01 1.100000000000000000e+01
-4.440747261047363281e+00 -1.075150251388550027e+00 -7.236658334732055664e-01 1.100000000000000000e+01
-5.944831848144531250e+00 -1.437107920646667036e+00 -7.509589195251464844e-01 7.000000000000000000e+00
-8.951373100280761719e+00 -2.162257909774779829e+00 -8.056676983833312988e-01 3.000000000000000000e+00
-1.766260147094726918e+01 -4.259982585906982422e+00 -9.522004127502441406e-01 6.000000000000000000e+00
-3.404149246215820312e+01 -8.197778701782226562e+00 -6.111832857131958008e-01 7.000000000000000000e+00
-2.570183038711547852e+00 -6.151489615440368652e-01 -7.081289291381835938e-01 2.000000000000000000e+01
-4.513414001464843750e+01 -1.079409980773925959e+01 8.100360035896301270e-01 5.300000000000000000e+01
-2.989001035690308061e+00 -7.142860293388366699e-01 -7.094956040382385254e-01 1.300000000000000000e+01
-4.521695327758789062e+01 -1.079722023010254084e+01 2.436343431472777876e+00 3.800000000000000000e+01
-3.572801828384398970e+00 -8.531385660171508789e-01 -7.140072584152221680e-01 1.200000000000000000e+01
-4.456002235412597656e+00 -1.062391400337219016e+00 -7.255430221557617188e-01 1.100000000000000000e+01
-5.945950031280517578e+00 -1.415428400039673074e+00 -7.504714131355285645e-01 7.000000000000000000e+00
-8.970496177673339844e+00 -2.133764743804932085e+00 -8.067135810852050781e-01 3.000000000000000000e+00
-1.792220878601073863e+01 -4.256452083587645596e+00 -9.653890728950500488e-01 1.300000000000000000e+01
-3.401152801513671875e+01 -8.065060615539550781e+00 -6.101361513137817383e-01 7.000000000000000000e+00
-2.559046983718872070e+00 -6.035184860229492188e-01 -7.045054435729980469e-01 2.200000000000000000e+01
-4.516968536376953125e+01 -1.064437007904052912e+01 8.100360035896301270e-01 5.300000000000000000e+01
-2.998940706253052202e+00 -7.061567902565002441e-01 -7.112952470779418945e-01 1.600000000000000000e+01
-4.517085647583007812e+01 -1.062800407409667969e+01 2.431947231292725053e+00 3.800000000000000000e+01
-3.556500434875487837e+00 -8.367896080017089844e-01 -7.101910710334777832e-01 1.200000000000000000e+01
-4.449885845184326172e+00 -1.045350193977355957e+00 -7.239786982536315918e-01 1.200000000000000000e+01
-5.952543258666992188e+00 -1.396156430244446023e+00 -7.507151365280151367e-01 9.000000000000000000e+00
-8.938725471496582031e+00 -2.094913244247436968e+00 -8.032273054122924805e-01 1.000000000000000000e+00
-1.799845695495605113e+01 -4.211558341979979581e+00 -9.687385559082031250e-01 1.900000000000000000e+01
-3.412376785278320312e+01 -7.972246646881104404e+00 -6.116719245910644531e-01 7.000000000000000000e+00
-2.557374477386475053e+00 -5.937082767486572266e-01 -7.034701704978942871e-01 2.200000000000000000e+01
-4.513644027709960938e+01 -1.047036647796631037e+01 8.087794184684753418e-01 5.300000000000000000e+01
-2.993793725967406782e+00 -6.939241290092468262e-01 -7.094956040382385254e-01 1.500000000000000000e+01
-4.517654800415039062e+01 -1.046305370330811080e+01 2.430272579193114790e+00 3.800000000000000000e+01
-3.570875644683837891e+00 -8.270277976989746094e-01 -7.124807834625244141e-01 1.200000000000000000e+01
-4.451582908630371094e+00 -1.029365777969359907e+00 -7.236658334732055664e-01 1.100000000000000000e+01
-5.963183403015136719e+00 -1.376709342002869096e+00 -7.514463663101196289e-01 7.000000000000000000e+00
-8.965397834777832031e+00 -2.068177223205565962e+00 -8.049704432487487793e-01 1.000000000000000000e+00
-1.834781265258789062e+01 -4.225808620452880859e+00 -9.867421388626098633e-01 2.000000000000000000e+01
-3.424493026733397727e+01 -7.874594211578369141e+00 -6.133473515510559082e-01 1.400000000000000000e+01
-2.559533357620238814e+00 -5.843310952186584473e-01 -7.034701704978942871e-01 1.900000000000000000e+01
-4.512382507324218750e+01 -1.029329967498778942e+01 8.078718781471252441e-01 5.200000000000000000e+01
-3.000117063522338867e+00 -6.838127970695495605e-01 -7.103954553604125977e-01 1.500000000000000000e+01
-4.518942642211914062e+01 -1.029996776580811080e+01 2.429016351699829102e+00 3.800000000000000000e+01
-3.583453893661499023e+00 -8.161141276359558105e-01 -7.143889069557189941e-01 1.200000000000000000e+01
-4.443768501281738281e+00 -1.010415077209473100e+00 -7.217886447906494141e-01 1.100000000000000000e+01
-5.968189239501953125e+00 -1.354843974113463911e+00 -7.514463663101196289e-01 7.000000000000000000e+00
-8.937943458557128906e+00 -2.027370214462279829e+00 -8.018328547477722168e-01 2.000000000000000000e+00
-1.842551040649414062e+01 -4.172647953033447266e+00 -9.900916218757629395e-01 1.300000000000000000e+01
-3.429306793212891336e+01 -7.753437519073486328e+00 -6.136963963508605957e-01 7.000000000000000000e+00
-2.563442230224608931e+00 -5.758164525032043457e-01 -7.039877772331237793e-01 1.900000000000000000e+01
-4.513216400146483664e+01 -1.012959480285645064e+01 8.073832392692565918e-01 5.200000000000000000e+01
-2.994879722595214844e+00 -6.716305613517761230e-01 -7.085958123207092285e-01 1.500000000000000000e+01
-4.518009948730468750e+01 -1.012378978729248047e+01 2.426504373550415039e+00 3.700000000000000000e+01
-3.580533742904663086e+00 -8.023127317428588867e-01 -7.132440209388732910e-01 1.200000000000000000e+01
-4.451123714447020596e+00 -9.957597851753234863e-01 -7.224143743515014648e-01 1.100000000000000000e+01
-5.936072349548339844e+00 -1.325781583786010964e+00 -7.468153238296508789e-01 7.000000000000000000e+00
-8.956633567810058594e+00 -1.998762369155884011e+00 -8.028786778450012207e-01 1.000000000000000000e+00
-1.852963829040526988e+01 -4.128284931182861328e+00 -9.949065446853637695e-01 1.300000000000000000e+01
-3.432382583618164062e+01 -7.634553432464599609e+00 -6.137662529945373535e-01 7.000000000000000000e+00
-2.565238714218140093e+00 -5.677603483200073242e-01 -7.039877772331237793e-01 1.600000000000000000e+01
-4.515204620361328125e+01 -9.985167503356933594e+00 8.071737885475158691e-01 5.200000000000000000e+01
-2.991266489028931108e+00 -6.609572172164916992e-01 -7.072461247444152832e-01 1.600000000000000000e+01
-4.515923309326171875e+01 -9.978489875793457031e+00 2.423782825469971147e+00 3.700000000000000000e+01
-3.569616794586182085e+00 -7.880974411964416504e-01 -7.105727195739746094e-01 1.100000000000000000e+01
-4.461946487426757812e+00 -9.834720492362976074e-01 -7.236658334732055664e-01 1.100000000000000000e+01
-5.936330795288085938e+00 -1.306273102760314941e+00 -7.463278770446777344e-01 5.000000000000000000e+00
-8.951192855834960938e+00 -1.968047380447387917e+00 -8.018328547477722168e-01 1.000000000000000000e+00
-1.866346740722655895e+01 -4.096600532531738281e+00 -1.001396179199218972e+00 7.000000000000000000e+00
-3.424216079711914062e+01 -7.503570079803466797e+00 -6.118813753128051758e-01 7.000000000000000000e+00
-2.559654235839844194e+00 -5.571590065956115723e-01 -7.019172310829162598e-01 1.700000000000000000e+01
-4.515145492553710938e+01 -9.819847106933593750e+00 8.065454959869384766e-01 5.200000000000000000e+01
-3.001172542572021040e+00 -6.521669626235961914e-01 -7.090457081794738770e-01 1.400000000000000000e+01
-4.518207931518554688e+01 -9.818248748779296875e+00 2.423154830932617188e+00 3.700000000000000000e+01
-3.568509101867675781e+00 -7.747992873191833496e-01 -7.098094820976257324e-01 1.100000000000000000e+01
-4.457630157470703125e+00 -9.662171006202697754e-01 -7.224143743515014648e-01 1.100000000000000000e+01
-5.944734573364257812e+00 -1.286383152008057085e+00 -7.468153238296508789e-01 9.000000000000000000e+00
-8.934638977050781250e+00 -1.931737422943115012e+00 -7.997410893440246582e-01 1.000000000000000000e+00
-3.421731948852539062e+01 -7.373045444488525391e+00 -6.109738349914550781e-01 7.000000000000000000e+00
-2.557996273040771040e+00 -5.465192794799804688e-01 -7.008819580078125000e-01 1.900000000000000000e+01
-4.515362548828125000e+01 -9.638891220092773438e+00 8.059172034263610840e-01 5.200000000000000000e+01
-3.005560398101807085e+00 -6.410449743270874023e-01 -7.094956040382385254e-01 1.500000000000000000e+01
-4.517815399169921875e+01 -9.627639770507812500e+00 2.420851945877075195e+00 3.700000000000000000e+01
-3.573377847671508789e+00 -7.615006566047668457e-01 -7.101910710334777832e-01 1.200000000000000000e+01
-4.457442760467529297e+00 -9.482718706130981445e-01 -7.217886447906494141e-01 1.100000000000000000e+01
-5.970989704132080078e+00 -1.268083810806273970e+00 -7.494964599609375000e-01 1.100000000000000000e+01
-8.961481094360351562e+00 -1.901552319526671919e+00 -8.014842271804809570e-01 1.000000000000000000e+00
-3.415929412841796875e+01 -7.223402976989746094e+00 -6.094380617141723633e-01 7.000000000000000000e+00
-2.556107282638549805e+00 -5.367928147315979004e-01 -6.998466849327087402e-01 2.000000000000000000e+01
-4.515176773071289062e+01 -9.473825454711914062e+00 8.052889108657836914e-01 5.200000000000000000e+01
-3.000150680541992188e+00 -6.289503574371337891e-01 -7.076960206031799316e-01 1.500000000000000000e+01
-4.520983123779296875e+01 -9.477770805358886719e+00 2.420851945877075195e+00 3.700000000000000000e+01
-3.576014280319213867e+00 -7.490226030349731445e-01 -7.101910710334777832e-01 1.200000000000000000e+01
-4.449124336242675781e+00 -9.302809834480285645e-01 -7.199113965034484863e-01 1.100000000000000000e+01
-5.969550132751464844e+00 -1.246016740798949973e+00 -7.487652301788330078e-01 9.000000000000000000e+00
-8.905650138854980469e+00 -1.857243180274962935e+00 -7.959062457084655762e-01 1.000000000000000000e+00
-3.435267639160156250e+01 -7.139112472534179688e+00 -6.124398708343505859e-01 7.000000000000000000e+00
-2.565440893173218218e+00 -5.298765301704406738e-01 -7.019172310829162598e-01 1.900000000000000000e+01
-4.516335296630858664e+01 -9.320003509521484375e+00 8.049398660659790039e-01 5.200000000000000000e+01
-2.986951112747191939e+00 -6.158499121665954590e-01 -7.040967941284179688e-01 1.500000000000000000e+01
-4.519993591308593750e+01 -9.319327354431152344e+00 2.418653964996337891e+00 3.700000000000000000e+01
-3.586169958114624023e+00 -7.387444376945495605e-01 -7.117175459861755371e-01 1.200000000000000000e+01
-4.452185153961181641e+00 -9.155220389366149902e-01 -7.199113965034484863e-01 1.100000000000000000e+01
-5.961981773376464844e+00 -1.223819136619568093e+00 -7.473028302192687988e-01 1.100000000000000000e+01
-8.931277275085449219e+00 -1.831703543663024902e+00 -7.976493835449218750e-01 1.000000000000000000e+00
-3.427428436279296875e+01 -7.004335403442382812e+00 -6.106247901916503906e-01 7.000000000000000000e+00
-2.563488245010375977e+00 -5.201499462127685547e-01 -7.008819580078125000e-01 1.700000000000000000e+01
-4.517601394653320312e+01 -9.158324241638183594e+00 8.045908212661743164e-01 5.200000000000000000e+01
-2.998632431030272993e+00 -6.073539853096008301e-01 -7.063463330268859863e-01 1.300000000000000000e+01
-4.518520736694335938e+01 -9.151978492736816406e+00 2.416141748428345171e+00 3.700000000000000000e+01
-3.579105615615845171e+00 -7.242749333381652832e-01 -7.098094820976257324e-01 1.300000000000000000e+01
-4.466971397399902344e+00 -9.023221731185913086e-01 -7.217886447906494141e-01 1.100000000000000000e+01
-5.946758270263671875e+00 -1.199076771736145020e+00 -7.448654174804687500e-01 9.000000000000000000e+00
-8.941523551940917969e+00 -1.801303386688231978e+00 -7.979979515075683594e-01 2.000000000000000000e+00
-3.431028747558593750e+01 -6.887014389038085938e+00 -6.108342409133911133e-01 1.400000000000000000e+01
-2.561409950256348100e+00 -5.108904838562011719e-01 -6.998466849327087402e-01 2.000000000000000000e+01
-4.516691207885742188e+01 -9.000648498535156250e+00 8.038927316665649414e-01 5.200000000000000000e+01
-3.002541065216064009e+00 -5.977873802185058594e-01 -7.067962288856506348e-01 1.500000000000000000e+01
-4.518788528442382812e+01 -8.996628761291503906e+00 2.414676427841186968e+00 3.700000000000000000e+01
-3.573785543441772017e+00 -7.108701467514038086e-01 -7.082830071449279785e-01 1.300000000000000000e+01
-4.473814010620117188e+00 -8.882735967636108398e-01 -7.224143743515014648e-01 1.100000000000000000e+01
-5.937071323394775391e+00 -1.176648616790771040e+00 -7.431592345237731934e-01 1.100000000000000000e+01
-8.923994064331054688e+00 -1.766998410224914995e+00 -7.959062457084655762e-01 2.000000000000000000e+00
-3.436825180053710938e+01 -6.780166149139404297e+00 -6.114625334739685059e-01 7.000000000000000000e+00
-2.559386014938354048e+00 -5.012038946151733398e-01 -6.988114118576049805e-01 1.900000000000000000e+01
-4.516665649414063211e+01 -8.836788177490234375e+00 8.033342957496643066e-01 5.200000000000000000e+01
-3.012259721755981001e+00 -5.887982845306396484e-01 -7.085958123207092285e-01 1.500000000000000000e+01
-4.521901321411132812e+01 -8.838838577270507812e+00 2.414676427841186968e+00 3.700000000000000000e+01
-3.587806224822998047e+00 -7.006486654281616211e-01 -7.105727195739746094e-01 1.300000000000000000e+01
-4.459437370300292969e+00 -8.692502379417419434e-01 -7.195985317230224609e-01 1.100000000000000000e+01
-5.952833652496337891e+00 -1.158191919326782005e+00 -7.446216940879821777e-01 1.100000000000000000e+01
-8.894904136657714844e+00 -1.728994131088257058e+00 -7.927686572074890137e-01 2.000000000000000000e+00
-3.439956283569335938e+01 -6.661678314208984375e+00 -6.116021275520324707e-01 1.400000000000000000e+01
-2.565000295639038086e+00 -4.925484955310822088e-01 -6.998466849327087402e-01 1.900000000000000000e+01
-4.517124557495117188e+01 -8.665910720825195312e+00 8.028455972671508789e-01 5.200000000000000000e+01
-3.002914190292357954e+00 -5.755528807640075684e-01 -7.058964371681213379e-01 1.600000000000000000e+01
-4.521338653564453125e+01 -8.657632827758789062e+00 2.412582874298096147e+00 3.700000000000000000e+01
-3.582637310028076172e+00 -6.860171556472778320e-01 -7.090462446212768555e-01 1.400000000000000000e+01
-4.454832553863525391e+00 -8.514164686203002930e-01 -7.183470726013183594e-01 1.100000000000000000e+01
-5.941439151763916016e+00 -1.133390188217163086e+00 -7.426717877388000488e-01 1.100000000000000000e+01
-8.881609916687011719e+00 -1.692651152610779031e+00 -7.910255193710327148e-01 1.000000000000000000e+00
-3.446696853637695312e+01 -6.543758392333984375e+00 -6.123700141906738281e-01 7.000000000000000000e+00
-2.566704034805297852e+00 -4.835919737815856934e-01 -6.998466849327087402e-01 1.900000000000000000e+01
-4.516191482543945312e+01 -8.500782012939453125e+00 8.021475076675415039e-01 5.100000000000000000e+01
-2.997244119644165039e+00 -5.636266469955444336e-01 -7.040967941284179688e-01 1.500000000000000000e+01
-4.519622421264647727e+01 -8.490905761718750000e+00 2.410070896148682085e+00 3.700000000000000000e+01
-3.598516702651977983e+00 -6.760446429252624512e-01 -7.117175459861755371e-01 1.300000000000000000e+01
-4.459718704223632812e+00 -8.362250328063964844e-01 -7.186599373817443848e-01 1.000000000000000000e+01
-5.951212882995604581e+00 -1.113739252090454102e+00 -7.434030175209045410e-01 9.000000000000000000e+00
-8.899214744567871094e+00 -1.663835167884827104e+00 -7.920714020729064941e-01 1.000000000000000000e+00
-3.439523696899414062e+01 -6.405832290649414062e+00 -6.106945872306823730e-01 1.400000000000000000e+01
-2.575975179672241211e+00 -4.760338068008422852e-01 -7.019172310829162598e-01 2.000000000000000000e+01
-4.520311355590820312e+01 -8.345264434814453125e+00 8.023569583892822266e-01 5.100000000000000000e+01
-3.001109838485718218e+00 -5.535143017768859863e-01 -7.045466899871826172e-01 1.600000000000000000e+01
-4.520594406127929688e+01 -8.329470634460449219e+00 2.409024000167847124e+00 3.700000000000000000e+01
-3.585408449172974077e+00 -6.606333255767822266e-01 -7.086645960807800293e-01 1.300000000000000000e+01
-4.454839229583740234e+00 -8.192235231399536133e-01 -7.174084782600402832e-01 1.000000000000000000e+01
-5.939444541931152344e+00 -1.090092062950134055e+00 -7.414531111717224121e-01 9.000000000000000000e+00
-8.893209457397460938e+00 -1.630605101585387962e+00 -7.910255193710327148e-01 2.000000000000000000e+00
-3.439771652221679688e+01 -6.282138824462890625e+00 -6.103455424308776855e-01 1.400000000000000000e+01
-2.575720310211182085e+00 -4.666946530342102051e-01 -7.013996243476867676e-01 2.100000000000000000e+01
-4.515719604492188211e+01 -8.173890113830566406e+00 8.010305762290954590e-01 5.100000000000000000e+01
-2.999188423156737837e+00 -5.423415899276733398e-01 -7.036468982696533203e-01 1.700000000000000000e+01
-4.523081207275391336e+01 -8.170911788940429688e+00 2.408814668655395952e+00 3.700000000000000000e+01
-3.579964876174927202e+00 -6.467178463935852051e-01 -7.071381211280822754e-01 1.300000000000000000e+01
-4.463503837585449219e+00 -8.047197461128234863e-01 -7.183470726013183594e-01 1.100000000000000000e+01
-5.933444976806640625e+00 -1.067595243453979048e+00 -7.402343750000000000e-01 9.000000000000000000e+00
-8.867471694946289062e+00 -1.593912363052367942e+00 -7.882365584373474121e-01 1.000000000000000000e+00
-3.446667861938477273e+01 -6.170487403869628906e+00 -6.111832857131958008e-01 7.000000000000000000e+00
-2.558233261108397993e+00 -4.547694921493530273e-01 -6.962232589721679688e-01 1.900000000000000000e+01
-4.514861297607421875e+01 -8.017805099487304688e+00 8.004022836685180664e-01 5.100000000000000000e+01
-3.006726741790771040e+00 -5.334141850471496582e-01 -7.049965858459472656e-01 1.500000000000000000e+01
-4.522226333618164062e+01 -8.014601707458496094e+00 2.406930685043334961e+00 3.700000000000000000e+01
-3.584022760391234907e+00 -6.351853013038635254e-01 -7.075197696685791016e-01 1.300000000000000000e+01
-4.462257385253906250e+00 -7.892256975173950195e-01 -7.177213430404663086e-01 1.100000000000000000e+01
-5.934997558593750000e+00 -1.047568321228026900e+00 -7.399906516075134277e-01 9.000000000000000000e+00
-8.857011795043945312e+00 -1.561730146408081055e+00 -7.868420481681823730e-01 2.000000000000000000e+00
-3.432544708251953125e+01 -6.027796745300292969e+00 -6.083210706710815430e-01 6.000000000000000000e+00
-2.561708450317382812e+00 -4.461683034896851141e-01 -6.967408657073974609e-01 2.000000000000000000e+01
-4.513692092895507812e+01 -7.853302955627441406e+00 7.997041940689086914e-01 5.100000000000000000e+01
-3.004730463027954102e+00 -5.222480893135070801e-01 -7.040967941284179688e-01 1.600000000000000000e+01
-4.524209213256835938e+01 -7.855331420898438388e+00 2.406512022018433061e+00 3.700000000000000000e+01
-3.590086698532104048e+00 -6.233425736427307129e-01 -7.082830071449279785e-01 1.200000000000000000e+01
-4.453307151794433594e+00 -7.716212272644042969e-01 -7.158440947532653809e-01 1.100000000000000000e+01
-5.956223011016845703e+00 -1.029888987541198953e+00 -7.421842813491821289e-01 1.100000000000000000e+01
-8.838850021362304688e+00 -1.526734471321105957e+00 -7.847502827644348145e-01 1.000000000000000000e+00
-3.434430694580078125e+01 -5.907602787017822266e+00 -6.082862019538879395e-01 2.000000000000000000e+01
-2.576503992080688032e+00 -4.399470686912537176e-01 -7.003643512725830078e-01 2.100000000000000000e+01
-4.517060089111328125e+01 -7.704925060272216797e+00 7.998437881469726562e-01 5.100000000000000000e+01
-2.992998361587523970e+00 -5.099897980690002441e-01 -7.009474635124206543e-01 1.300000000000000000e+01
-4.521276092529296875e+01 -7.695876121520996094e+00 2.403581142425537109e+00 3.600000000000000000e+01
-3.597940444946289062e+00 -6.124222874641418457e-01 -7.094278335571289062e-01 1.300000000000000000e+01
-4.467526435852050781e+00 -7.588340640068054199e-01 -7.177213430404663086e-01 1.100000000000000000e+01
-5.928290367126464844e+00 -1.004823923110961914e+00 -7.382844686508178711e-01 1.100000000000000000e+01
-8.855650901794433594e+00 -1.499410986900330034e+00 -7.857961654663085938e-01 2.000000000000000000e+00
-3.441695022583007812e+01 -5.802656650543212891e+00 -6.092286109924316406e-01 1.300000000000000000e+01
-2.579929351806641069e+00 -4.312692284584044855e-01 -7.008819580078125000e-01 2.000000000000000000e+01
-4.515382766723632812e+01 -7.539957523345947266e+00 7.990759015083312988e-01 5.100000000000000000e+01
-2.994760274887084961e+00 -4.995391666889191229e-01 -7.009474635124206543e-01 1.300000000000000000e+01
-4.521176910400391336e+01 -7.533411502838134766e+00 2.402115821838378906e+00 3.600000000000000000e+01
-3.574881076812744141e+00 -5.956645607948303223e-01 -7.044668197631835938e-01 1.200000000000000000e+01
-4.470148086547851562e+00 -7.432348132133483887e-01 -7.177213430404663086e-01 1.100000000000000000e+01
-5.931761741638183594e+00 -9.841242432594299316e-01 -7.382844686508178711e-01 1.100000000000000000e+01
-8.872624397277832031e+00 -1.470444440841675027e+00 -7.868420481681823730e-01 2.000000000000000000e+00
-3.437780380249022727e+01 -5.672717094421386719e+00 -6.081814765930175781e-01 1.300000000000000000e+01
-2.571959733963013139e+00 -4.202527701854705811e-01 -6.982938051223754883e-01 2.200000000000000000e+01
-4.518510818481445312e+01 -7.375053882598876953e+00 7.991456985473632812e-01 5.100000000000000000e+01
-3.006187915802001953e+00 -4.901273846626281738e-01 -7.031970024108886719e-01 1.500000000000000000e+01
-4.517993545532227273e+01 -7.358019828796386719e+00 2.398975610733031782e+00 3.600000000000000000e+01
-3.580915689468383789e+00 -5.831891298294067383e-01 -7.052300572395324707e-01 1.200000000000000000e+01
-4.476741313934326172e+00 -7.274796366691589355e-01 -7.183470726013183594e-01 1.100000000000000000e+01
-5.931409835815429688e+00 -9.617412090301513672e-01 -7.377970218658447266e-01 1.100000000000000000e+01
-8.842552185058593750e+00 -1.432181000709533913e+00 -7.837044596672058105e-01 2.000000000000000000e+00
-3.448522949218750000e+01 -5.560684680938720703e+00 -6.097172498703002930e-01 7.000000000000000000e+00
-2.567688226699829102e+00 -4.103577733039855957e-01 -6.967408657073974609e-01 2.200000000000000000e+01
-4.518292999267578125e+01 -7.212870597839354581e+00 7.986570000648498535e-01 5.100000000000000000e+01
-3.007880449295043945e+00 -4.796308577060698908e-01 -7.031970024108886719e-01 1.500000000000000000e+01
-4.520534515380858664e+01 -7.200267791748046875e+00 2.398975610733031782e+00 3.600000000000000000e+01
-3.580990791320800781e+00 -5.703770518302917480e-01 -7.048484086990356445e-01 1.300000000000000000e+01
-4.471449851989746094e+00 -7.106083035469055176e-01 -7.170956134796142578e-01 1.100000000000000000e+01
-5.932770252227783203e+00 -9.407200217247009277e-01 -7.375532388687133789e-01 1.100000000000000000e+01
-8.871111869812011719e+00 -1.405046105384827104e+00 -7.857961654663085938e-01 2.000000000000000000e+00
-3.467430496215820312e+01 -5.467058658599854404e+00 -6.127190589904785156e-01 7.000000000000000000e+00
-2.559561491012572798e+00 -3.999013304710388184e-01 -6.941526532173156738e-01 2.000000000000000000e+01
-4.514855957031250000e+01 -7.045858383178710938e+00 7.976098656654357910e-01 5.100000000000000000e+01
-3.005685329437255859e+00 -4.685281813144683838e-01 -7.022972106933593750e-01 1.200000000000000000e+01
-4.520652389526367188e+01 -7.038740634918212891e+00 2.397719383239746094e+00 3.600000000000000000e+01
-3.581020116806029829e+00 -5.575715303421020508e-01 -7.044668197631835938e-01 1.400000000000000000e+01
-4.462191581726074219e+00 -6.931763291358947754e-01 -7.152183651924133301e-01 1.100000000000000000e+01
-5.932094573974609375e+00 -9.193969368934631348e-01 -7.370657920837402344e-01 9.000000000000000000e+00
-8.844459533691406250e+00 -1.369194626808166948e+00 -7.830072045326232910e-01 2.000000000000000000e+00
-3.472875213623046875e+01 -5.351471424102783203e+00 -6.133473515510559082e-01 2.100000000000000000e+01
-2.570490360260010210e+00 -3.924220800399780273e-01 -6.967408657073974609e-01 2.100000000000000000e+01
-4.514520263671875000e+01 -6.883997440338134766e+00 7.971212267875671387e-01 5.100000000000000000e+01
-2.991890192031859907e+00 -4.556861221790314276e-01 -6.986979842185974121e-01 1.300000000000000000e+01
-4.518737792968750000e+01 -6.874289035797119141e+00 2.395416736602783203e+00 3.600000000000000000e+01
-3.594589948654174805e+00 -5.468396544456481934e-01 -7.067565321922302246e-01 1.200000000000000000e+01
-4.474349021911621094e+00 -6.790782213211059570e-01 -7.167826890945434570e-01 1.000000000000000000e+01
-5.919566154479979581e+00 -8.963069915771484375e-01 -7.351158857345581055e-01 9.000000000000000000e+00
-8.853124618530273438e+00 -1.338909268379210982e+00 -7.833558320999145508e-01 2.000000000000000000e+00
-3.474722290039063211e+01 -5.230212688446044922e+00 -6.133473515510559082e-01 1.400000000000000000e+01
-2.569933891296387163e+00 -3.831621110439301092e-01 -6.962232589721679688e-01 2.000000000000000000e+01
-4.519664764404296875e+01 -6.730493068695068359e+00 7.976098656654357910e-01 5.100000000000000000e+01
-2.999245166778564009e+00 -4.460997879505156916e-01 -7.000476717948913574e-01 1.400000000000000000e+01
-4.520714569091796875e+01 -6.715926647186279297e+00 2.395207405090332031e+00 3.600000000000000000e+01
-3.582883358001708984e+00 -5.322694182395935059e-01 -7.040851712226867676e-01 1.200000000000000000e+01
-4.464968204498291016e+00 -6.617181301116943359e-01 -7.149055004119873047e-01 1.000000000000000000e+01
-5.914803504943847656e+00 -8.744770884513854980e-01 -7.341409325599670410e-01 9.000000000000000000e+00
-8.853802680969238281e+00 -1.307415843009948953e+00 -7.830072045326232910e-01 2.000000000000000000e+00
-3.473361206054688211e+01 -5.104238510131835938e+00 -6.127889156341552734e-01 1.400000000000000000e+01
-2.576990842819213867e+00 -3.750236630439757746e-01 -6.977761387825012207e-01 2.100000000000000000e+01
-4.518029022216796875e+01 -6.566933631896972656e+00 7.969117760658264160e-01 5.100000000000000000e+01
-3.000784158706665039e+00 -4.356277585029602051e-01 -7.000476717948913574e-01 1.400000000000000000e+01
-4.521450042724608664e+01 -6.555790424346923828e+00 2.394370079040526900e+00 3.600000000000000000e+01
-3.576947689056396040e+00 -5.186327695846557617e-01 -7.025586962699890137e-01 1.300000000000000000e+01
-4.471160888671875000e+00 -6.466940045356750488e-01 -7.155312299728393555e-01 1.000000000000000000e+01
-5.921749591827392578e+00 -8.543921709060668945e-01 -7.346283793449401855e-01 9.000000000000000000e+00
-8.822815895080566406e+00 -1.271387219429015891e+00 -7.798695564270019531e-01 2.000000000000000000e+00
-3.474725723266602273e+01 -4.982397079467773438e+00 -6.127190589904785156e-01 2.100000000000000000e+01
-2.568657159805297852e+00 -3.651166558265686035e-01 -6.951879262924194336e-01 2.000000000000000000e+01
-4.518201828002929688e+01 -6.414263248443604404e+00 7.965627312660217285e-01 5.000000000000000000e+01
-3.017647743225098100e+00 -4.278629720211029053e-01 -7.036468982696533203e-01 1.400000000000000000e+01
-4.521905517578125000e+01 -6.411469936370849609e+00 2.393532514572143999e+00 3.600000000000000000e+01
-3.588367223739624023e+00 -5.081446170806884766e-01 -7.044668197631835938e-01 1.200000000000000000e+01
-4.469368934631347656e+00 -6.313109397888183594e-01 -7.149055004119873047e-01 1.000000000000000000e+01
-5.932413101196289062e+00 -8.358581066131591797e-01 -7.356033325195312500e-01 9.000000000000000000e+00
-8.834875106811523438e+00 -1.243233203887939009e+00 -7.805668115615844727e-01 2.000000000000000000e+00
-3.478339385986328125e+01 -4.869916439056395596e+00 -6.130681037902832031e-01 1.400000000000000000e+01
-2.568002462387084961e+00 -3.558829724788665771e-01 -6.946703195571899414e-01 2.100000000000000000e+01
-4.517640304565429688e+01 -6.252671718597412109e+00 7.960740923881530762e-01 5.000000000000000000e+01
-2.999819040298461914e+00 -4.146584570407866877e-01 -6.991478800773620605e-01 1.400000000000000000e+01
-4.519476699829102273e+01 -6.239135742187500000e+00 2.391020536422729048e+00 3.600000000000000000e+01
-3.590119123458861861e+00 -4.956158101558684748e-01 -7.044668197631835938e-01 1.200000000000000000e+01
-4.475459098815917969e+00 -6.162450313568115234e-01 -7.155312299728393555e-01 1.000000000000000000e+01
-5.935294628143311435e+00 -8.151450157165527344e-01 -7.356033325195312500e-01 9.000000000000000000e+00
-8.815474510192871094e+00 -1.209137320518494096e+00 -7.784751057624816895e-01 2.000000000000000000e+00
-3.479225540161132812e+01 -4.747388362884520596e+00 -6.129285097122192383e-01 7.000000000000000000e+00
-2.573057889938354048e+00 -3.474338054656981867e-01 -6.957055926322937012e-01 2.100000000000000000e+01
-4.519398880004882812e+01 -6.094403743743895596e+00 7.960042357444763184e-01 5.000000000000000000e+01
-2.989660501480102983e+00 -4.026240706443787176e-01 -6.964484453201293945e-01 1.400000000000000000e+01
-4.521916580200195312e+01 -6.089763164520263672e+00 2.391229867935181108e+00 3.600000000000000000e+01
-3.593773126602172852e+00 -4.833426177501677912e-01 -7.048484086990356445e-01 1.300000000000000000e+01
-4.473667144775390625e+00 -6.000937223434448242e-01 -7.149055004119873047e-01 1.000000000000000000e+01
-5.922363281250000000e+00 -7.923161983489990234e-01 -7.336534261703491211e-01 9.000000000000000000e+00
-8.815691947937011719e+00 -1.177830457687377930e+00 -7.781264781951904297e-01 2.000000000000000000e+00
-3.486015319824218750e+01 -4.632761001586914062e+00 -6.138360500335693359e-01 1.400000000000000000e+01
-2.580001115798950195e+00 -3.392055034637451172e-01 -6.972585320472717285e-01 1.900000000000000000e+01
-4.519515991210938211e+01 -5.934007167816162109e+00 7.956551909446716309e-01 5.000000000000000000e+01
-2.992979764938354048e+00 -3.924390971660614014e-01 -6.968983411788940430e-01 1.500000000000000000e+01
-4.520846176147460938e+01 -5.927727222442626953e+00 2.389554977416992188e+00 3.600000000000000000e+01
-3.579865217208861861e+00 -4.687559008598328192e-01 -7.017954587936401367e-01 1.200000000000000000e+01
-4.471817016601563388e+00 -5.839625000953674316e-01 -7.142797708511352539e-01 1.000000000000000000e+01
-5.917219161987304688e+00 -7.706130146980285645e-01 -7.326784729957580566e-01 9.000000000000000000e+00
-8.815797805786132812e+00 -1.146536827087401900e+00 -7.777778506278991699e-01 2.000000000000000000e+00
-1.806964492797851918e+01 -2.343630075454711914e+00 -9.549218416213989258e-01 6.000000000000000000e+00
-3.485628128051757812e+01 -4.508483409881591797e+00 -6.134870052337646484e-01 7.000000000000000000e+00
-2.577394485473632812e+00 -3.292574584484099787e-01 -6.962232589721679688e-01 2.000000000000000000e+01
-4.521263885498046875e+01 -5.767812728881835938e+00 7.955853939056396484e-01 5.000000000000000000e+01
-2.996331214904785156e+00 -3.817129135131835938e-01 -6.973482966423034668e-01 1.300000000000000000e+01
-4.517937469482421875e+01 -5.747542381286621094e+00 2.386833667755126953e+00 3.600000000000000000e+01
-3.573769092559814009e+00 -4.546408355236052912e-01 -7.002689838409423828e-01 1.300000000000000000e+01
-4.481766223907470703e+00 -5.685629844665527344e-01 -7.155312299728393555e-01 1.000000000000000000e+01
-5.920003890991210938e+00 -7.489201426506042480e-01 -7.326784729957580566e-01 1.100000000000000000e+01
-8.788313865661621094e+00 -1.110222220420836958e+00 -7.749888896942138672e-01 2.000000000000000000e+00
-1.807811164855957031e+01 -2.277385950088500977e+00 -9.549218416213989258e-01 6.000000000000000000e+00
-3.484479522705078125e+01 -4.377208709716796875e+00 -6.129983067512512207e-01 1.400000000000000000e+01
-2.567025423049927202e+00 -3.188300132751464844e-01 -6.931173801422119141e-01 2.000000000000000000e+01
-4.466096496582031250e+01 -5.539071559906005859e+00 7.855328321456909180e-01 4.900000000000000000e+01
-3.007315158843994141e+00 -3.724490106105803888e-01 -6.995977759361267090e-01 1.500000000000000000e+01
-4.473040771484375000e+01 -5.539757251739501953e+00 2.362131118774414062e+00 3.500000000000000000e+01
-3.579231023788452148e+00 -4.426452219486237127e-01 -7.010322213172912598e-01 1.200000000000000000e+01
-4.475773620605468750e+01 -5.527279376983642578e+00 3.945540428161621094e+00 5.400000000000000000e+01
-4.473920822143554688e+00 -5.517064332962036133e-01 -7.139669060707092285e-01 1.000000000000000000e+01
-5.914700984954833984e+00 -7.272818684577941895e-01 -7.317035198211669922e-01 1.100000000000000000e+01
-8.800045967102050781e+00 -1.080509781837462935e+00 -7.756860852241516113e-01 2.000000000000000000e+00
-3.483405685424804688e+01 -4.252400875091552734e+00 -6.125445365905761719e-01 2.100000000000000000e+01
-2.571904420852661133e+00 -3.107791841030120850e-01 -6.941526532173156738e-01 1.900000000000000000e+01
-4.467114639282227273e+01 -5.389981746673583984e+00 7.853931784629821777e-01 4.900000000000000000e+01
-2.998860120773314986e+00 -3.613088428974152166e-01 -6.973482966423034668e-01 1.400000000000000000e+01
-4.472870254516602273e+01 -5.389006614685058594e+00 2.361084222793579102e+00 3.500000000000000000e+01
-3.580679178237915039e+00 -4.307736158370972235e-01 -7.010322213172912598e-01 1.300000000000000000e+01
-4.479560089111328125e+01 -5.381203174591063565e+00 3.947283506393433061e+00 5.400000000000000000e+01
-4.475725650787354404e+00 -5.368673205375671387e-01 -7.139669060707092285e-01 8.000000000000000000e+00
-5.926935195922851562e+00 -7.088426351547241211e-01 -7.329222559928894043e-01 1.100000000000000000e+01
-8.760057449340820312e+00 -1.046124339103698953e+00 -7.718512415885925293e-01 2.000000000000000000e+00
-3.485988235473632812e+01 -4.138278007507324219e+00 -6.127539873123168945e-01 2.100000000000000000e+01
-2.571054935455321822e+00 -3.015746176242827814e-01 -6.936350464820861816e-01 1.900000000000000000e+01
-4.468571472167968750e+01 -5.233552455902099609e+00 7.853233814239501953e-01 4.900000000000000000e+01
-2.984618425369263139e+00 -3.490278720855712891e-01 -6.937490701675415039e-01 1.300000000000000000e+01
-4.473137283325195312e+01 -5.230985641479492188e+00 2.360246896743773970e+00 3.500000000000000000e+01
-3.589961051940917969e+00 -4.191828668117523193e-01 -7.025586962699890137e-01 1.200000000000000000e+01
-4.478244781494141336e+01 -5.221113204956054688e+00 3.944494724273682085e+00 5.400000000000000000e+01
-4.461875438690186435e+00 -5.194135308265686035e-01 -7.114639282226562500e-01 8.000000000000000000e+00
-5.923458099365234375e+00 -6.874629259109497070e-01 -7.321910262107849121e-01 9.000000000000000000e+00
-8.791363716125488281e+00 -1.018750429153441939e+00 -7.742916345596313477e-01 2.000000000000000000e+00
-3.482842254638671875e+01 -4.011306762695313388e+00 -6.119511723518371582e-01 2.100000000000000000e+01
-2.581740379333496094e+00 -2.932393252849578857e-01 -6.962232589721679688e-01 2.000000000000000000e+01
-4.471651840209960938e+01 -5.071087837219238281e+00 7.855328321456909180e-01 4.900000000000000000e+01
-2.995559453964232954e+00 -3.391826152801514227e-01 -6.959985494613647461e-01 1.300000000000000000e+01
-4.472246170043945312e+01 -5.063855648040770596e+00 2.358781576156616211e+00 3.400000000000000000e+01
-3.571965217590332031e+00 -4.038167297840117853e-01 -6.987425684928894043e-01 1.200000000000000000e+01
-4.478940200805664062e+01 -5.055601119995117188e+00 3.943448781967163086e+00 5.400000000000000000e+01
-4.475526809692382812e+00 -5.043838024139404297e-01 -7.133411765098571777e-01 1.000000000000000000e+01
-5.912128925323486328e+00 -6.641963720321655273e-01 -7.304848432540893555e-01 1.100000000000000000e+01
-8.791078567504882812e+00 -9.860774874687194824e-01 -7.739430069923400879e-01 2.000000000000000000e+00
-3.481506729125977273e+01 -3.880526065826416016e+00 -6.114625334739685059e-01 1.400000000000000000e+01
-2.573147058486938032e+00 -2.831689715385437012e-01 -6.936350464820861816e-01 1.900000000000000000e+01
-4.472202301025391336e+01 -4.913656711578369141e+00 7.853233814239501953e-01 4.900000000000000000e+01
-3.004473686218262163e+00 -3.295740783214569092e-01 -6.977981925010681152e-01 1.500000000000000000e+01
-4.472000885009766336e+01 -4.905536651611328125e+00 2.357734918594359907e+00 3.400000000000000000e+01
-3.571401357650756836e+00 -3.911320567131041925e-01 -6.983609199523925781e-01 1.300000000000000000e+01
-4.476716613769531250e+01 -4.894895076751708984e+00 3.939962625503540039e+00 5.400000000000000000e+01
