3.478712081909179688e+01 -6.033792495727539062e+00 9.460353851318359375e+00 1.400000000000000000e+01
2.384420156478881836e+00 -4.170056581497191828e-01 -6.486005187034606934e-01 1.800000000000000000e+01
2.735270023345946822e+00 -4.793490171432495117e-01 -6.411104798316955566e-01 1.200000000000000000e+01
3.227386951446533203e+00 -5.661718249320983887e-01 -6.369204521179199219e-01 1.200000000000000000e+01
3.881363391876221147e+00 -6.822938323020935059e-01 -6.241735219955444336e-01 1.000000000000000000e+01
3.845396804809570312e+01 -6.766632556915283203e+00 4.794095993041992188e+00 2.000000000000000000e+01
4.973505973815917969e+00 -8.760682344436645508e-01 -6.200712323188781738e-01 9.000000000000000000e+00
6.635891437530517578e+00 -1.170086741447448953e+00 -5.895214676856994629e-01 5.000000000000000000e+00
1.041024589538574041e+01 -1.839354395866394043e+00 -5.540284514427185059e-01 2.000000000000000000e+00
2.092336654663085938e+01 -3.704417228698730025e+00 -3.708985447883605957e-01 7.000000000000000000e+00
3.475906372070313211e+01 -6.160242080688476562e+00 9.458801269531250000e+00 7.000000000000000000e+00
2.386753559112548828e+00 -4.260051846504210871e-01 -6.496357917785644531e-01 1.700000000000000000e+01
2.737416744232178178e+00 -4.895801246166229248e-01 -6.420103311538696289e-01 1.200000000000000000e+01
3.219593286514281782e+00 -5.763961076736450195e-01 -6.357755661010742188e-01 1.200000000000000000e+01
3.877013921737670898e+00 -6.954893469810485840e-01 -6.238606572151184082e-01 1.100000000000000000e+01
3.833242034912108664e+01 -6.883278369903563565e+00 4.781909465789794922e+00 2.000000000000000000e+01
4.970417499542236328e+00 -8.934236764907836914e-01 -6.200712323188781738e-01 9.000000000000000000e+00
6.631766796112061435e+00 -1.193243145942687988e+00 -5.895214676856994629e-01 5.000000000000000000e+00
1.040769290924072088e+01 -1.876390457153320090e+00 -5.542377829551696777e-01 2.000000000000000000e+00
3.426846313476563211e+01 -6.184395313262938565e+00 8.039300918579101562e+00 1.000000000000000000e+01
2.077255821228026988e+01 -3.752546548843383789e+00 -3.684552013874053955e-01 1.000000000000000000e+01
3.528595733642578125e+01 -6.374380588531494141e+00 9.607880592346191406e+00 7.000000000000000000e+00
2.381450891494750977e+00 -4.336417615413665771e-01 -6.486005187034606934e-01 1.900000000000000000e+01
5.975621795654296875e+01 -1.089186954498291016e+01 1.060233712196350098e+00 6.100000000000000000e+01
2.745276451110839844e+00 -5.008814334869384766e-01 -6.442598104476928711e-01 1.200000000000000000e+01
3.204042434692382812e+00 -5.851620435714721680e-01 -6.331042647361755371e-01 1.100000000000000000e+01
3.893993616104125977e+00 -7.125741839408874512e-01 -6.269893646240234375e-01 1.100000000000000000e+01
4.986793994903563565e+00 -9.143483042716979980e-01 -6.225085854530334473e-01 9.000000000000000000e+00
6.639318943023681641e+00 -1.218543052673340066e+00 -5.905672907829284668e-01 5.000000000000000000e+00
1.043250942230224965e+01 -1.918488264083862083e+00 -5.559125542640686035e-01 2.000000000000000000e+00
3.428116607666016336e+01 -6.310327053070068359e+00 8.047398567199707031e+00 1.000000000000000000e+01
2.086159515380859020e+01 -3.843875885009766069e+00 -3.702702522277832031e-01 3.000000000000000000e+00
3.524069213867188211e+01 -6.493312358856201172e+00 9.601669311523437500e+00 7.000000000000000000e+00
2.372401952743529829e+00 -4.401270151138306219e-01 -6.465299725532531738e-01 1.900000000000000000e+01
5.971977233886718750e+01 -1.108996868133544922e+01 1.060233712196350098e+00 6.100000000000000000e+01
2.751264095306396040e+00 -5.114068388938903809e-01 -6.460594534873962402e-01 1.300000000000000000e+01
3.219455480575561968e+00 -5.990159511566162109e-01 -6.365388035774230957e-01 1.200000000000000000e+01
3.897434949874877930e+00 -7.265692949295043945e-01 -6.279279589653015137e-01 1.400000000000000000e+01
4.983734607696533203e+00 -9.308800697326660156e-01 -6.225085854530334473e-01 9.000000000000000000e+00
6.650909423828125000e+00 -1.243482470512389915e+00 -5.919618010520935059e-01 6.000000000000000000e+00
1.048890972137450994e+01 -1.964840888977051003e+00 -5.592620372772216797e-01 2.000000000000000000e+00
3.327172470092772727e+01 -6.238655567169188565e+00 7.815249443054199219e+00 9.000000000000000000e+00
1.977956771850585938e+01 -3.712365865707397017e+00 -3.512820303440093994e-01 1.300000000000000000e+01
2.370851278305054155e+00 -4.484055638313292902e-01 -6.465299725532531738e-01 2.000000000000000000e+01
2.741803646087646040e+00 -5.195561647415161133e-01 -6.442598104476928711e-01 1.200000000000000000e+01
3.209629535675048828e+00 -6.087868809700012207e-01 -6.350123286247253418e-01 1.100000000000000000e+01
3.883231163024901900e+00 -7.379567027091979980e-01 -6.260507106781005859e-01 1.200000000000000000e+01
4.984354972839354581e+00 -9.490134716033935547e-01 -6.229960918426513672e-01 9.000000000000000000e+00
6.658271312713623047e+00 -1.268928885459899902e+00 -5.930076837539672852e-01 6.000000000000000000e+00
1.045059776306151988e+01 -1.995448589324950950e+00 -5.575872659683227539e-01 2.000000000000000000e+00
3.345263671875000000e+01 -6.393535137176513672e+00 7.862939357757568359e+00 9.000000000000000000e+00
1.979398727416991832e+01 -3.786647081375122070e+00 -3.517706990242003839e-01 6.000000000000000000e+00
3.544116210937500000e+01 -6.786409854888916016e+00 9.668961524963378906e+00 7.000000000000000000e+00
2.382550001144409180e+00 -4.592380821704865057e-01 -6.501534581184387207e-01 1.900000000000000000e+01
2.734233140945435014e+00 -5.280151963233947754e-01 -6.429101228713989258e-01 1.300000000000000000e+01
3.222905635833739790e+00 -6.229675412178039551e-01 -6.380652785301208496e-01 1.200000000000000000e+01
3.878692150115966797e+00 -7.511316537857055664e-01 -6.257378458976745605e-01 1.100000000000000000e+01
4.979063034057617188e+00 -9.660282731056213379e-01 -6.227523684501647949e-01 1.000000000000000000e+01
3.609654617309570312e+01 -7.003382682800292969e+00 5.823742389678955078e+00 1.300000000000000000e+01
6.673359870910645419e+00 -1.295961022377013938e+00 -5.947507619857788086e-01 6.000000000000000000e+00
1.049062061309813920e+01 -2.041070222854613814e+00 -5.600994229316711426e-01 2.000000000000000000e+00
3.337656021118164062e+01 -6.499837398529052734e+00 7.850341796875000000e+00 9.000000000000000000e+00
2.081305694580078125e+01 -4.056959152221679688e+00 -3.701306283473969061e-01 1.000000000000000000e+01
2.382828235626221147e+00 -4.679242074489594061e-01 -6.506710648536682129e-01 1.700000000000000000e+01
2.734285354614257812e+00 -5.379323959350585938e-01 -6.433600187301635742e-01 1.300000000000000000e+01
3.220711231231689009e+00 -6.342138051986694336e-01 -6.380652785301208496e-01 1.200000000000000000e+01
3.883798837661743164e+00 -7.661955356597900391e-01 -6.269893646240234375e-01 1.000000000000000000e+01
3.755341339111328125e+01 -7.415344715118408203e+00 4.700013160705566406e+00 2.000000000000000000e+01
4.985397815704345703e+00 -9.853270053863525391e-01 -6.239710450172424316e-01 1.000000000000000000e+01
3.771908569335938211e+01 -7.454898357391357422e+00 6.089680671691895419e+00 1.400000000000000000e+01
6.660977363586425781e+00 -1.317700982093811035e+00 -5.940535664558410645e-01 6.000000000000000000e+00
3.512776947021483664e+01 -6.955485343933104581e+00 6.960711956024169922e+00 6.000000000000000000e+01
1.045992279052734020e+01 -2.073017597198485884e+00 -5.588433146476745605e-01 2.000000000000000000e+00
3.347217941284179688e+01 -6.639812946319580078e+00 7.878235816955566406e+00 9.000000000000000000e+00
2.034764480590819957e+01 -4.040015220642089844e+00 -3.621025383472443182e-01 6.000000000000000000e+00
3.666243362426757812e+01 -7.285960197448729581e+00 1.001577949523925959e+01 8.000000000000000000e+00
2.373602867126464844e+00 -4.747234880924224854e-01 -6.486005187034606934e-01 2.000000000000000000e+01
2.738123178482056108e+00 -5.486220717430114746e-01 -6.447097063064575195e-01 1.400000000000000000e+01
3.206928253173828125e+00 -6.431360840797424316e-01 -6.357755661010742188e-01 1.300000000000000000e+01
3.883037328720093218e+00 -7.801369428634643555e-01 -6.273022294044494629e-01 1.100000000000000000e+01
3.766352844238281250e+01 -7.573779582977294922e+00 4.717074871063232422e+00 2.000000000000000000e+01
4.978035926818847656e+00 -1.001939892768860085e+00 -6.234835386276245117e-01 9.000000000000000000e+00
6.687587738037109375e+00 -1.347239613533020020e+00 -5.968425273895263672e-01 6.000000000000000000e+00
1.046828460693359020e+01 -2.112677812576293945e+00 -5.596807003021240234e-01 2.000000000000000000e+00
3.362262344360352273e+01 -6.791724205017089844e+00 7.919177055358886719e+00 1.900000000000000000e+01
1.970228767395019887e+01 -3.983414649963378906e+00 -3.508631885051726740e-01 6.000000000000000000e+00
2.370038509368896040e+00 -4.826205372810363770e-01 -6.480829119682312012e-01 2.100000000000000000e+01
2.740010499954224077e+00 -5.589556097984313965e-01 -6.456094980239868164e-01 1.400000000000000000e+01
3.206587314605712891e+00 -6.547191739082336426e-01 -6.361572146415710449e-01 1.200000000000000000e+01
3.884160995483397993e+00 -7.944782376289367676e-01 -6.279279589653015137e-01 1.100000000000000000e+01
3.760185623168945312e+01 -7.698037147521972656e+00 4.712687492370604581e+00 2.000000000000000000e+01
4.997844219207763672e+00 -1.024092197418212891e+00 -6.264083981513977051e-01 9.000000000000000000e+00
6.663326740264892578e+00 -1.366572618484497070e+00 -5.950993895530700684e-01 8.000000000000000000e+00
1.053518962860107067e+01 -2.164479970932006836e+00 -5.636582374572753906e-01 2.000000000000000000e+00
3.382585906982421875e+01 -6.955757141113281250e+00 7.972715377807617188e+00 1.000000000000000000e+01
1.813897705078125000e+01 -3.733296155929564986e+00 -3.232534825801848810e-01 9.000000000000000000e+00
3.563055801391602273e+01 -7.339829444885253906e+00 9.747642517089843750e+00 7.000000000000000000e+00
2.375905752182006836e+00 -4.924589395523070734e-01 -6.501534581184387207e-01 2.400000000000000000e+01
2.739950656890869141e+00 -5.689128041267395020e-01 -6.460594534873962402e-01 1.600000000000000000e+01
3.202360391616820845e+00 -6.655088067054748535e-01 -6.357755661010742188e-01 1.300000000000000000e+01
3.881364107131958008e+00 -8.080316781997680664e-01 -6.279279589653015137e-01 1.000000000000000000e+01
3.708114624023438211e+01 -7.726394176483154297e+00 4.650777816772460938e+00 1.900000000000000000e+01
4.988409042358398438e+00 -1.040315866470336914e+00 -6.256772279739379883e-01 1.000000000000000000e+01
6.660466194152832031e+00 -1.390230655670166016e+00 -5.952737331390380859e-01 8.000000000000000000e+00
1.055493927001952947e+01 -2.206964492797852007e+00 -5.651236772537231445e-01 2.000000000000000000e+00
1.806124687194823863e+01 -3.783061742782593218e+00 -3.221016228199005127e-01 3.000000000000000000e+00
3.555686187744141336e+01 -7.447647094726563388e+00 9.734184265136718750e+00 7.000000000000000000e+00
2.379843235015869141e+00 -5.019454360008239746e-01 -6.517063379287719727e-01 2.200000000000000000e+01
2.732228040695189986e+00 -5.772650837898254395e-01 -6.447097063064575195e-01 1.400000000000000000e+01
3.219225406646728960e+00 -6.807448267936706543e-01 -6.395917534828186035e-01 1.300000000000000000e+01
3.872722387313843218e+00 -8.203471302986145020e-01 -6.269893646240234375e-01 1.000000000000000000e+01
3.732193374633789062e+01 -7.912600040435791016e+00 4.684413909912109375e+00 2.000000000000000000e+01
5.015817165374755859e+00 -1.064315080642699973e+00 -6.295770406723022461e-01 1.000000000000000000e+01
6.680908679962158203e+00 -1.418852329254149947e+00 -5.975397825241088867e-01 8.000000000000000000e+00
1.051591491699218928e+01 -2.237144947052001953e+00 -5.634489059448242188e-01 2.000000000000000000e+00
4.189990615844727273e+01 -8.921387672424316406e+00 9.890197753906250000e+00 1.300000000000000000e+01
1.796969985961914062e+01 -3.829412698745727983e+00 -3.207054138183593750e-01 6.000000000000000000e+00
3.729776000976563211e+01 -7.955102920532226562e+00 1.021869373321533025e+01 8.000000000000000000e+00
2.377987384796143022e+00 -5.106646418571472168e-01 -6.517063379287719727e-01 2.100000000000000000e+01
2.722473382949829102e+00 -5.856360197067260742e-01 -6.429101228713989258e-01 1.400000000000000000e+01
3.212870359420775923e+00 -6.917128562927246094e-01 -6.388285160064697266e-01 1.200000000000000000e+01
3.888999462127685991e+00 -8.387002348899841309e-01 -6.301180124282836914e-01 1.100000000000000000e+01
3.749448776245117188e+01 -8.092896461486816406e+00 4.709762573242188388e+00 2.000000000000000000e+01
4.998300075531005859e+00 -1.079757690429687944e+00 -6.278708577156066895e-01 1.000000000000000000e+01
6.679558277130126953e+00 -1.444171547889709029e+00 -5.978884100914001465e-01 6.000000000000000000e+00
1.054278087615966975e+01 -2.283282279968262163e+00 -5.653330087661743164e-01 2.000000000000000000e+00
1.796726989746094105e+01 -3.897793054580688032e+00 -3.209148347377777100e-01 3.000000000000000000e+00
3.797585296630858664e+01 -8.238426208496093750e+00 1.041229057312012074e+01 8.000000000000000000e+00
2.374303102493286133e+00 -5.185500383377075195e-01 -6.511887311935424805e-01 1.900000000000000000e+01
2.733738422393798828e+00 -5.980509519577026367e-01 -6.460594534873962402e-01 1.600000000000000000e+01
3.202764987945557085e+00 -7.012440562248229980e-01 -6.373020410537719727e-01 1.200000000000000000e+01
3.880259752273560014e+00 -8.510007262229919434e-01 -6.291794180870056152e-01 1.000000000000000000e+01
4.992561817169188565e+00 -1.096772432327270952e+00 -6.276271343231201172e-01 1.000000000000000000e+01
6.674476623535156250e+00 -1.467478871345520020e+00 -5.978884100914001465e-01 6.000000000000000000e+00
1.058545970916748047e+01 -2.331238269805908203e+00 -5.680544972419738770e-01 2.000000000000000000e+00
3.631991958618164062e+01 -8.005391120910644531e+00 8.586381912231445312e+00 1.100000000000000000e+01
3.963941192626953125e+01 -8.751561164855957031e+00 1.087712955474854049e+01 1.000000000000000000e+01
2.361163139343262163e+00 -5.243220329284667969e-01 -6.480829119682312012e-01 1.900000000000000000e+01
2.733536481857299805e+00 -6.080129146575927734e-01 -6.465093493461608887e-01 1.300000000000000000e+01
3.209879398345946822e+00 -7.145525217056274414e-01 -6.392101049423217773e-01 1.200000000000000000e+01
3.896545648574829102e+00 -8.688392639160156250e-01 -6.323081254959106445e-01 1.000000000000000000e+01
3.684809494018554688e+01 -8.223020553588867188e+00 4.635665893554688388e+00 1.900000000000000000e+01
4.998389720916748047e+00 -1.116356611251831055e+00 -6.288458108901977539e-01 1.000000000000000000e+01
6.686812877655029297e+00 -1.494679808616637962e+00 -5.994572043418884277e-01 5.000000000000000000e+00
1.063572788238525035e+01 -2.381265163421630859e+00 -5.711946487426757812e-01 3.000000000000000000e+00
3.641345596313477273e+01 -8.159393310546875000e+00 8.615175247192382812e+00 1.100000000000000000e+01
3.869027709960938211e+01 -8.676666259765625000e+00 1.062452220916748047e+01 9.000000000000000000e+00
2.361202955245972124e+00 -5.329862236976623535e-01 -6.486005187034606934e-01 1.900000000000000000e+01
2.731397628784180132e+00 -6.175510287284851074e-01 -6.465093493461608887e-01 1.400000000000000000e+01
3.213109970092772993e+00 -7.270525693893432617e-01 -6.403549909591674805e-01 1.100000000000000000e+01
3.872297525405883789e+00 -8.776324987411499023e-01 -6.288665533065795898e-01 1.100000000000000000e+01
3.720634841918945312e+01 -8.439417839050292969e+00 4.684413909912109375e+00 2.000000000000000000e+01
5.000269889831542969e+00 -1.135115742683411089e+00 -6.295770406723022461e-01 1.000000000000000000e+01
3.614485549926757812e+01 -8.211909294128417969e+00 5.870672702789306641e+00 1.300000000000000000e+01
6.667954444885253906e+00 -1.514922142028809038e+00 -5.982370376586914062e-01 7.000000000000000000e+00
3.568423461914063211e+01 -8.113808631896972656e+00 7.113359451293945312e+00 6.100000000000000000e+01
1.062735080718993963e+01 -2.418376445770264116e+00 -5.711946487426757812e-01 3.000000000000000000e+00
1.869754600524901988e+01 -4.261707305908203125e+00 -3.347371518611907959e-01 3.000000000000000000e+00
3.781818771362304688e+01 -8.626794815063476562e+00 1.039365482330322088e+01 8.000000000000000000e+00
2.372603654861450195e+00 -5.438346266746520996e-01 -6.522240042686462402e-01 2.000000000000000000e+01
2.727435350418090820e+00 -6.261692643165588379e-01 -6.460594534873962402e-01 1.500000000000000000e+01
3.210681438446044922e+00 -7.377036213874816895e-01 -6.403549909591674805e-01 1.200000000000000000e+01
3.873215913772583008e+00 -8.913546800613403320e-01 -6.294922828674316406e-01 1.100000000000000000e+01
5.008084774017333984e+00 -1.154366254806518999e+00 -6.310394406318664551e-01 1.000000000000000000e+01
3.604957962036132812e+01 -8.309448242187500000e+00 5.859409332275390625e+00 1.300000000000000000e+01
6.707546710968017578e+00 -1.547326087951659934e+00 -6.022461652755737305e-01 5.000000000000000000e+00
1.058813667297362926e+01 -2.446410655975341797e+00 -5.695198774337768555e-01 2.000000000000000000e+00
1.807741737365723012e+01 -4.183471679687500000e+00 -3.238817453384398859e-01 9.000000000000000000e+00
3.785865402221679688e+01 -8.761240959167480469e+00 1.041229057312012074e+01 8.000000000000000000e+00
2.374453783035277876e+00 -5.529896020889282227e-01 -6.532592773437500000e-01 2.000000000000000000e+01
2.725232839584351030e+00 -6.356859803199768066e-01 -6.460594534873962402e-01 1.500000000000000000e+01
3.208086729049683061e+00 -7.489064931869506836e-01 -6.403549909591674805e-01 1.200000000000000000e+01
3.885468959808350053e+00 -9.084671735763549805e-01 -6.319952607154846191e-01 1.100000000000000000e+01
5.004024505615234375e+00 -1.171840667724608931e+00 -6.310394406318664551e-01 1.000000000000000000e+01
3.594964599609375000e+01 -8.425293922424316406e+00 5.848145961761474609e+00 1.300000000000000000e+01
6.669127464294433594e+00 -1.563001751899719016e+00 -5.992828607559204102e-01 3.000000000000000000e+00
3.494008255004882812e+01 -8.195121765136718750e+00 6.975976943969726562e+00 6.000000000000000000e+01
1.063008785247802912e+01 -2.495222091674805132e+00 -5.722413659095764160e-01 3.000000000000000000e+00
1.805102539062500000e+01 -4.243802070617675781e+00 -3.236723244190216064e-01 1.200000000000000000e+01
3.667166137695313211e+01 -8.628274917602539062e+00 1.009446048736572088e+01 8.000000000000000000e+00
2.372606992721558061e+00 -5.608605146408081055e-01 -6.532592773437500000e-01 1.900000000000000000e+01
2.730695247650146040e+00 -6.465155482292175293e-01 -6.478590369224548340e-01 1.600000000000000000e+01
3.201764822006226030e+00 -7.586355209350585938e-01 -6.395917534828186035e-01 1.100000000000000000e+01
3.890123128890991211e+00 -9.231713414192199707e-01 -6.332467198371887207e-01 1.100000000000000000e+01
4.250753402709960938e+01 -1.009536838531493963e+01 5.364444732666015625e+00 3.300000000000000000e+01
5.000111103057861328e+00 -1.188428163528441939e+00 -6.310394406318664551e-01 1.000000000000000000e+01
3.606137084960938211e+01 -8.571080207824707031e+00 5.870672702789306641e+00 1.300000000000000000e+01
6.687167644500732422e+00 -1.590641498565674050e+00 -6.013746261596679688e-01 5.000000000000000000e+00
3.445816040039063211e+01 -8.202736854553222656e+00 6.885151863098145419e+00 6.000000000000000000e+01
1.059844017028808949e+01 -2.524904489517211914e+00 -5.709852576255798340e-01 3.000000000000000000e+00
3.778895568847656250e+01 -9.009569168090820312e+00 8.968798637390136719e+00 1.200000000000000000e+01
1.796682929992676137e+01 -4.286930561065673828e+00 -3.224157691001892090e-01 9.000000000000000000e+00
2.368756294250487837e+00 -5.686880946159362793e-01 -6.527416110038757324e-01 2.100000000000000000e+01
2.724632263183594194e+00 -6.551323533058166504e-01 -6.469592452049255371e-01 1.500000000000000000e+01
3.189553499221802202e+00 -7.675105333328247070e-01 -6.376836895942687988e-01 1.200000000000000000e+01
3.888797283172606978e+00 -9.372075796127319336e-01 -6.335595846176147461e-01 1.000000000000000000e+01
5.009439945220947266e+00 -1.209134936332703081e+00 -6.327456235885620117e-01 1.000000000000000000e+01
6.685447692871093750e+00 -1.614910006523132102e+00 -6.017232537269592285e-01 3.000000000000000000e+00
1.066721248626708984e+01 -2.580670356750487837e+00 -5.751721858978271484e-01 3.000000000000000000e+00
3.777621841430664062e+01 -9.146008491516113281e+00 8.973297119140625000e+00 1.200000000000000000e+01
3.645216369628906250e+01 -8.832176208496093750e+00 1.004994392395020064e+01 8.000000000000000000e+00
2.359249114990233931e+00 -5.751229524612426758e-01 -6.506710648536682129e-01 1.900000000000000000e+01
2.729901552200316939e+00 -6.664878726005554199e-01 -6.487588286399841309e-01 1.500000000000000000e+01
3.192576408386230025e+00 -7.800374031066894531e-01 -6.388285160064697266e-01 1.200000000000000000e+01
3.864395618438721147e+00 -9.456115961074829102e-01 -6.301180124282836914e-01 1.100000000000000000e+01
4.997476577758789062e+00 -1.224723815917968972e+00 -6.317706704139709473e-01 9.000000000000000000e+00
6.668159484863281250e+00 -1.635389208793639915e+00 -6.006773710250854492e-01 3.000000000000000000e+00
1.068141460418700994e+01 -2.623606920242310014e+00 -5.764282345771789551e-01 3.000000000000000000e+00
3.773649215698242188e+01 -9.275955200195312500e+00 8.971497535705566406e+00 1.200000000000000000e+01
2.012876319885253906e+01 -4.951549053192138672e+00 -3.618232905864716131e-01 3.000000000000000000e+00
3.918997955322266336e+01 -9.640488624572753906e+00 1.081397724151610973e+01 9.000000000000000000e+00
2.362853050231934038e+00 -5.847470164299011230e-01 -6.522240042686462402e-01 1.900000000000000000e+01
2.714317798614501953e+00 -6.727313399314880371e-01 -6.456094980239868164e-01 1.400000000000000000e+01
3.197456121444702148e+00 -7.930673360824584961e-01 -6.403549909591674805e-01 1.100000000000000000e+01
3.874491214752196822e+00 -9.624286293983459473e-01 -6.323081254959106445e-01 1.000000000000000000e+01
4.997024059295654297e+00 -1.243119239807128906e+00 -6.322581768035888672e-01 9.000000000000000000e+00
6.712677955627441406e+00 -1.671169996261596902e+00 -6.052094697952270508e-01 3.000000000000000000e+00
1.067219161987305043e+01 -2.660876035690308061e+00 -5.764282345771789551e-01 3.000000000000000000e+00
3.599084472656250000e+01 -8.980197906494140625e+00 8.563886642456054688e+00 1.100000000000000000e+01
2.372039556503295898e+00 -5.958151221275329590e-01 -6.553298234939575195e-01 1.800000000000000000e+01
2.725182056427001953e+00 -6.855297684669494629e-01 -6.487588286399841309e-01 1.500000000000000000e+01
3.198476076126099077e+00 -8.051822781562805176e-01 -6.411182284355163574e-01 1.100000000000000000e+01
3.867277145385742188e+00 -9.749814271926879883e-01 -6.316823959350585938e-01 1.100000000000000000e+01
3.629938888549804688e+01 -9.158197402954101562e+00 4.596667766571044922e+00 1.900000000000000000e+01
5.000352859497070312e+00 -1.262498378753662109e+00 -6.332331299781799316e-01 9.000000000000000000e+00
6.693282127380371094e+00 -1.691174983978271040e+00 -6.039893031120300293e-01 5.000000000000000000e+00
1.070156288146973012e+01 -2.707911729812622070e+00 -5.785216689109802246e-01 3.000000000000000000e+00
1.806223487854003906e+01 -4.577157497406005859e+00 -3.252430558204650879e-01 3.000000000000000000e+00
2.364329338073730025e+00 -6.026599407196044922e-01 -6.537768840789794922e-01 1.900000000000000000e+01
2.722772359848022017e+00 -6.950382590293884277e-01 -6.487588286399841309e-01 1.500000000000000000e+01
3.191841602325439009e+00 -8.153702616691589355e-01 -6.403549909591674805e-01 1.200000000000000000e+01
3.873419046401977983e+00 -9.909227490425109863e-01 -6.332467198371887207e-01 1.100000000000000000e+01
5.009376525878906250e+00 -1.283393859863281028e+00 -6.349392533302307129e-01 1.000000000000000000e+01
6.702777862548828125e+00 -1.718487024307250977e+00 -6.053838133811950684e-01 5.000000000000000000e+00
1.069204521179199041e+01 -2.745250463485718218e+00 -5.785216689109802246e-01 3.000000000000000000e+00
3.571588134765625000e+01 -9.176924705505371094e+00 8.513497352600097656e+00 1.100000000000000000e+01
1.645030975341796875e+01 -4.229842662811279297e+00 -2.964814901351929266e-01 2.000000000000000000e+00
3.651239395141602273e+01 -9.388375282287597656e+00 1.010170745849609020e+01 8.000000000000000000e+00
2.349118947982788086e+00 -6.075234413146972656e-01 -6.501534581184387207e-01 1.800000000000000000e+01
2.735421657562255859e+00 -7.084469199180603027e-01 -6.523580551147460938e-01 1.500000000000000000e+01
3.194677352905272993e+00 -8.279845714569091797e-01 -6.414998173713684082e-01 1.200000000000000000e+01
3.871848344802856001e+00 -1.004933714866637962e+00 -6.335595846176147461e-01 1.100000000000000000e+01
3.598863601684570312e+01 -9.347513198852539062e+00 4.565469264984130859e+00 1.900000000000000000e+01
5.006787300109863281e+00 -1.301371335983275923e+00 -6.351830363273620605e-01 9.000000000000000000e+00
3.644752120971679688e+01 -9.473491668701171875e+00 5.964533329010009766e+00 1.300000000000000000e+01
6.683240413665770596e+00 -1.738362789154052956e+00 -6.041635870933532715e-01 5.000000000000000000e+00
1.068239688873291016e+01 -2.782556056976317915e+00 -5.785216689109802246e-01 3.000000000000000000e+00
3.568740081787108664e+01 -9.302523612976074219e+00 8.514397621154785156e+00 1.100000000000000000e+01
2.585863876342773082e+01 -6.745310306549072266e+00 -4.664679169654846191e-01 4.000000000000000000e+00
3.633732986450195312e+01 -9.478712081909179688e+00 1.006236648559569957e+01 8.000000000000000000e+00
2.354458332061768022e+00 -6.176806092262268066e-01 -6.522240042686462402e-01 1.800000000000000000e+01
2.725393056869506836e+00 -7.160103917121887207e-01 -6.505584716796875000e-01 1.500000000000000000e+01
3.199362516403197798e+00 -8.411278128623962402e-01 -6.430262923240661621e-01 1.200000000000000000e+01
3.870227336883544922e+00 -1.018945813179015891e+00 -6.338724493980407715e-01 1.100000000000000000e+01
3.597114562988281250e+01 -9.477126121520996094e+00 4.567419052124023438e+00 1.900000000000000000e+01
5.002213954925537109e+00 -1.318840384483336958e+00 -6.351830363273620605e-01 1.000000000000000000e+01
3.603054809570313211e+01 -9.506228446960449219e+00 5.901959419250488281e+00 1.300000000000000000e+01
6.696396350860595703e+00 -1.766763806343079057e+00 -6.059067249298095703e-01 5.000000000000000000e+00
1.069579124450683949e+01 -2.825949907302856001e+00 -5.797777175903320312e-01 3.000000000000000000e+00
3.645174789428710938e+01 -9.651388168334960938e+00 1.010377788543700994e+01 8.000000000000000000e+00
2.352288007736206055e+00 -6.258954405784606934e-01 -6.522240042686462402e-01 1.800000000000000000e+01
4.235557556152343750e+01 -1.127786350250243963e+01 7.650786042213439941e-01 4.500000000000000000e+01
2.713461875915526900e+00 -7.230107188224792480e-01 -6.483089327812194824e-01 1.400000000000000000e+01
3.200201034545897993e+00 -8.533021211624145508e-01 -6.437895298004150391e-01 1.200000000000000000e+01
3.876189470291138139e+00 -1.034997224807739036e+00 -6.354367733001708984e-01 1.000000000000000000e+01
3.599538040161132812e+01 -9.618003845214843750e+00 4.574731349945068359e+00 1.900000000000000000e+01
5.005250930786132812e+00 -1.338344454765320046e+00 -6.361579895019531250e-01 9.000000000000000000e+00
3.590173339843750000e+01 -9.606410026550292969e+00 5.886315822601318359e+00 1.300000000000000000e+01
6.701736450195313388e+00 -1.793217897415160911e+00 -6.069526076316833496e-01 3.000000000000000000e+00
1.068586158752441051e+01 -2.863267898559569868e+00 -5.797777175903320312e-01 3.000000000000000000e+00
3.615085983276367188e+01 -9.700119972229003906e+00 1.002923774719237926e+01 8.000000000000000000e+00
2.361279726028441939e+00 -6.371221542358398438e-01 -6.553298234939575195e-01 1.900000000000000000e+01
4.224644851684570312e+01 -1.140687751770020064e+01 7.638220191001892090e-01 4.500000000000000000e+01
2.720327854156494141e+00 -7.350196242332458496e-01 -6.505584716796875000e-01 1.500000000000000000e+01
3.189622163772583008e+00 -8.624179959297180176e-01 -6.422630548477172852e-01 1.200000000000000000e+01
3.870646238327025923e+00 -1.048005104064940962e+00 -6.351239085197448730e-01 1.100000000000000000e+01
5.002464771270751953e+00 -1.356327295303344949e+00 -6.364017128944396973e-01 1.000000000000000000e+01
6.710819244384765625e+00 -1.820774078369141069e+00 -6.083470582962036133e-01 6.000000000000000000e+00
1.069122123718262074e+01 -2.904740333557128906e+00 -5.806151032447814941e-01 3.000000000000000000e+00
3.675056838989257812e+01 -9.998685836791992188e+00 1.020523452758789062e+01 8.000000000000000000e+00
2.359266519546508789e+00 -6.445372104644775391e-01 -6.553298234939575195e-01 1.900000000000000000e+01
2.712366342544556108e+00 -7.420194745063781738e-01 -6.492087244987487793e-01 1.400000000000000000e+01
3.192577838897705078e+00 -8.739894032478332520e-01 -6.434079408645629883e-01 1.200000000000000000e+01
3.882575511932373047e+00 -1.064337849617003950e+00 -6.376268863677978516e-01 1.200000000000000000e+01
3.644767761230468750e+01 -9.998311042785644531e+00 4.640541076660156250e+00 1.900000000000000000e+01
4.998178958892822266e+00 -1.372036337852478027e+00 -6.364017128944396973e-01 1.000000000000000000e+01
6.712750911712645596e+00 -1.843958735466002974e+00 -6.090443134307861328e-01 5.000000000000000000e+00
1.076677513122558949e+01 -2.961620807647705078e+00 -5.852206349372863770e-01 3.000000000000000000e+00
3.574131393432617188e+01 -9.851509094238281250e+00 9.933992385864257812e+00 8.000000000000000000e+00
2.338384628295897993e+00 -6.476125121116638184e-01 -6.501534581184387207e-01 1.800000000000000000e+01
2.713515520095825195e+00 -7.525244355201721191e-01 -6.501085758209228516e-01 1.600000000000000000e+01
3.187615871429442915e+00 -8.846032619476318359e-01 -6.430262923240661621e-01 1.200000000000000000e+01
3.591259765625000000e+01 -9.972946166992187500e+00 3.260844945907593218e+00 4.700000000000000000e+01
3.869320392608643022e+00 -1.075239658355712891e+00 -6.360625624656677246e-01 1.200000000000000000e+01
4.999096393585205078e+00 -1.391071319580077903e+00 -6.371329426765441895e-01 9.000000000000000000e+00
3.811286926269531250e+01 -1.061262798309325994e+01 6.266139030456542969e+00 1.400000000000000000e+01
6.698596000671386719e+00 -1.865241527557373047e+00 -6.083470582962036133e-01 6.000000000000000000e+00
1.074867630004882990e+01 -2.997040033340454102e+00 -5.848019719123840332e-01 3.000000000000000000e+00
3.557646560668945312e+01 -9.939821243286132812e+00 9.897757530212402344e+00 7.000000000000000000e+00
2.347269535064696822e+00 -6.589037179946899414e-01 -6.532592773437500000e-01 1.900000000000000000e+01
2.710872173309326172e+00 -7.619917988777160645e-01 -6.501085758209228516e-01 1.500000000000000000e+01
3.190178155899047852e+00 -8.973194956779479980e-01 -6.441711783409118652e-01 1.200000000000000000e+01
3.863642215728760210e+00 -1.088204026222229004e+00 -6.357496380805969238e-01 1.100000000000000000e+01
3.661008834838867188e+01 -1.031821537017822088e+01 4.670277118682861328e+00 2.000000000000000000e+01
5.019047737121582031e+00 -1.415517807006835938e+00 -6.403015255928039551e-01 1.100000000000000000e+01
6.688209056854248047e+00 -1.887530326843261941e+00 -6.079984903335571289e-01 5.000000000000000000e+00
1.071892929077148082e+01 -3.029110431671143022e+00 -5.837552547454833984e-01 3.000000000000000000e+00
3.809854888916016336e+01 -1.077362060546875000e+01 9.140661239624023438e+00 1.200000000000000000e+01
2.672634506225585938e+01 -7.562793254852294922e+00 -4.848278462886809748e-01 4.000000000000000000e+00
3.549322509765625000e+01 -1.005026149749756037e+01 9.884299278259277344e+00 7.000000000000000000e+00
2.356103897094727007e+00 -6.702647805213928223e-01 -6.563650965690612793e-01 1.800000000000000000e+01
2.702573060989379883e+00 -7.698482275009155273e-01 -6.487588286399841309e-01 1.400000000000000000e+01
3.200242996215819868e+00 -9.122170805931091309e-01 -6.468424797058105469e-01 1.300000000000000000e+01
3.867418050765991211e+00 -1.103852629661560059e+00 -6.370011568069458008e-01 1.100000000000000000e+01
3.688688659667968750e+01 -1.053535270690917969e+01 4.710249900817871094e+00 2.000000000000000000e+01
5.010258674621582031e+00 -1.431937932968140093e+00 -6.398140788078308105e-01 1.000000000000000000e+01
6.708397865295410156e+00 -1.918534755706787109e+00 -6.104388236999511719e-01 3.000000000000000000e+00
1.072749042510985973e+01 -3.072006464004517046e+00 -5.848019719123840332e-01 3.000000000000000000e+00
3.855527114868164062e+01 -1.106282901763916016e+01 1.074771976470947088e+01 9.000000000000000000e+00
2.357581138610839844e+00 -6.791437268257141113e-01 -6.574003696441650391e-01 1.900000000000000000e+01
2.703750133514403853e+00 -7.798861861228942871e-01 -6.496586203575134277e-01 1.400000000000000000e+01
3.191541433334351030e+00 -9.211911559104919434e-01 -6.456976532936096191e-01 1.200000000000000000e+01
3.867531776428223100e+00 -1.117768287658690962e+00 -6.376268863677978516e-01 1.100000000000000000e+01
3.638263702392578125e+01 -1.052194881439208984e+01 4.650290489196777344e+00 1.900000000000000000e+01
4.999762058258056641e+00 -1.446889162063599077e+00 -6.390828490257263184e-01 9.000000000000000000e+00
6.694344043731688565e+00 -1.938553333282470925e+00 -6.097415685653686523e-01 3.000000000000000000e+00
1.079397487640381037e+01 -3.129811763763428178e+00 -5.889888405799865723e-01 3.000000000000000000e+00
3.821522903442382812e+01 -1.108808708190917969e+01 9.186551094055175781e+00 1.200000000000000000e+01
3.849435424804688211e+01 -1.117635822296142933e+01 1.074047279357909979e+01 9.000000000000000000e+00
2.351487159729003906e+00 -6.862866282463073730e-01 -6.563650965690612793e-01 1.900000000000000000e+01
2.701011419296265093e+00 -7.893193364143371582e-01 -6.496586203575134277e-01 1.400000000000000000e+01
3.182653427124022993e+00 -9.306730031967163086e-01 -6.445527672767639160e-01 1.200000000000000000e+01
3.874981164932250977e+00 -1.134592175483704057e+00 -6.395040750503540039e-01 1.100000000000000000e+01
3.627710723876953125e+01 -1.062879085540770951e+01 4.641515731811523438e+00 1.900000000000000000e+01
4.990871429443359375e+00 -1.463215827941894975e+00 -6.385953426361083984e-01 9.000000000000000000e+00
6.710478305816650391e+00 -1.968639492988585982e+00 -6.118333339691162109e-01 3.000000000000000000e+00
3.526594161987304688e+01 -1.035258388519286932e+01 7.144270420074462891e+00 6.100000000000000000e+01
1.078298377990723012e+01 -3.167470693588256836e+00 -5.889888405799865723e-01 3.000000000000000000e+00
3.857173919677733664e+01 -1.135228061676025035e+01 1.077360153198242010e+01 9.000000000000000000e+00
2.343519449234008789e+00 -6.928475499153137207e-01 -6.548121571540832520e-01 2.200000000000000000e+01
2.716925621032714844e+00 -8.042742609977722168e-01 -6.541576385498046875e-01 1.400000000000000000e+01
3.179385423660277876e+00 -9.417768716812133789e-01 -6.445527672767639160e-01 1.200000000000000000e+01
3.869103193283081055e+00 -1.147549867630005105e+00 -6.391912102699279785e-01 1.100000000000000000e+01
3.626642608642578125e+01 -1.076326370239257990e+01 4.644927978515625000e+00 1.900000000000000000e+01
5.002859592437744141e+00 -1.485714435577393022e+00 -6.407890319824218750e-01 1.100000000000000000e+01
3.647904205322266336e+01 -1.083329200744629084e+01 6.027107238769531250e+00 1.300000000000000000e+01
6.707385063171386719e+00 -1.993186593055725098e+00 -6.121819615364074707e-01 2.000000000000000000e+00
1.077186107635498047e+01 -3.205090999603271040e+00 -5.889888405799865723e-01 3.000000000000000000e+00
2.339236021041870117e+00 -7.004695534706115723e-01 -6.542945504188537598e-01 2.000000000000000000e+01
2.708501577377318892e+00 -8.120741844177246094e-01 -6.528079509735107422e-01 1.500000000000000000e+01
3.189241886138916016e+00 -9.568184018135070801e-01 -6.472241282463073730e-01 1.300000000000000000e+01
3.853722810745238814e+00 -1.157638669013977051e+00 -6.373140215873718262e-01 1.000000000000000000e+01
4.993841171264648438e+00 -1.502025127410888894e+00 -6.403015255928039551e-01 1.100000000000000000e+01
6.696571350097656250e+00 -2.015439033508300781e+00 -6.118333339691162109e-01 3.000000000000000000e+00
1.079885482788085938e+01 -3.254197597503662109e+00 -5.910822749137878418e-01 3.000000000000000000e+00
2.344047307968140093e+00 -7.112823724746704102e-01 -6.563650965690612793e-01 1.900000000000000000e+01
2.692455053329468218e+00 -8.180303573608398438e-01 -6.496586203575134277e-01 1.400000000000000000e+01
3.180078506469727007e+00 -9.667879939079284668e-01 -6.460792422294616699e-01 1.200000000000000000e+01
3.862682342529296875e+00 -1.175782203674315962e+00 -6.395040750503540039e-01 1.100000000000000000e+01
5.009190082550048828e+00 -1.526684403419495073e+00 -6.429826617240905762e-01 9.000000000000000000e+00
6.683422088623046875e+00 -2.038226127624512163e+00 -6.113103628158569336e-01 5.000000000000000000e+00
1.079449558258056996e+01 -3.296088695526123047e+00 -5.915009975433349609e-01 3.000000000000000000e+00
3.899768829345703125e+01 -1.191534805297851918e+01 9.414201736450195312e+00 1.200000000000000000e+01
3.845074462890625000e+01 -1.175557327270507990e+01 1.077360153198242010e+01 9.000000000000000000e+00
2.343396902084351030e+00 -7.200276851654052734e-01 -6.568827629089355469e-01 1.900000000000000000e+01
2.697033405303955078e+00 -8.297158479690551758e-01 -6.514582633972167969e-01 1.400000000000000000e+01
3.182313442230225053e+00 -9.796154499053955078e-01 -6.472241282463073730e-01 1.200000000000000000e+01
3.866105556488037109e+00 -1.191585540771483931e+00 -6.407555937767028809e-01 1.100000000000000000e+01
3.636223983764647727e+01 -1.121428012847900035e+01 4.672226905822753906e+00 2.000000000000000000e+01
4.988655567169188565e+00 -1.539477586746216042e+00 -6.410327553749084473e-01 1.300000000000000000e+01
3.588782119750977273e+01 -1.108168697357177912e+01 5.948889732360839844e+00 1.300000000000000000e+01
6.702918529510498047e+00 -2.069772958755493164e+00 -6.137507557868957520e-01 3.000000000000000000e+00
1.080582141876221058e+01 -3.340827703475952148e+00 -5.927570462226867676e-01 3.000000000000000000e+00
3.918614196777343750e+01 -1.213763236999512074e+01 1.099204444885254084e+01 1.000000000000000000e+01
2.337179899215697798e+00 -7.270556092262268066e-01 -6.558474898338317871e-01 1.900000000000000000e+01
2.707144975662231001e+00 -8.431817293167114258e-01 -6.546075940132141113e-01 1.500000000000000000e+01
3.177000284194945845e+00 -9.901337027549743652e-01 -6.468424797058105469e-01 1.200000000000000000e+01
3.865694046020507812e+00 -1.206250429153441939e+00 -6.413813233375549316e-01 1.100000000000000000e+01
4.994620323181152344e+00 -1.560433745384216087e+00 -6.424951553344726562e-01 9.000000000000000000e+00
6.678537845611572266e+00 -2.087807655334473100e+00 -6.121819615364074707e-01 2.000000000000000000e+00
1.079790687561034979e+01 -3.379719972610474077e+00 -5.929663777351379395e-01 3.000000000000000000e+00
1.368172264099120916e+01 -4.287591934204101562e+00 -2.502675056457520086e-01 2.000000000000000000e+00
3.919729232788085938e+01 -1.228368759155273082e+01 1.100653839111327947e+01 1.000000000000000000e+01
2.336470365524291992e+00 -7.357897758483886719e-01 -6.563650965690612793e-01 2.000000000000000000e+01
2.704185247421265093e+00 -8.526263236999511719e-01 -6.546075940132141113e-01 1.600000000000000000e+01
3.175396919250487837e+00 -1.001808166503906028e+00 -6.472241282463073730e-01 1.200000000000000000e+01
3.863343477249145952e+00 -1.220331788063049094e+00 -6.416941881179809570e-01 1.100000000000000000e+01
3.554865646362304688e+01 -1.123573970794677912e+01 4.577656269073486328e+00 1.900000000000000000e+01
4.981572151184082031e+00 -1.575464367866515891e+00 -6.415202021598815918e-01 9.000000000000000000e+00
6.686405658721923828e+00 -2.115916252136230025e+00 -6.135764122009277344e-01 3.000000000000000000e+00
3.476245880126953125e+01 -1.100727176666259943e+01 7.087790966033936435e+00 6.100000000000000000e+01
1.080889129638672053e+01 -3.424629926681518999e+00 -5.942224264144897461e-01 3.000000000000000000e+00
3.985171127319335938e+01 -1.264936256408691051e+01 1.120324134826659979e+01 1.000000000000000000e+01
2.328495502471923828e+00 -7.417745590209960938e-01 -6.548121571540832520e-01 1.900000000000000000e+01
2.693916559219359907e+00 -8.592203855514526367e-01 -6.528079509735107422e-01 1.500000000000000000e+01
3.183279275894165039e+00 -1.015913963317871094e+00 -6.495138406753540039e-01 1.300000000000000000e+01
3.853630542755126953e+00 -1.231332659721374956e+00 -6.407555937767028809e-01 1.100000000000000000e+01
4.983882904052734375e+00 -1.594394564628601074e+00 -6.424951553344726562e-01 9.000000000000000000e+00
6.683147430419921875e+00 -2.139292478561400923e+00 -6.139250397682189941e-01 2.000000000000000000e+00
1.076704406738281072e+01 -3.450701713562012163e+00 -5.925477147102355957e-01 3.000000000000000000e+00
2.336924076080321822e+00 -7.534548640251159668e-01 -6.579180359840393066e-01 1.900000000000000000e+01
2.685337305068970171e+00 -8.668227791786193848e-01 -6.514582633972167969e-01 1.400000000000000000e+01
3.172240734100341797e+00 -1.024605870246886985e+00 -6.479873657226562500e-01 1.300000000000000000e+01
3.845549821853638139e+00 -1.243561267852782981e+00 -6.401298046112060547e-01 1.100000000000000000e+01
4.993395805358886719e+00 -1.616673469543457031e+00 -6.444450616836547852e-01 9.000000000000000000e+00
6.713547229766845703e+00 -2.174888372421265093e+00 -6.174112558364868164e-01 2.000000000000000000e+00
1.080432796478270951e+01 -3.504285812377930132e+00 -5.952691435813903809e-01 3.000000000000000000e+00
2.343328952789307085e+00 -7.650127410888671875e-01 -6.605061888694763184e-01 2.000000000000000000e+01
2.683994531631470171e+00 -8.772646188735961914e-01 -6.519081592559814453e-01 1.500000000000000000e+01
3.172196149826049805e+00 -1.037446379661560059e+00 -6.487506031990051270e-01 1.300000000000000000e+01
3.850352525711060014e+00 -1.260720968246459961e+00 -6.416941881179809570e-01 1.000000000000000000e+01
4.976119041442871094e+00 -1.631254076957703081e+00 -6.429826617240905762e-01 9.000000000000000000e+00
3.616026687622070312e+01 -1.185393428802490057e+01 6.027107238769531250e+00 1.300000000000000000e+01
6.724462509155273438e+00 -2.205689907073975053e+00 -6.191543936729431152e-01 2.000000000000000000e+00
1.079141235351563033e+01 -3.543862104415893999e+00 -5.952691435813903809e-01 3.000000000000000000e+00
4.058189010620117188e+01 -1.334264659881591975e+01 1.144653129577637074e+01 1.100000000000000000e+01
2.336975574493408203e+00 -7.719759345054626465e-01 -6.594709157943725586e-01 1.900000000000000000e+01
2.695717334747314009e+00 -8.915233016014099121e-01 -6.555073857307434082e-01 1.600000000000000000e+01
3.164827585220336914e+00 -1.047279477119446023e+00 -6.479873657226562500e-01 1.200000000000000000e+01
3.857179403305054155e+00 -1.277881026268004927e+00 -6.435713768005371094e-01 1.000000000000000000e+01
4.959089756011962891e+00 -1.644864439964293990e+00 -6.415202021598815918e-01 9.000000000000000000e+00
6.701594352722167969e+00 -2.224128723144530806e+00 -6.177598834037780762e-01 3.000000000000000000e+00
1.080172061920166016e+01 -3.589066743850708008e+00 -5.965252518653869629e-01 3.000000000000000000e+00
3.907956695556641336e+01 -1.299246692657471058e+01 9.507781028747558594e+00 1.200000000000000000e+01
4.044341278076171875e+01 -1.345373344421387074e+01 1.142064952850341975e+01 1.100000000000000000e+01
2.319744110107421875e+00 -7.748251557350158691e-01 -6.553298234939575195e-01 2.000000000000000000e+01
2.696442365646361861e+00 -9.016937613487243652e-01 -6.564071774482727051e-01 1.600000000000000000e+01
4.064248275756835938e+01 -1.359878444671631037e+01 2.246049880981444868e+00 2.900000000000000000e+01
3.166922807693481001e+00 -1.059637546539307085e+00 -6.491321921348571777e-01 1.300000000000000000e+01
3.839808940887451172e+00 -1.286272644996643066e+00 -6.413813233375549316e-01 1.100000000000000000e+01
4.983720779418945312e+00 -1.671399354934691939e+00 -6.454200148582458496e-01 9.000000000000000000e+00
6.682848930358886719e+00 -2.242536544799805132e+00 -6.167140603065490723e-01 6.000000000000000000e+00
1.078975868225098012e+01 -3.624866962432860884e+00 -5.965252518653869629e-01 3.000000000000000000e+00
2.322515964508057085e+00 -7.847731113433837891e-01 -6.568827629089355469e-01 1.900000000000000000e+01
2.689586639404296875e+00 -9.098516702651977539e-01 -6.555073857307434082e-01 1.500000000000000000e+01
3.165064334869385210e+00 -1.071315169334412065e+00 -6.495138406753540039e-01 1.400000000000000000e+01
3.840908288955688032e+00 -1.301570177078247070e+00 -6.423199176788330078e-01 1.100000000000000000e+01
4.981616020202636719e+00 -1.690061092376708984e+00 -6.459075212478637695e-01 9.000000000000000000e+00
6.693846702575683594e+00 -2.272254705429077148e+00 -6.184571385383605957e-01 5.000000000000000000e+00
1.076191234588623047e+01 -3.657366752624512163e+00 -5.956878662109375000e-01 3.000000000000000000e+00
4.011076354980468750e+01 -1.365481758117675959e+01 1.135335636138916016e+01 1.100000000000000000e+01
2.321590423583983931e+00 -7.935002446174621582e-01 -6.574003696441650391e-01 1.900000000000000000e+01
2.675331592559814009e+00 -9.154490828514099121e-01 -6.528079509735107422e-01 1.300000000000000000e+01
3.168735027313231978e+00 -1.084900498390197976e+00 -6.510403156280517578e-01 1.200000000000000000e+01
3.828866958618164062e+00 -1.312407493591309038e+00 -6.410684585571289062e-01 1.000000000000000000e+01
4.975686073303222656e+00 -1.707439899444580078e+00 -6.459075212478637695e-01 9.000000000000000000e+00
6.687758922576904297e+00 -2.296253919601439986e+00 -6.186314821243286133e-01 5.000000000000000000e+00
1.051109313964843928e+01 -3.613104581832886186e+00 -5.824992060661315918e-01 3.000000000000000000e+00
4.032580184936522727e+01 -1.386954402923583984e+01 9.845208168029785156e+00 1.300000000000000000e+01
4.009814071655272727e+01 -1.379906940460205078e+01 1.136267375946044922e+01 1.100000000000000000e+01
2.333413124084473100e+00 -8.066487312316894531e-01 -6.615414619445800781e-01 2.000000000000000000e+01
2.679486036300659180e+00 -9.273315072059631348e-01 -6.546075940132141113e-01 1.500000000000000000e+01
3.161218404769897017e+00 -1.094669938087462935e+00 -6.502770781517028809e-01 1.300000000000000000e+01
3.829861640930175781e+00 -1.327705860137939009e+00 -6.420070528984069824e-01 9.000000000000000000e+00
4.969695568084716797e+00 -1.724797964096068892e+00 -6.459075212478637695e-01 9.000000000000000000e+00
6.696641921997070312e+00 -2.325466871261597124e+00 -6.202002763748168945e-01 5.000000000000000000e+00
1.048143768310547053e+01 -3.643870353698730025e+00 -5.815571546554565430e-01 9.000000000000000000e+00
4.035989379882813211e+01 -1.404690456390381037e+01 1.145067214965819957e+01 1.100000000000000000e+01
2.321323394775391069e+00 -8.120063543319702148e-01 -6.589533090591430664e-01 2.100000000000000000e+01
2.685265302658081055e+00 -9.403665065765380859e-01 -6.568570733070373535e-01 1.400000000000000000e+01
3.153479337692261186e+00 -1.104950666427612083e+00 -6.495138406753540039e-01 1.200000000000000000e+01
3.838017702102661133e+00 -1.346311092376708984e+00 -6.441971063613891602e-01 1.000000000000000000e+01
4.978324413299561435e+00 -1.748263120651244895e+00 -6.478574275970458984e-01 9.000000000000000000e+00
6.691833019256591797e+00 -2.351316452026367188e+00 -6.205489039421081543e-01 5.000000000000000000e+00
1.079019165039063033e+01 -3.795593261718750000e+00 -5.994560718536376953e-01 3.000000000000000000e+00
4.006743621826171875e+01 -1.410211181640625000e+01 9.806516647338867188e+00 1.300000000000000000e+01
4.011134719848632812e+01 -1.412543487548827947e+01 1.139476680755615057e+01 1.100000000000000000e+01
2.313010931015015093e+00 -8.181716203689575195e-01 -6.574003696441650391e-01 1.900000000000000000e+01
2.678292512893677202e+00 -9.484331011772155762e-01 -6.559572815895080566e-01 1.400000000000000000e+01
3.149603128433227983e+00 -1.115951657295227051e+00 -6.495138406753540039e-01 1.300000000000000000e+01
3.837018251419066939e+00 -1.361020922660828081e+00 -6.448228359222412109e-01 1.000000000000000000e+01
