3.163938760757445845e+00 1.711449027061461958e+00 -5.697343349456787109e-01 1.100000000000000000e+01
3.904834985733031782e+00 2.110455751419066939e+00 -5.449997186660766602e-01 9.000000000000000000e+00
5.200952529907226562e+00 2.809798955917357954e+00 -5.171821713447570801e-01 1.100000000000000000e+01
7.334251403808593750e+00 3.959000110626221147e+00 -4.367958903312683105e-01 1.000000000000000000e+00
3.480965423583983664e+01 1.878226852416991832e+01 9.131663322448730469e+00 1.200000000000000000e+01
1.222512817382813033e+01 6.593566894531250000e+00 -2.424488365650177002e-01 2.000000000000000000e+00
3.281740570068358664e+01 1.769252395629883168e+01 9.989897727966308594e+00 8.000000000000000000e+00
2.000882863998413086e+00 1.076013326644897017e+00 -6.087424159049987793e-01 1.900000000000000000e+01
2.286547422409058061e+00 1.228606224060059038e+00 -5.992696285247802734e-01 1.300000000000000000e+01
2.642790317535399947e+00 1.419427990913390891e+00 -5.831122994422912598e-01 1.300000000000000000e+01
3.167856216430664062e+00 1.700013637542725053e+00 -5.694214701652526855e-01 9.000000000000000000e+00
3.920559406280518022e+00 2.102185487747191939e+00 -5.462183952331542969e-01 1.000000000000000000e+01
5.204973697662354404e+00 2.789712905883789062e+00 -5.166592597961425781e-01 1.300000000000000000e+01
7.382553100585938388e+00 3.953514814376831055e+00 -4.388893246650695801e-01 2.000000000000000000e+00
1.225397872924805043e+01 6.556764125823974609e+00 -2.425884455442428866e-01 2.000000000000000000e+00
3.272974777221679688e+01 1.751277923583984020e+01 9.946415901184082031e+00 8.000000000000000000e+00
2.002922058105469194e+00 1.068113446235656960e+00 -6.082247495651245117e-01 1.800000000000000000e+01
2.292541980743408203e+00 1.221533536911010964e+00 -5.997195243835449219e-01 1.200000000000000000e+01
2.656392812728881836e+00 1.414808869361876997e+00 -5.850203633308410645e-01 1.300000000000000000e+01
3.175514936447143999e+00 1.689873337745666948e+00 -5.697343349456787109e-01 1.000000000000000000e+01
3.806055831909179688e+01 2.024567985534667969e+01 5.293272972106933594e+00 3.100000000000000000e+01
3.934884309768677202e+00 2.092215061187744141e+00 -5.471933484077453613e-01 1.000000000000000000e+01
5.191808223724365234e+00 2.759371280670166016e+00 -5.143932104110717773e-01 1.300000000000000000e+01
3.288272476196289062e+01 1.746933555603026988e+01 7.237766742706298828e+00 6.100000000000000000e+01
7.406892299652099609e+00 3.933341264724731001e+00 -4.395173490047454834e-01 2.000000000000000000e+00
3.508472061157227273e+01 1.862347030639648082e+01 9.170354843139648438e+00 1.200000000000000000e+01
1.226266002655028942e+01 6.506451606750488281e+00 -2.423092126846312921e-01 2.000000000000000000e+00
3.347328186035156250e+01 1.776060867309569957e+01 1.015347099304199041e+01 8.000000000000000000e+00
2.003222703933715820e+00 1.059309244155884011e+00 -6.071894764900207520e-01 1.800000000000000000e+01
2.296791791915893999e+00 1.213523626327515093e+00 -5.997195243835449219e-01 1.100000000000000000e+01
2.649163246154785156e+00 1.399109721183777078e+00 -5.823490619659423828e-01 1.100000000000000000e+01
3.172658920288085938e+00 1.674168944358825906e+00 -5.681699514389038086e-01 9.000000000000000000e+00
3.945675611495972124e+00 2.080318689346313032e+00 -5.476808547973632812e-01 1.000000000000000000e+01
5.208458900451660156e+00 2.744947195053101030e+00 -5.150904655456542969e-01 1.700000000000000000e+01
7.417042732238770419e+00 3.905601263046265093e+00 -4.393080174922943115e-01 2.000000000000000000e+00
3.514951705932617188e+01 1.850088882446289062e+01 9.170354843139648438e+00 1.200000000000000000e+01
1.228529739379882990e+01 6.463607311248779297e+00 -2.423092126846312921e-01 2.000000000000000000e+00
3.350430297851563211e+01 1.762746620178223012e+01 1.014415359497069957e+01 8.000000000000000000e+00
2.018884420394897017e+00 1.058589935302733931e+00 -6.108129620552062988e-01 1.900000000000000000e+01
2.288930416107178178e+00 1.199168562889098899e+00 -5.965701937675476074e-01 1.300000000000000000e+01
2.671422958374022993e+00 1.398961782455443892e+00 -5.861652493476867676e-01 1.300000000000000000e+01
3.181984186172484907e+00 1.664915680885314941e+00 -5.687957406044006348e-01 9.000000000000000000e+00
3.945876359939575195e+00 2.062854290008544922e+00 -5.467059016227722168e-01 1.000000000000000000e+01
3.360380935668945312e+01 1.756018066406250000e+01 6.005206108093261719e+00 1.300000000000000000e+01
5.210945606231688565e+00 2.723058700561522993e+00 -5.143932104110717773e-01 1.600000000000000000e+01
7.416467189788818359e+00 3.872292041778564009e+00 -4.384706318378447931e-01 1.000000000000000000e+00
3.590492630004882812e+01 1.873873710632323863e+01 9.350315093994140625e+00 1.200000000000000000e+01
1.233615112304688033e+01 6.435482978820800781e+00 -2.428676933050155917e-01 2.000000000000000000e+00
3.342822265625000000e+01 1.743130302429198863e+01 1.010170745849609020e+01 8.000000000000000000e+00
2.024465084075928178e+00 1.052074074745178001e+00 -6.113305687904357910e-01 1.700000000000000000e+01
2.298498868942261186e+00 1.193465113639831987e+00 -5.979198813438415527e-01 1.100000000000000000e+01
2.666077136993408203e+00 1.383734703063965066e+00 -5.838755369186401367e-01 1.200000000000000000e+01
3.196833133697510210e+00 1.657788753509521040e+00 -5.703600645065307617e-01 1.000000000000000000e+01
3.948122978210449219e+00 2.045638322830200195e+00 -5.459746718406677246e-01 1.000000000000000000e+01
3.367847061157227273e+01 1.744234848022460938e+01 6.007083415985107422e+00 1.300000000000000000e+01
5.229737281799316406e+00 2.708522796630858931e+00 -5.152647495269775391e-01 1.100000000000000000e+01
7.437705039978027344e+00 3.848754882812500000e+00 -4.388893246650695801e-01 2.000000000000000000e+00
3.404513931274414062e+01 1.760964775085448863e+01 8.849124908447265625e+00 1.200000000000000000e+01
1.237031364440917969e+01 6.395735740661621094e+00 -2.430771142244338989e-01 2.000000000000000000e+00
2.026407957077025923e+00 1.044116139411926047e+00 -6.108129620552062988e-01 1.600000000000000000e+01
2.309581279754639116e+00 1.189002513885498047e+00 -5.997195243835449219e-01 1.200000000000000000e+01
2.667399644851685014e+00 1.372623324394226074e+00 -5.831122994422912598e-01 1.200000000000000000e+01
3.213140964508057085e+00 1.652039170265197976e+00 -5.722372531890869141e-01 1.000000000000000000e+01
3.962302446365356001e+00 2.035472631454468218e+00 -5.469496250152587891e-01 1.000000000000000000e+01
3.385161590576171875e+01 1.738243293762207031e+01 6.027107238769531250e+00 1.300000000000000000e+01
5.230298042297363281e+00 2.685700416564940962e+00 -5.143932104110717773e-01 1.300000000000000000e+01
3.238233947753906250e+01 1.662083435058594105e+01 7.075197696685791016e+00 6.100000000000000000e+01
7.458202838897705078e+00 3.826415777206420898e+00 -4.393080174922943115e-01 1.000000000000000000e+00
3.401969909667968750e+01 1.744623947143555043e+01 8.826629638671875000e+00 1.200000000000000000e+01
1.238188648223876953e+01 6.347043037414550781e+00 -2.428676933050155917e-01 5.000000000000000000e+00
2.021438360214232954e+00 1.032642126083374023e+00 -6.082247495651245117e-01 1.700000000000000000e+01
2.320660352706909180e+00 1.184476971626281960e+00 -6.015191078186035156e-01 1.400000000000000000e+01
2.666928529739379883e+00 1.360627293586730957e+00 -5.819674134254455566e-01 1.200000000000000000e+01
3.208328723907471147e+00 1.635430455207824929e+00 -5.703600645065307617e-01 1.000000000000000000e+01
3.558508300781250000e+01 1.813150596618651988e+01 4.903778553009033203e+00 2.100000000000000000e+01
3.988841295242310014e+00 2.031539201736450195e+00 -5.496307611465454102e-01 1.100000000000000000e+01
5.218334197998046875e+00 2.656580209732056108e+00 -5.123014450073242188e-01 1.900000000000000000e+01
7.475074291229248047e+00 3.802169561386107954e+00 -4.395173490047454834e-01 1.000000000000000000e+00
1.240753173828125000e+01 6.305595397949218750e+00 -2.429374903440474909e-01 2.000000000000000000e+00
3.882033157348632812e+01 1.972024345397948863e+01 1.166704463958740057e+01 1.100000000000000000e+01
2.030200958251953125e+00 1.028198242187500000e+00 -6.097776889801025391e-01 1.600000000000000000e+01
2.324780941009521040e+00 1.176369190216064009e+00 -6.015191078186035156e-01 1.400000000000000000e+01
2.687428951263428178e+00 1.359284639358520952e+00 -5.854020118713378906e-01 1.100000000000000000e+01
3.214017868041992188e+00 1.624221324920654075e+00 -5.703600645065307617e-01 1.100000000000000000e+01
3.985276222229003906e+00 2.012234926223754883e+00 -5.481683015823364258e-01 1.000000000000000000e+01
3.397214126586914062e+01 1.714568138122558949e+01 6.027107238769531250e+00 1.300000000000000000e+01
5.231132984161376953e+00 2.640143871307373047e+00 -5.126500725746154785e-01 1.600000000000000000e+01
7.509701251983642578e+00 3.786844730377196822e+00 -4.407734274864196777e-01 1.000000000000000000e+00
3.425551986694335938e+01 1.726620292663573863e+01 8.856323242187500000e+00 1.200000000000000000e+01
1.242946720123291016e+01 6.262246608734130859e+00 -2.429374903440474909e-01 2.000000000000000000e+00
3.853694915771483664e+01 1.940735435485839844e+01 1.156144714355468928e+01 1.100000000000000000e+01
2.032051086425780806e+00 1.020238399505615012e+00 -6.092600226402282715e-01 1.600000000000000000e+01
2.321905612945557085e+00 1.164751887321471946e+00 -5.997195243835449219e-01 1.300000000000000000e+01
2.690402269363402876e+00 1.349015474319458008e+00 -5.850203633308410645e-01 1.100000000000000000e+01
3.221433877944945845e+00 1.613877296447753906e+00 -5.706729292869567871e-01 1.100000000000000000e+01
3.797921752929688211e+01 1.901857566833496094e+01 5.215276718139648438e+00 2.900000000000000000e+01
3.999376535415648970e+00 2.001865625381470171e+00 -5.491432547569274902e-01 1.700000000000000000e+01
5.243880748748779297e+00 2.623650789260863814e+00 -5.129987001419067383e-01 1.300000000000000000e+01
7.522873878479003906e+00 3.760607957839965820e+00 -4.407734274864196777e-01 1.000000000000000000e+00
3.387977218627929688e+01 1.692876243591308949e+01 8.743847846984863281e+00 1.100000000000000000e+01
1.245840644836425959e+01 6.222395896911621094e+00 -2.430771142244338989e-01 2.000000000000000000e+00
2.052894830703734907e+00 1.021746754646301047e+00 -6.144363880157470703e-01 1.800000000000000000e+01
2.327702045440673828e+00 1.157507538795470969e+00 -6.001694202423095703e-01 1.500000000000000000e+01
2.695094823837279829e+00 1.339616060256958008e+00 -5.850203633308410645e-01 1.200000000000000000e+01
3.230586290359497070e+00 1.604379773139954057e+00 -5.712986588478088379e-01 1.100000000000000000e+01
3.997448682785034180e+00 1.983481287956238015e+00 -5.479245781898498535e-01 9.000000000000000000e+00
5.251222133636474609e+00 2.604444980621337891e+00 -5.128244161605834961e-01 9.000000000000000000e+00
7.528796672821044922e+00 3.730777978897095171e+00 -4.403547346591948908e-01 2.000000000000000000e+00
3.250323104858397727e+01 1.609940528869628906e+01 8.374028205871582031e+00 1.000000000000000000e+01
1.249080276489257990e+01 6.184193611145020419e+00 -2.432865500450134000e-01 2.000000000000000000e+00
3.732098007202147727e+01 1.846949958801269887e+01 1.115768909454346058e+01 1.000000000000000000e+01
2.042413234710692915e+00 1.008093237876892090e+00 -6.102952957153320312e-01 1.700000000000000000e+01
2.342014312744141069e+00 1.154953718185425027e+00 -6.028688549995422363e-01 1.500000000000000000e+01
2.696000337600708008e+00 1.328935384750365989e+00 -5.842571258544921875e-01 1.200000000000000000e+01
3.248293638229370117e+00 1.599767208099365012e+00 -5.734887719154357910e-01 1.100000000000000000e+01
3.989755153656005859e+00 1.963202953338623047e+00 -5.459746718406677246e-01 9.000000000000000000e+00
3.420776748657227273e+01 1.683230972290039062e+01 6.038370132446289062e+00 1.300000000000000000e+01
5.259829998016357422e+00 2.587017059326171875e+00 -5.128244161605834961e-01 9.000000000000000000e+00
7.562637329101563388e+00 3.716361522674560991e+00 -4.416108131408690851e-01 2.000000000000000000e+00
3.233255004882813211e+01 1.588155937194824041e+01 8.316440582275390625e+00 1.000000000000000000e+01
1.248611164093017933e+01 6.130400180816650391e+00 -2.427978813648223877e-01 2.000000000000000000e+00
3.756610488891602273e+01 1.844411277770996094e+01 1.121359348297118963e+01 1.000000000000000000e+01
2.042448997497559038e+00 9.992597103118896484e-01 -6.092600226402282715e-01 1.700000000000000000e+01
3.823268127441406250e+01 1.869691085815430043e+01 7.428791522979736328e-01 4.200000000000000000e+01
2.351284027099608931e+00 1.149338841438293013e+00 -6.042185425758361816e-01 1.600000000000000000e+01
2.702386856079102007e+00 1.320378303527832031e+00 -5.846387743949890137e-01 1.200000000000000000e+01
3.244982242584228960e+00 1.584086060523987038e+00 -5.719243884086608887e-01 1.100000000000000000e+01
4.014425754547119141e+00 1.957966208457946999e+00 -5.484120249748229980e-01 9.000000000000000000e+00
5.265246391296386719e+00 2.566894769668579102e+00 -5.124757885932922363e-01 9.000000000000000000e+00
3.289702224731445312e+01 1.603073692321776988e+01 7.113359451293945312e+00 6.100000000000000000e+01
7.582746028900145596e+00 3.693438768386840820e+00 -4.420294761657714844e-01 2.000000000000000000e+00
3.227915954589843750e+01 1.571571159362792969e+01 8.288546562194824219e+00 1.000000000000000000e+01
1.248945426940917969e+01 6.078027725219726562e+00 -2.424488365650177002e-01 2.000000000000000000e+00
3.580937194824218750e+01 1.741900062561035156e+01 1.067007350921631037e+01 9.000000000000000000e+00
2.040709972381591797e+00 9.895954132080078125e-01 -6.077071428298950195e-01 1.600000000000000000e+01
2.353527784347534180e+00 1.140274643898010032e+00 -6.037686467170715332e-01 1.500000000000000000e+01
2.714047193527222124e+00 1.314360022544861062e+00 -5.861652493476867676e-01 1.200000000000000000e+01
3.241601228713988814e+00 1.568447470664978027e+00 -5.703600645065307617e-01 1.100000000000000000e+01
3.866672515869141336e+01 1.870055198669433949e+01 5.273774147033691406e+00 3.100000000000000000e+01
4.028384685516357422e+00 1.947397232055664062e+00 -5.493869781494140625e-01 1.000000000000000000e+01
3.426042175292968750e+01 1.656213378906250000e+01 6.027107238769531250e+00 1.300000000000000000e+01
5.281350135803222656e+00 2.551967382431029829e+00 -5.131729841232299805e-01 9.000000000000000000e+00
7.588397979736328125e+00 3.663474321365356001e+00 -4.416108131408690851e-01 2.000000000000000000e+00
1.252500343322754084e+01 6.041344165802001953e+00 -2.427280694246292114e-01 2.000000000000000000e+00
3.508740997314453125e+01 1.692415809631348012e+01 1.043817234039306996e+01 8.000000000000000000e+00
2.054599046707152876e+00 9.874870777130126953e-01 -6.108129620552062988e-01 1.500000000000000000e+01
2.339926719665526900e+00 1.123616814613342063e+00 -5.992696285247802734e-01 1.500000000000000000e+01
2.715078830718994141e+00 1.303179144859313965e+00 -5.854020118713378906e-01 1.200000000000000000e+01
3.254180908203125000e+00 1.560539245605468972e+00 -5.716115236282348633e-01 1.000000000000000000e+01
3.862436294555664062e+01 1.851398468017578125e+01 5.259149551391601562e+00 3.100000000000000000e+01
4.045898914337158203e+00 1.938470005989074929e+00 -5.508494377136230469e-01 7.000000000000000000e+00
5.299211025238037109e+00 2.537819385528564009e+00 -5.140445828437805176e-01 9.000000000000000000e+00
7.608345985412597656e+00 3.640411615371704102e+00 -4.420294761657714844e-01 2.000000000000000000e+00
3.209273910522460938e+01 1.534872531890868963e+01 8.212963104248046875e+00 1.000000000000000000e+01
1.257488155364990057e+01 6.011386394500732422e+00 -2.432865500450134000e-01 2.000000000000000000e+00
3.503764724731445312e+01 1.674213600158691051e+01 1.040504360198974965e+01 8.000000000000000000e+00
2.065009832382202148e+00 9.836322665214538574e-01 -6.128835082054138184e-01 1.600000000000000000e+01
2.356152057647705078e+00 1.121304035186768022e+00 -6.024188995361328125e-01 1.700000000000000000e+01
2.723156929016112837e+00 1.295380473136902078e+00 -5.861652493476867676e-01 1.200000000000000000e+01
3.257824182510375977e+00 1.548322558403014915e+00 -5.712986588478088379e-01 1.000000000000000000e+01
4.050847530364990234e+00 1.923483848571776900e+00 -5.506057143211364746e-01 6.000000000000000000e+00
3.464287567138671875e+01 1.644964599609375000e+01 6.074037551879882812e+00 1.400000000000000000e+01
5.317037105560302734e+00 2.523577690124512163e+00 -5.149161219596862793e-01 9.000000000000000000e+00
7.610179424285888672e+00 3.608696937561035156e+00 -4.414014518260955811e-01 2.000000000000000000e+00
3.202285385131835938e+01 1.517818164825438920e+01 8.181469917297363281e+00 1.000000000000000000e+01
1.259578800201416016e+01 5.967455387115479404e+00 -2.432865500450134000e-01 2.000000000000000000e+00
3.487998199462891336e+01 1.652494812011719105e+01 1.034189128875732067e+01 8.000000000000000000e+00
2.064936637878417969e+00 9.747686982154846191e-01 -6.118482351303100586e-01 1.500000000000000000e+01
2.358289241790771040e+00 1.112241387367248979e+00 -6.019690036773681641e-01 1.400000000000000000e+01
2.722334623336791992e+00 1.283355593681335005e+00 -5.850203633308410645e-01 1.200000000000000000e+01
3.275718688964844194e+00 1.542833089828490989e+00 -5.734887719154357910e-01 1.000000000000000000e+01
4.041371822357177734e+00 1.901725172996520996e+00 -5.484120249748229980e-01 9.000000000000000000e+00
5.325813293457031250e+00 2.505002260208129883e+00 -5.149161219596862793e-01 9.000000000000000000e+00
7.640805721282958984e+00 3.590604782104492188e+00 -4.424481689929962158e-01 2.000000000000000000e+00
1.259844112396240057e+01 5.914953231811523438e+00 -2.429374903440474909e-01 2.000000000000000000e+00
3.485636901855468750e+01 1.635760116577148082e+01 1.031704521179199041e+01 8.000000000000000000e+00
2.061327219009398970e+00 9.642804861068725586e-01 -6.097776889801025391e-01 1.500000000000000000e+01
2.376280784606934038e+00 1.110603570938109907e+00 -6.055682301521301270e-01 1.400000000000000000e+01
2.732133865356444868e+00 1.276337862014770952e+00 -5.861652493476867676e-01 1.100000000000000000e+01
3.266764163970946822e+00 1.524705648422240989e+00 -5.709857940673828125e-01 1.000000000000000000e+01
4.071373939514160156e+00 1.898512721061706987e+00 -5.515806674957275391e-01 1.100000000000000000e+01
3.488219070434570312e+01 1.626583290100098012e+01 6.095938205718994141e+00 1.400000000000000000e+01
5.320078372955322266e+00 2.479662895202637163e+00 -5.135216116905212402e-01 9.000000000000000000e+00
3.352770614624022727e+01 1.561997985839843928e+01 7.189682960510253906e+00 6.100000000000000000e+01
7.653292655944824219e+00 3.563911676406859907e+00 -4.424481689929962158e-01 2.000000000000000000e+00
3.211037063598632812e+01 1.494602870941161932e+01 8.176970481872558594e+00 1.000000000000000000e+01
1.260088062286376953e+01 5.862504959106445312e+00 -2.425884455442428866e-01 7.000000000000000000e+00
3.516264724731445312e+01 1.635927009582519887e+01 1.039158439636229936e+01 8.000000000000000000e+00
2.062927961349486861e+00 9.562667608261108398e-01 -6.092600226402282715e-01 1.500000000000000000e+01
2.367764949798583984e+00 1.096569418907165971e+00 -6.024188995361328125e-01 1.300000000000000000e+01
2.736572504043579102e+00 1.266793131828308105e+00 -5.861652493476867676e-01 1.200000000000000000e+01
3.270273447036743164e+00 1.512464046478271040e+00 -5.706729292869567871e-01 1.100000000000000000e+01
4.088788032531738281e+00 1.889285326004028098e+00 -5.530430674552917480e-01 1.100000000000000000e+01
5.335936546325683594e+00 2.464418888092041016e+00 -5.142188668251037598e-01 9.000000000000000000e+00
7.665686607360839844e+00 3.537174940109252930e+00 -4.424481689929962158e-01 1.000000000000000000e+00
3.220835494995117188e+01 1.485507202148438033e+01 8.188668251037597656e+00 1.000000000000000000e+01
1.267211627960205078e+01 5.841925621032714844e+00 -2.435657829046249112e-01 7.000000000000000000e+00
3.507147979736328125e+01 1.616075325012207031e+01 1.034706783294677912e+01 8.000000000000000000e+00
2.076620101928710938e+00 9.542604684829711914e-01 -6.123658418655395508e-01 1.600000000000000000e+01
2.358991146087646040e+00 1.083020091056823953e+00 -5.992696285247802734e-01 1.100000000000000000e+01
2.749680042266846147e+00 1.261805534362792969e+00 -5.880733132362365723e-01 1.000000000000000000e+01
3.280658006668090820e+00 1.504080772399901900e+00 -5.716115236282348633e-01 1.000000000000000000e+01
4.096835613250732422e+00 1.876542687416077104e+00 -5.532867908477783203e-01 1.200000000000000000e+01
5.351325511932373047e+00 2.450028181076049805e+00 -5.149161219596862793e-01 9.000000000000000000e+00
3.345473098754882812e+01 1.530970859527588068e+01 7.151521205902099609e+00 6.100000000000000000e+01
7.677373886108398438e+00 3.511735200881958008e+00 -4.424481689929962158e-01 2.000000000000000000e+00
3.242049026489257812e+01 1.482273101806640980e+01 8.230059623718261719e+00 1.000000000000000000e+01
1.269869422912598012e+01 5.803195476531982422e+00 -2.437054067850112915e-01 5.000000000000000000e+00
3.523101806640625000e+01 1.610027694702148082e+01 1.037916088104248047e+01 8.000000000000000000e+00
2.078180313110352007e+00 9.462053775787353516e-01 -6.118482351303100586e-01 1.600000000000000000e+01
3.837273025512695312e+01 1.746320343017578125e+01 7.358981966972351074e-01 4.000000000000000000e+01
2.376948118209838867e+00 1.081234216690063032e+00 -6.028688549995422363e-01 1.200000000000000000e+01
2.755855083465576172e+00 1.253012299537658913e+00 -5.884549617767333984e-01 1.100000000000000000e+01
3.282291173934936968e+00 1.490986108779907005e+00 -5.709857940673828125e-01 1.000000000000000000e+01
3.738100433349608664e+01 1.697251319885253906e+01 5.040759563446044922e+00 2.500000000000000000e+01
4.099745750427246094e+00 1.860589981079102007e+00 -5.527993440628051758e-01 1.300000000000000000e+01
5.363474369049072266e+00 2.432979822158813032e+00 -5.152647495269775391e-01 9.000000000000000000e+00
3.368677139282227273e+01 1.527390861511229936e+01 7.189682960510253906e+00 6.100000000000000000e+01
7.707777023315429688e+00 3.493159055709838867e+00 -4.434948861598969061e-01 1.000000000000000000e+00
1.275530624389648082e+01 5.775330066680908203e+00 -2.444034963846206943e-01 2.000000000000000000e+00
3.511378860473632812e+01 1.589138793945313033e+01 1.032739734649658025e+01 8.000000000000000000e+00
2.088514328002930132e+00 9.421228766441345215e-01 -6.139187812805175781e-01 1.800000000000000000e+01
3.843345642089843750e+01 1.732915115356444957e+01 7.358981966972351074e-01 4.000000000000000000e+01
2.380707740783690962e+00 1.072930455207824929e+00 -6.028688549995422363e-01 1.100000000000000000e+01
3.852924728393554688e+01 1.735616111755371094e+01 2.214648246765137163e+00 2.800000000000000000e+01
2.749471902847290039e+00 1.238546848297118919e+00 -5.861652493476867676e-01 1.200000000000000000e+01
3.298283815383911133e+00 1.484383821487426980e+00 -5.728629827499389648e-01 1.100000000000000000e+01
4.109836101531982422e+00 1.847895860671997070e+00 -5.532867908477783203e-01 1.100000000000000000e+01
5.368299484252929688e+00 2.412609577178955078e+00 -5.149161219596862793e-01 9.000000000000000000e+00
7.719923496246337891e+00 3.466232776641846147e+00 -4.434948861598969061e-01 1.000000000000000000e+00
1.276809024810791016e+01 5.727496623992919922e+00 -2.442638874053955078e-01 2.000000000000000000e+00
3.492657470703125000e+01 1.566732692718506037e+01 1.025699901580811080e+01 8.000000000000000000e+00
2.077680349349976030e+00 9.285210967063903809e-01 -6.097776889801025391e-01 1.800000000000000000e+01
3.849371337890625000e+01 1.719488716125487926e+01 7.358981966972351074e-01 4.000000000000000000e+01
2.386217832565308061e+00 1.065408229827881081e+00 -6.033187508583068848e-01 1.200000000000000000e+01
2.759156942367554155e+00 1.231342077255249023e+00 -5.873100757598876953e-01 1.200000000000000000e+01
3.301640987396239790e+00 1.472057223320007102e+00 -5.725501179695129395e-01 1.100000000000000000e+01
4.123515129089354581e+00 1.836769580841064009e+00 -5.542617440223693848e-01 1.200000000000000000e+01
5.383968830108642578e+00 2.397097349166870117e+00 -5.156133770942687988e-01 9.000000000000000000e+00
7.768473148345947266e+00 3.455498456954956055e+00 -4.455883204936981201e-01 1.000000000000000000e+00
1.286841011047362926e+01 5.718624114990234375e+00 -2.457996904850006104e-01 2.000000000000000000e+00
3.502695465087891336e+01 1.556571292877197088e+01 1.027045726776123047e+01 8.000000000000000000e+00
2.089579820632935014e+00 9.255380034446716309e-01 -6.123658418655395508e-01 1.900000000000000000e+01
2.395083904266356978e+00 1.059855103492737038e+00 -6.046684384346008301e-01 1.400000000000000000e+01
2.775793313980102983e+00 1.227744579315185991e+00 -5.899814367294311523e-01 1.300000000000000000e+01
3.301084041595458984e+00 1.458705306053162065e+00 -5.716115236282348633e-01 1.000000000000000000e+01
4.144111156463623047e+00 1.829499006271362083e+00 -5.562117099761962891e-01 1.200000000000000000e+01
3.851612854003906250e+01 1.699566841125487926e+01 6.667862415313720703e+00 1.400000000000000000e+01
5.384597301483154297e+00 2.376013040542602983e+00 -5.149161219596862793e-01 9.000000000000000000e+00
7.754303932189941406e+00 3.418438911437987837e+00 -4.441229104995728094e-01 2.000000000000000000e+00
3.652719116210938211e+01 1.609518241882323863e+01 9.215344429016113281e+00 1.200000000000000000e+01
1.290194320678710938e+01 5.682367324829101562e+00 -2.460789233446120938e-01 2.000000000000000000e+00
3.522158432006835938e+01 1.551254558563232067e+01 1.031238555908202947e+01 1.700000000000000000e+01
2.094566822052001953e+00 9.190145730972290039e-01 -6.128835082054138184e-01 1.700000000000000000e+01
2.389844894409180132e+00 1.047576546669005904e+00 -6.024188995361328125e-01 1.500000000000000000e+01
2.783658504486083984e+00 1.219623565673827903e+00 -5.907446742057800293e-01 1.300000000000000000e+01
3.302536487579346147e+00 1.445589184761046919e+00 -5.709857940673828125e-01 1.000000000000000000e+01
3.477073669433593750e+01 1.521264648437500000e+01 4.660039901733398438e+00 2.000000000000000000e+01
4.132284164428710938e+00 1.807068586349487083e+00 -5.537742972373962402e-01 1.200000000000000000e+01
5.400160789489746094e+00 2.360394716262816939e+00 -5.156133770942687988e-01 9.000000000000000000e+00
7.773510456085205078e+00 3.394547700881958008e+00 -4.445416033267974854e-01 2.000000000000000000e+00
1.301334285736083984e+01 5.677277565002441406e+00 -2.478241771459578913e-01 2.000000000000000000e+00
3.544289016723632812e+01 1.545516014099120916e+01 1.036052608489990057e+01 8.000000000000000000e+00
2.104849100112915039e+00 9.147776365280151367e-01 -6.149540543556213379e-01 1.800000000000000000e+01
2.395274639129639116e+00 1.040004134178162065e+00 -6.028688549995422363e-01 1.400000000000000000e+01
2.784296989440917969e+00 1.208336114883423074e+00 -5.899814367294311523e-01 1.300000000000000000e+01
3.309374809265137163e+00 1.434838175773621050e+00 -5.712986588478088379e-01 1.000000000000000000e+01
3.464148330688477273e+01 1.501224899291992010e+01 4.635665893554688388e+00 1.900000000000000000e+01
4.140388488769531250e+00 1.793422222137450950e+00 -5.540180206298828125e-01 1.300000000000000000e+01
3.637150192260742188e+01 1.574689102172851918e+01 6.277402400970458984e+00 1.400000000000000000e+01
5.404710292816162109e+00 2.339946985244750977e+00 -5.152647495269775391e-01 9.000000000000000000e+00
7.781646251678466797e+00 3.365806579589844194e+00 -4.443322718143463135e-01 1.000000000000000000e+00
1.301105403900145951e+01 5.622299194335938388e+00 -2.474053204059601108e-01 2.000000000000000000e+00
3.696938705444335938e+01 1.597510528564452947e+01 1.079120159149169922e+01 1.900000000000000000e+01
2.109803915023804155e+00 9.081885814666748047e-01 -6.154716610908508301e-01 1.600000000000000000e+01
2.407841444015502930e+00 1.035486102104187012e+00 -6.051183342933654785e-01 1.500000000000000000e+01
2.781283140182495117e+00 1.195508599281311035e+00 -5.884549617767333984e-01 1.400000000000000000e+01
3.330698966979980025e+00 1.430292606353759988e+00 -5.741145014762878418e-01 1.000000000000000000e+01
4.150271892547607422e+00 1.780524015426635964e+00 -5.545055270195007324e-01 1.300000000000000000e+01
5.423832416534423828e+00 2.325778007507324219e+00 -5.163106322288513184e-01 9.000000000000000000e+00
7.808034420013427734e+00 3.344914913177489790e+00 -4.451696574687957764e-01 2.000000000000000000e+00
1.303427696228026988e+01 5.578421592712402344e+00 -2.474751174449920932e-01 2.000000000000000000e+00
3.512812423706054688e+01 1.503416633605957031e+01 1.023836421966552912e+01 8.000000000000000000e+00
2.095190286636352983e+00 8.932421803474426270e-01 -6.102952957153320312e-01 1.600000000000000000e+01
2.407855510711669922e+00 1.025547623634337935e+00 -6.042185425758361816e-01 1.500000000000000000e+01
2.790858507156372070e+00 1.188099861145019975e+00 -5.895997881889343262e-01 1.500000000000000000e+01
3.333853483200072798e+00 1.417884469032288042e+00 -5.738016366958618164e-01 1.100000000000000000e+01
3.784748840332031250e+01 1.608869743347167969e+01 5.049534320831298828e+00 2.500000000000000000e+01
4.174732208251953125e+00 1.773788690567017046e+00 -5.569428801536560059e-01 1.100000000000000000e+01
5.424582004547119141e+00 2.303715944290161133e+00 -5.156133770942687988e-01 9.000000000000000000e+00
7.815985679626464844e+00 3.316079378128052202e+00 -4.449602961540222168e-01 2.000000000000000000e+00
1.307208061218262074e+01 5.540693283081054688e+00 -2.478241771459578913e-01 2.000000000000000000e+00
3.515548706054688211e+01 1.490089988708495916e+01 1.023111724853515980e+01 8.000000000000000000e+00
2.107194185256958008e+00 8.896802663803100586e-01 -6.128835082054138184e-01 1.700000000000000000e+01
2.415011644363402876e+00 1.018651127815247026e+00 -6.051183342933654785e-01 1.600000000000000000e+01
3.710222244262695312e+01 1.564207744598389027e+01 2.110185861587523970e+00 2.300000000000000000e+01
2.794988632202147993e+00 1.178350687026977983e+00 -5.895997881889343262e-01 1.300000000000000000e+01
3.331500530242919922e+00 1.403171539306641069e+00 -5.725501179695129395e-01 1.100000000000000000e+01
4.193706512451171875e+00 1.764594674110413042e+00 -5.586490631103515625e-01 1.200000000000000000e+01
5.456466197967529297e+00 2.294807910919189009e+00 -5.178794264793395996e-01 9.000000000000000000e+00
7.849609375000000000e+00 3.298059940338135210e+00 -4.462163746356964111e-01 2.000000000000000000e+00
1.314665794372558949e+01 5.518247604370117188e+00 -2.488713115453720093e-01 2.000000000000000000e+00
3.518848800659179688e+01 1.476298046112061080e+01 1.022490501403808949e+01 8.000000000000000000e+00
2.112069129943848100e+00 8.830645680427551270e-01 -6.134011149406433105e-01 1.500000000000000000e+01
2.411360025405883789e+00 1.007210612297058105e+00 -6.033187508583068848e-01 1.300000000000000000e+01
2.813578605651855025e+00 1.174638152122498003e+00 -5.926527380943298340e-01 1.300000000000000000e+01
3.345494031906127930e+00 1.395335793495178001e+00 -5.741145014762878418e-01 1.000000000000000000e+01
3.640513229370117188e+01 1.517636299133300959e+01 4.842844009399414062e+00 2.000000000000000000e+01
4.190678596496582031e+00 1.746127605438231978e+00 -5.574303865432739258e-01 1.100000000000000000e+01
5.477317810058593750e+00 2.281109094619750977e+00 -5.190995931625366211e-01 8.000000000000000000e+00
7.868450164794921875e+00 3.273708581924438032e+00 -4.466350376605988104e-01 1.000000000000000000e+00
3.332591247558593750e+01 1.385859107971191051e+01 8.332636833190917969e+00 1.000000000000000000e+01
1.323970127105713068e+01 5.503024101257324219e+00 -2.502675056457520086e-01 2.000000000000000000e+00
3.755631256103516336e+01 1.561011791229248047e+01 1.089783477783202947e+01 1.000000000000000000e+01
2.115138769149779829e+00 8.756867051124572754e-01 -6.134011149406433105e-01 1.500000000000000000e+01
2.418462753295897993e+00 1.000276803970336914e+00 -6.042185425758361816e-01 1.500000000000000000e+01
2.808589935302733931e+00 1.161059498786926047e+00 -5.907446742057800293e-01 1.400000000000000000e+01
3.350344181060791016e+00 1.383649349212646040e+00 -5.741145014762878418e-01 1.000000000000000000e+01
3.643219375610352273e+01 1.503858852386474965e+01 4.839431762695313388e+00 2.000000000000000000e+01
4.191242694854736328e+00 1.729217529296875000e+00 -5.566991567611694336e-01 1.100000000000000000e+01
3.549758529663085938e+01 1.463829708099365057e+01 6.081546306610107422e+00 1.400000000000000000e+01
5.461302280426025391e+00 2.252101421356201172e+00 -5.168335437774658203e-01 9.000000000000000000e+00
7.861362457275390625e+00 3.238614797592163086e+00 -4.455883204936981201e-01 1.000000000000000000e+00
3.310018539428710938e+01 1.362939739227294922e+01 8.264251708984375000e+00 1.000000000000000000e+01
1.328102016448974965e+01 5.465908050537109375e+00 -2.506863772869110107e-01 2.000000000000000000e+00
3.768203353881835938e+01 1.550833606719971058e+01 1.091854000091552912e+01 1.000000000000000000e+01
2.125332593917847124e+00 8.712291121482849121e-01 -6.154716610908508301e-01 1.600000000000000000e+01
3.854943084716796875e+01 1.579455661773681996e+01 7.271719574928283691e-01 3.900000000000000000e+01
2.427349805831909180e+00 9.940443038940429688e-01 -6.055682301521301270e-01 1.600000000000000000e+01
2.810808658599853960e+00 1.150504946708678977e+00 -5.903630256652832031e-01 1.400000000000000000e+01
3.358810663223267046e+00 1.373441338539123979e+00 -5.747402310371398926e-01 1.100000000000000000e+01
4.204604148864746094e+00 1.717579483985901101e+00 -5.576741099357604980e-01 1.100000000000000000e+01
5.482042312622070312e+00 2.238296270370482954e+00 -5.180537104606628418e-01 9.000000000000000000e+00
7.883715629577636719e+00 3.215679645538330078e+00 -4.462163746356964111e-01 1.000000000000000000e+00
3.338214874267578125e+01 1.360941219329833984e+01 8.322738647460937500e+00 1.000000000000000000e+01
1.331483364105224965e+01 5.425551891326904297e+00 -2.509655952453612726e-01 2.000000000000000000e+00
2.117620468139647993e+00 8.594459891319274902e-01 -6.123658418655395508e-01 1.500000000000000000e+01
2.438028573989868164e+00 9.884940385818481445e-01 -6.073678731918334961e-01 1.700000000000000000e+01
2.816627264022827148e+00 1.141423702239990012e+00 -5.907446742057800293e-01 1.300000000000000000e+01
3.369077444076538086e+00 1.363932371139525923e+00 -5.756788253784179688e-01 1.100000000000000000e+01
4.216094970703125000e+00 1.705125093460083008e+00 -5.584053397178649902e-01 1.100000000000000000e+01
5.500905036926270419e+00 2.223626852035522017e+00 -5.190995931625366211e-01 9.000000000000000000e+00
7.894892215728759766e+00 3.188140869140625000e+00 -4.462163746356964111e-01 2.000000000000000000e+00
1.334110927581786932e+01 5.382034301757813388e+00 -2.511052191257476807e-01 2.000000000000000000e+00
3.761287307739257812e+01 1.516605091094971058e+01 1.086677646636963068e+01 9.000000000000000000e+00
2.115081548690795898e+00 8.502573370933532715e-01 -6.108129620552062988e-01 1.600000000000000000e+01
2.434059858322143999e+00 9.774989485740661621e-01 -6.055682301521301270e-01 1.400000000000000000e+01
2.822218656539916992e+00 1.132808566093445046e+00 -5.911262631416320801e-01 1.300000000000000000e+01
3.349746704101562944e+00 1.343195080757140891e+00 -5.716115236282348633e-01 1.100000000000000000e+01
4.223568916320800781e+00 1.691872835159301980e+00 -5.586490631103515625e-01 1.100000000000000000e+01
5.500849723815917969e+00 2.202410697937012163e+00 -5.184023380279541016e-01 9.000000000000000000e+00
7.905421257019042969e+00 3.161942958831787109e+00 -4.462163746356964111e-01 1.000000000000000000e+00
3.471533203125000000e+01 1.387811470031737926e+01 8.631371498107910156e+00 1.100000000000000000e+01
1.338859462738036932e+01 5.349635601043701172e+00 -2.516637146472930908e-01 2.000000000000000000e+00
3.759119796752929688e+01 1.501257896423340021e+01 1.084607124328612926e+01 9.000000000000000000e+00
2.128806352615356001e+00 8.471549153327941895e-01 -6.139187812805175781e-01 1.500000000000000000e+01
2.432024478912353960e+00 9.668368101119995117e-01 -6.042185425758361816e-01 1.500000000000000000e+01
2.838927268981934038e+00 1.128024935722351074e+00 -5.937975645065307617e-01 1.600000000000000000e+01
3.372775077819824219e+00 1.338782072067260964e+00 -5.747402310371398926e-01 1.000000000000000000e+01
4.025632476806641336e+01 1.597112560272216975e+01 5.317646980285645419e+00 3.200000000000000000e+01
4.244211196899414062e+00 1.682973265647887962e+00 -5.605989694595336914e-01 1.100000000000000000e+01
5.508504390716552734e+00 2.183195590972899947e+00 -5.184023380279541016e-01 9.000000000000000000e+00
7.916410446166992188e+00 3.134328603744506836e+00 -4.462163746356964111e-01 2.000000000000000000e+00
1.351875877380370916e+01 5.346997261047363281e+00 -2.537579834461212158e-01 2.000000000000000000e+00
3.775116348266602273e+01 1.492388343811034979e+01 1.087712955474854049e+01 1.000000000000000000e+01
2.136848688125609907e+00 8.425888419151306152e-01 -6.154716610908508301e-01 1.600000000000000000e+01
2.438676118850708008e+00 9.606200456619262695e-01 -6.051183342933654785e-01 1.500000000000000000e+01
2.836976766586304155e+00 1.116942882537842019e+00 -5.926527380943298340e-01 1.500000000000000000e+01
3.395347356796265093e+00 1.335409760475158913e+00 -5.778689384460449219e-01 1.100000000000000000e+01
4.231001377105712891e+00 1.662372112274169922e+00 -5.581616163253784180e-01 1.100000000000000000e+01
5.533881187438964844e+00 2.173162221908568892e+00 -5.201454758644104004e-01 9.000000000000000000e+00
7.944810867309570312e+00 3.116737127304077148e+00 -4.472630918025969904e-01 1.000000000000000000e+00
3.566657257080078125e+01 1.398475742340088068e+01 8.844625473022460938e+00 1.200000000000000000e+01
1.353549003601074041e+01 5.304500579833984375e+00 -2.537579834461212158e-01 2.000000000000000000e+00
3.746432495117188211e+01 1.468210792541504084e+01 1.078188419342041016e+01 9.000000000000000000e+00
2.134377956390380859e+00 8.330175876617431641e-01 -6.139187812805175781e-01 1.500000000000000000e+01
2.440198659896851030e+00 9.513937234878540039e-01 -6.046684384346008301e-01 1.400000000000000000e+01
2.840858459472655806e+00 1.107033252716064009e+00 -5.926527380943298340e-01 1.300000000000000000e+01
3.401829004287720171e+00 1.324266195297240989e+00 -5.781818032264709473e-01 1.100000000000000000e+01
4.251579761505126953e+00 1.653348803520203081e+00 -5.601115226745605469e-01 1.100000000000000000e+01
5.545146942138671875e+00 2.155275583267211914e+00 -5.204941034317016602e-01 9.000000000000000000e+00
7.955642223358154297e+00 3.088985443115233931e+00 -4.472630918025969904e-01 1.000000000000000000e+00
3.561706542968750000e+01 1.382210159301757990e+01 8.820330619812011719e+00 1.200000000000000000e+01
1.360239696502686080e+01 5.276021957397460938e+00 -2.546655237674713135e-01 2.000000000000000000e+00
3.764757537841796875e+01 1.459497261047362926e+01 1.081915378570556996e+01 9.000000000000000000e+00
2.139074802398682085e+00 8.262582421302795410e-01 -6.144363880157470703e-01 1.500000000000000000e+01
2.458049535751343218e+00 9.484823942184448242e-01 -6.082676649093627930e-01 1.300000000000000000e+01
2.850200653076171875e+00 1.099229335784912109e+00 -5.937975645065307617e-01 1.300000000000000000e+01
3.404587507247924805e+00 1.311673402786255105e+00 -5.778689384460449219e-01 1.100000000000000000e+01
4.257324695587158203e+00 1.638497948646544966e+00 -5.601115226745605469e-01 1.100000000000000000e+01
5.541479110717773438e+00 2.131614446640015093e+00 -5.194482207298278809e-01 9.000000000000000000e+00
7.985019683837890625e+00 3.068360328674315962e+00 -4.483098089694976807e-01 1.000000000000000000e+00
3.562871170043945312e+01 1.368371677398681996e+01 8.811332702636718750e+00 1.200000000000000000e+01
1.357219219207764027e+01 5.209876537322998047e+00 -2.537579834461212158e-01 2.000000000000000000e+00
3.742162704467772727e+01 1.436481761932373047e+01 1.074047279357909979e+01 9.000000000000000000e+00
2.136532545089722124e+00 8.167170882225036621e-01 -6.128835082054138184e-01 1.500000000000000000e+01
2.455883741378784180e+00 9.378108382225036621e-01 -6.069179177284240723e-01 1.200000000000000000e+01
2.859522819519042969e+00 1.091373801231384055e+00 -5.949424505233764648e-01 1.300000000000000000e+01
3.401762247085570845e+00 1.296966195106505904e+00 -5.766174197196960449e-01 1.100000000000000000e+01
4.270438671112061435e+00 1.626453399658202903e+00 -5.610864758491516113e-01 1.100000000000000000e+01
5.556334495544433594e+00 2.115093469619750977e+00 -5.201454758644104004e-01 9.000000000000000000e+00
7.995681762695313388e+00 3.040468692779541016e+00 -4.483098089694976807e-01 1.000000000000000000e+00
3.628832244873046875e+01 1.379188823699950994e+01 8.962499618530273438e+00 1.200000000000000000e+01
1.362394332885742010e+01 5.175250530242919922e+00 -2.543862760066986084e-01 2.000000000000000000e+00
3.747402572631835938e+01 1.422756385803223012e+01 1.074047279357909979e+01 9.000000000000000000e+00
2.137422323226929155e+00 8.089438080787658691e-01 -6.123658418655395508e-01 1.500000000000000000e+01
2.446220397949219194e+00 9.248376488685607910e-01 -6.037686467170715332e-01 1.400000000000000000e+01
2.861289739608765093e+00 1.081191301345824973e+00 -5.945608019828796387e-01 1.300000000000000000e+01
3.413436889648437944e+00 1.288468837738037109e+00 -5.778689384460449219e-01 1.000000000000000000e+01
4.275808811187744141e+00 1.612283110618591087e+00 -5.610864758491516113e-01 1.100000000000000000e+01
5.570775508880615234e+00 2.099466800689696822e+00 -5.208427309989929199e-01 9.000000000000000000e+00
7.987028121948242188e+00 3.006900310516356978e+00 -4.472630918025969904e-01 1.000000000000000000e+00
3.553863906860352273e+01 1.337225627899169922e+01 8.766342163085937500e+00 1.100000000000000000e+01
1.371589946746825994e+01 5.158199787139892578e+00 -2.557824552059174139e-01 2.000000000000000000e+00
3.732325363159179688e+01 1.403632354736327947e+01 1.068456745147705078e+01 9.000000000000000000e+00
2.151087999343872070e+00 8.055428266525268555e-01 -6.154716610908508301e-01 1.600000000000000000e+01
2.462210416793822798e+00 9.210726022720336914e-01 -6.069179177284240723e-01 1.500000000000000000e+01
2.861368417739868164e+00 1.069821834564208984e+00 -5.937975645065307617e-01 1.200000000000000000e+01
3.421614646911621094e+00 1.277928233146667036e+00 -5.784946680068969727e-01 1.100000000000000000e+01
4.273971080780029297e+00 1.594572305679321067e+00 -5.601115226745605469e-01 1.100000000000000000e+01
5.596738338470458984e+00 2.086969614028931108e+00 -5.225858092308044434e-01 9.000000000000000000e+00
3.668251800537108664e+01 1.367126464843750000e+01 7.609462738037109375e+00 6.300000000000000000e+01
8.016192436218261719e+00 2.985973834991455078e+00 -4.483098089694976807e-01 2.000000000000000000e+00
3.554857635498046875e+01 1.323452377319335938e+01 8.757344245910644531e+00 1.100000000000000000e+01
1.374881458282471058e+01 5.115869998931884766e+00 -2.560617029666901190e-01 2.000000000000000000e+00
2.152353286743164062e+00 7.966067790985107422e-01 -6.149540543556213379e-01 1.500000000000000000e+01
2.474868059158325195e+00 9.149904251098632812e-01 -6.091674566268920898e-01 1.600000000000000000e+01
2.863613605499268022e+00 1.058146595954895020e+00 -5.934159755706787109e-01 1.300000000000000000e+01
3.441321611404418945e+00 1.270253062248229980e+00 -5.809975862503051758e-01 1.000000000000000000e+01
4.283787250518798828e+00 1.579523324966431108e+00 -5.605989694595336914e-01 1.100000000000000000e+01
5.586015224456787109e+00 2.058574914932250977e+00 -5.208427309989929199e-01 9.000000000000000000e+00
8.038844108581542969e+00 2.959311723709106001e+00 -4.489378333091735840e-01 1.000000000000000000e+00
3.561376190185546875e+01 1.310331249237061080e+01 8.760943412780761719e+00 1.100000000000000000e+01
1.375334167480468928e+01 5.057519435882568359e+00 -2.557824552059174139e-01 2.000000000000000000e+00
2.142422437667847124e+00 7.844393253326416016e-01 -6.113305687904357910e-01 1.500000000000000000e+01
2.476216554641724077e+00 9.056766033172607422e-01 -6.087175607681274414e-01 1.500000000000000000e+01
2.872821569442749023e+00 1.050166487693787065e+00 -5.945608019828796387e-01 1.400000000000000000e+01
3.434601545333861861e+00 1.254167437553405984e+00 -5.791203975677490234e-01 1.000000000000000000e+01
4.293004512786865234e+00 1.565920948982238992e+00 -5.610864758491516113e-01 1.100000000000000000e+01
5.596910953521729404e+00 2.040428400039672852e+00 -5.211913585662841797e-01 9.000000000000000000e+00
8.056632041931152344e+00 2.933966636657714844e+00 -4.493565261363983154e-01 2.000000000000000000e+00
1.378594589233398082e+01 5.014949321746826172e+00 -2.560617029666901190e-01 2.000000000000000000e+00
3.706137847900391336e+01 1.347459030151367010e+01 1.056654644012450994e+01 9.000000000000000000e+00
2.152140855789185014e+00 7.803388833999633789e-01 -6.134011149406433105e-01 1.500000000000000000e+01
2.473552942276000977e+00 8.959019780158996582e-01 -6.073678731918334961e-01 1.400000000000000000e+01
2.883490800857543945e+00 1.043809056282043013e+00 -5.960872769355773926e-01 1.300000000000000000e+01
3.440382242202758789e+00 1.244042873382567915e+00 -5.794332623481750488e-01 1.000000000000000000e+01
4.309105396270751953e+00 1.556472659111022949e+00 -5.625488758087158203e-01 1.100000000000000000e+01
5.605167388916015625e+00 2.023511648178101030e+00 -5.213656425476074219e-01 9.000000000000000000e+00
8.065809249877929688e+00 2.908641576766968218e+00 -4.493565261363983154e-01 2.000000000000000000e+00
1.384302234649658025e+01 4.986524105072020596e+00 -2.568296194076538086e-01 2.000000000000000000e+00
3.691399002075195312e+01 1.329713249206542969e+01 1.051322937011718928e+01 1.800000000000000000e+01
2.160306930541992188e+00 7.747782468795776367e-01 -6.149540543556213379e-01 1.500000000000000000e+01
2.469326734542847124e+00 8.846333026885986328e-01 -6.055682301521301270e-01 1.400000000000000000e+01
2.888965129852294922e+00 1.034399271011352983e+00 -5.964689254760742188e-01 1.200000000000000000e+01
3.440983772277832031e+00 1.230695605278014915e+00 -5.788075327873229980e-01 9.000000000000000000e+00
4.314512252807617188e+00 1.541421532630919966e+00 -5.625488758087158203e-01 1.200000000000000000e+01
5.614073276519775391e+00 2.004603624343872070e+00 -5.215399861335754395e-01 9.000000000000000000e+00
8.083437919616699219e+00 2.883152723312377930e+00 -4.497752189636229914e-01 2.000000000000000000e+00
3.654489898681641336e+01 1.302742862701416016e+01 8.957100868225097656e+00 1.200000000000000000e+01
1.391308784484862926e+01 4.956964015960693359e+00 -2.578069567680358887e-01 2.000000000000000000e+00
3.714992904663085938e+01 1.322849464416504084e+01 1.056654644012450994e+01 9.000000000000000000e+00
2.157669782638549805e+00 7.649186253547668457e-01 -6.134011149406433105e-01 1.300000000000000000e+01
2.476226568222045898e+00 8.768777847290039062e-01 -6.064680218696594238e-01 1.400000000000000000e+01
2.896438360214232954e+00 1.025113701820373979e+00 -5.972321629524230957e-01 1.300000000000000000e+01
3.460370779037476030e+00 1.223342895507812944e+00 -5.813104510307312012e-01 1.000000000000000000e+01
4.305158138275145596e+00 1.520309686660767046e+00 -5.605989694595336914e-01 1.100000000000000000e+01
5.640170574188232422e+00 1.990644574165344016e+00 -5.232830643653869629e-01 9.000000000000000000e+00
8.120321273803710938e+00 2.862803220748900923e+00 -4.512406289577484131e-01 1.000000000000000000e+00
3.657402038574218750e+01 1.288692092895507990e+01 8.952602386474609375e+00 1.200000000000000000e+01
1.393870735168457031e+01 4.908593654632568359e+00 -2.579465806484221857e-01 2.000000000000000000e+00
3.698815155029296875e+01 1.302558517456055043e+01 1.050753593444824041e+01 9.000000000000000000e+00
2.162149667739868164e+00 7.580214142799377441e-01 -6.139187812805175781e-01 1.600000000000000000e+01
2.481111526489257812e+00 8.688728809356689453e-01 -6.069179177284240723e-01 1.500000000000000000e+01
2.887027740478516069e+00 1.010457158088684082e+00 -5.945608019828796387e-01 1.300000000000000000e+01
3.460890531539916992e+00 1.209952712059020996e+00 -5.806847214698791504e-01 9.000000000000000000e+00
