-3.482834625244141336e+01 -3.869698047637939009e+00 -6.116719245910644531e-01 1.400000000000000000e+01
-2.565515279769897017e+00 -2.818759381771088202e-01 -6.915645003318786621e-01 1.900000000000000000e+01
-4.468709945678710938e+01 -4.901926517486572266e+00 7.846950888633728027e-01 4.900000000000000000e+01
-3.008405447006226030e+00 -3.294740021228789728e-01 -6.986979842185974121e-01 1.400000000000000000e+01
-4.474157333374022727e+01 -4.892096996307373047e+00 2.358781576156616211e+00 3.400000000000000000e+01
-3.579276084899901900e+00 -3.913623094558715820e-01 -6.998873949050903320e-01 1.200000000000000000e+01
-4.476802062988281250e+01 -4.887081623077392578e+00 3.939962625503540039e+00 5.400000000000000000e+01
-4.483236789703369141e+00 -4.886188507080078125e-01 -7.142797708511352539e-01 1.000000000000000000e+01
-5.926364898681640625e+00 -6.438092589378356934e-01 -7.319473028182983398e-01 9.000000000000000000e+00
-8.762941360473632812e+00 -9.504126310348510742e-01 -7.711539864540100098e-01 2.000000000000000000e+00
-3.480519866943358664e+01 -3.750325679779053178e+00 -6.110436320304870605e-01 1.400000000000000000e+01
-2.562641620635985884e+00 -2.725103199481964111e-01 -6.905292272567749023e-01 1.900000000000000000e+01
-4.468803024291992188e+01 -4.744220733642578125e+00 7.844158411026000977e-01 4.800000000000000000e+01
-3.007599353790283203e+00 -3.187653124332427979e-01 -6.982480883598327637e-01 1.600000000000000000e+01
-4.475837707519531250e+01 -4.735889911651611328e+00 2.358781576156616211e+00 3.400000000000000000e+01
-3.584525108337401900e+00 -3.792790770530701239e-01 -7.006506323814392090e-01 1.300000000000000000e+01
-4.478480529785156250e+01 -4.730782508850097656e+00 3.939962625503540039e+00 5.400000000000000000e+01
-4.463305950164794922e+00 -4.706875979900360107e-01 -7.108381986618041992e-01 8.000000000000000000e+00
-5.920679092407226562e+00 -6.222884654998779297e-01 -7.309723496437072754e-01 9.000000000000000000e+00
-8.762242317199707031e+00 -9.194026589393615723e-01 -7.708054184913635254e-01 3.000000000000000000e+00
-3.478227615356445312e+01 -3.625078916549683061e+00 -6.104153394699096680e-01 2.100000000000000000e+01
-2.577029228210449219e+00 -2.649464011192321777e-01 -6.941526532173156738e-01 1.800000000000000000e+01
-4.491915512084960938e+01 -4.610250949859619141e+00 7.881855964660644531e-01 4.900000000000000000e+01
-2.993185043334960938e+00 -3.066758811473845880e-01 -6.946488618850708008e-01 1.600000000000000000e+01
-3.578014850616455078e+00 -3.659653663635253906e-01 -6.991241574287414551e-01 1.200000000000000000e+01
-4.480104827880858664e+01 -4.574425220489501953e+00 3.939962625503540039e+00 5.400000000000000000e+01
-4.480643272399902344e+00 -4.567073583602905273e-01 -7.133411765098571777e-01 8.000000000000000000e+00
-5.907015800476074219e+00 -6.000127792358398438e-01 -7.290223836898803711e-01 9.000000000000000000e+00
-8.753504753112792969e+00 -8.876051306724548340e-01 -7.697595357894897461e-01 2.000000000000000000e+00
-3.481063461303710938e+01 -3.505246639251708984e+00 -6.106945872306823730e-01 2.100000000000000000e+01
-2.574093580245972124e+00 -2.555675506591796875e-01 -6.931173801422119141e-01 1.800000000000000000e+01
-2.994237422943114790e+00 -2.962258458137512207e-01 -6.946488618850708008e-01 1.500000000000000000e+01
-3.573409318923950195e+00 -3.528947234153748114e-01 -6.979793310165405273e-01 1.300000000000000000e+01
-4.481674194335938211e+01 -4.418012619018554688e+00 3.939962625503540039e+00 5.400000000000000000e+01
-4.474346637725830078e+00 -4.402904212474822998e-01 -7.120896577835083008e-01 8.000000000000000000e+00
-5.907098770141601562e+00 -5.791960954666137695e-01 -7.287786602973937988e-01 1.100000000000000000e+01
-8.756549835205078125e+00 -8.570442795753479004e-01 -7.697595357894897461e-01 2.000000000000000000e+00
-3.476892089843750000e+01 -3.378491878509521040e+00 -6.097521781921386719e-01 2.100000000000000000e+01
-2.571123838424683061e+00 -2.462124228477478027e-01 -6.920821070671081543e-01 1.800000000000000000e+01
-3.006892681121826172e+00 -2.868827283382415771e-01 -6.973482966423034668e-01 1.500000000000000000e+01
-3.568756103515625000e+00 -3.398606777191162109e-01 -6.968344449996948242e-01 1.300000000000000000e+01
-4.478428649902343750e+01 -4.257021427154541016e+00 3.935779094696044922e+00 5.400000000000000000e+01
-4.479789257049561435e+00 -4.250425398349761963e-01 -7.127154469490051270e-01 8.000000000000000000e+00
-5.907108306884765625e+00 -5.583860874176025391e-01 -7.285349369049072266e-01 9.000000000000000000e+00
-8.735685348510742188e+00 -8.242271542549133301e-01 -7.676677703857421875e-01 2.000000000000000000e+00
-3.482231140136718750e+01 -3.261020421981811968e+00 -6.104851961135864258e-01 1.400000000000000000e+01
-2.564272880554199219e+00 -2.365262657403945923e-01 -6.900115609169006348e-01 1.900000000000000000e+01
-3.003994703292847124e+00 -2.760283350944519043e-01 -6.964484453201293945e-01 1.500000000000000000e+01
-3.575785875320435014e+00 -3.279392123222351074e-01 -6.979793310165405273e-01 1.200000000000000000e+01
-4.480681228637695312e+01 -4.101395606994628906e+00 3.936476230621337891e+00 5.400000000000000000e+01
-4.473376750946044922e+00 -4.086836874485015869e-01 -7.114639282226562500e-01 8.000000000000000000e+00
-5.903090476989746094e+00 -5.372233390808105469e-01 -7.278037071228027344e-01 1.100000000000000000e+01
-8.722635269165039062e+00 -7.922870516777038574e-01 -7.662733197212219238e-01 3.000000000000000000e+00
-3.480958557128906250e+01 -3.137294054031372070e+00 -6.100662946701049805e-01 1.400000000000000000e+01
-2.566967487335205078e+00 -2.281925827264786044e-01 -6.905292272567749023e-01 2.100000000000000000e+01
-3.002952337265015093e+00 -2.658933401107788086e-01 -6.959985494613647461e-01 1.400000000000000000e+01
-3.578809261322021040e+00 -3.162524998188018799e-01 -6.983609199523925781e-01 1.200000000000000000e+01
-4.482016372680664062e+01 -3.952788114547729048e+00 3.936476230621337891e+00 5.400000000000000000e+01
-4.462901115417479581e+00 -3.928079903125762939e-01 -7.095867395401000977e-01 8.000000000000000000e+00
-5.906816959381104404e+00 -5.178183913230895996e-01 -7.280474305152893066e-01 9.000000000000000000e+00
-8.725214958190917969e+00 -7.633574008941650391e-01 -7.662733197212219238e-01 3.000000000000000000e+00
-3.478393554687500000e+01 -3.018732070922852007e+00 -6.094380617141723633e-01 2.100000000000000000e+01
-2.573522806167602983e+00 -2.197238355875014981e-01 -6.920821070671081543e-01 2.000000000000000000e+01
-2.984444856643677202e+00 -2.537584602832794189e-01 -6.914995312690734863e-01 1.400000000000000000e+01
-3.585760116577147993e+00 -3.042561411857604980e-01 -6.995058059692382812e-01 1.300000000000000000e+01
-4.479795455932617188e+01 -3.793286561965941939e+00 3.933338642120360884e+00 5.400000000000000000e+01
-4.460308074951171875e+00 -3.768945336341857910e-01 -7.089610099792480469e-01 1.000000000000000000e+01
-5.912544727325438565e+00 -4.975294768810272217e-01 -7.285349369049072266e-01 9.000000000000000000e+00
-8.719884872436523438e+00 -7.322291731834411621e-01 -7.655760645866394043e-01 2.000000000000000000e+00
-3.482016754150391336e+01 -2.899452209472655806e+00 -6.098917722702026367e-01 2.100000000000000000e+01
-2.576162576675415039e+00 -2.113464772701262873e-01 -6.925997734069824219e-01 2.100000000000000000e+01
-2.998865842819213867e+00 -2.449709028005599976e-01 -6.946488618850708008e-01 1.500000000000000000e+01
-3.573051929473876953e+00 -2.912471592426300049e-01 -6.968344449996948242e-01 1.200000000000000000e+01
-4.480631637573242188e+01 -3.644387245178223100e+00 3.932990074157714844e+00 5.400000000000000000e+01
-4.461533546447753906e+00 -3.621015250682830811e-01 -7.089610099792480469e-01 8.000000000000000000e+00
-5.888439655303955078e+00 -4.758414328098297119e-01 -7.253663539886474609e-01 1.100000000000000000e+01
-8.722265243530273438e+00 -7.033089995384216309e-01 -7.655760645866394043e-01 3.000000000000000000e+00
-3.481962585449218750e+01 -2.783171653747559038e+00 -6.097172498703002930e-01 2.100000000000000000e+01
-2.571106910705565962e+00 -2.018989920616149902e-01 -6.910468339920043945e-01 1.900000000000000000e+01
-2.993874311447143999e+00 -2.340457737445831021e-01 -6.932991743087768555e-01 1.400000000000000000e+01
-3.556431055068970171e+00 -2.773990929126740057e-01 -6.933999061584472656e-01 1.200000000000000000e+01
-4.479890060424804688e+01 -3.486416101455688032e+00 3.931246995925902876e+00 5.400000000000000000e+01
-4.484434127807617188e+00 -3.482078313827515204e-01 -7.124025821685791016e-01 1.000000000000000000e+01
-5.890064716339111328e+00 -4.552840292453765869e-01 -7.253663539886474609e-01 1.100000000000000000e+01
-8.712747573852539062e+00 -6.719390749931335449e-01 -7.645301818847656250e-01 2.000000000000000000e+00
-3.478924942016602273e+01 -2.658564329147338867e+00 -6.090191602706909180e-01 1.300000000000000000e+01
-2.562197446823120117e+00 -1.917531788349151889e-01 -6.884586811065673828e-01 1.900000000000000000e+01
-4.502978134155272727e+01 -3.362096548080443892e+00 7.881855964660644531e-01 4.900000000000000000e+01
-3.004428625106811968e+00 -2.237948924303055087e-01 -6.955486536026000977e-01 1.500000000000000000e+01
-4.492770385742188211e+01 -3.346590042114257812e+00 2.361084222793579102e+00 3.500000000000000000e+01
-3.559381723403931108e+00 -2.645077705383300781e-01 -6.937814950942993164e-01 1.200000000000000000e+01
-4.479548263549804688e+01 -3.321017980575561968e+00 3.929852485656737837e+00 5.400000000000000000e+01
-4.460070133209229404e+00 -3.298750519752501886e-01 -7.083352804183959961e-01 1.000000000000000000e+01
-5.899612903594970703e+00 -4.342757463455200195e-01 -7.263413071632385254e-01 1.100000000000000000e+01
-8.679385185241699219e+00 -6.373742222785949707e-01 -7.613925933837890625e-01 2.000000000000000000e+00
-3.479277801513671875e+01 -2.530602216720581055e+00 -6.089144349098205566e-01 2.000000000000000000e+01
-2.566704988479613814e+00 -1.830831766128540039e-01 -6.894939541816711426e-01 1.900000000000000000e+01
-3.001303911209106001e+00 -2.130301743745804111e-01 -6.946488618850708008e-01 1.500000000000000000e+01
-3.566158533096313032e+00 -2.524975538253784180e-01 -6.949263811111450195e-01 1.200000000000000000e+01
-4.476307678222656250e+01 -3.161544084548950195e+00 3.926017522811890093e+00 5.400000000000000000e+01
-4.457253456115722656e+00 -3.140268623828887939e-01 -7.077094912528991699e-01 1.000000000000000000e+01
-5.909013748168945312e+00 -4.142348766326903742e-01 -7.273162603378295898e-01 1.100000000000000000e+01
-8.649756431579589844e+00 -6.048499345779418945e-01 -7.586035728454589844e-01 2.000000000000000000e+00
-3.475551605224608664e+01 -2.405961036682128906e+00 -6.081116795539855957e-01 1.300000000000000000e+01
-2.561515808105469194e+00 -1.741774827241898138e-01 -6.879410147666931152e-01 1.800000000000000000e+01
-2.988383769989014116e+00 -2.021556347608566007e-01 -6.914995312690734863e-01 1.400000000000000000e+01
-3.572852611541748047e+00 -2.410668581724166870e-01 -6.960712075233459473e-01 1.300000000000000000e+01
-4.479716873168945312e+01 -3.014692544937133789e+00 3.928109407424927202e+00 5.400000000000000000e+01
-4.456299781799316406e+00 -2.991120517253875732e-01 -7.073966264724731445e-01 1.000000000000000000e+01
-5.874702930450438565e+00 -3.922570645809174139e-01 -7.229289412498474121e-01 1.100000000000000000e+01
-8.659667015075683594e+00 -5.766925215721130371e-01 -7.593008279800415039e-01 3.000000000000000000e+00
-3.480919647216796875e+01 -2.293718576431273970e+00 -6.089144349098205566e-01 2.000000000000000000e+01
-2.569819688796997070e+00 -1.657323837280272882e-01 -6.900115609169006348e-01 1.900000000000000000e+01
-2.992960691452025923e+00 -1.919724792242049893e-01 -6.923993229866027832e-01 1.400000000000000000e+01
-3.565835237503052202e+00 -2.280925065279006958e-01 -6.945447325706481934e-01 1.200000000000000000e+01
-4.482730484008789062e+01 -2.859571218490601030e+00 3.929852485656737837e+00 5.400000000000000000e+01
-4.457316398620604581e+00 -2.835548222064971924e-01 -7.073966264724731445e-01 1.000000000000000000e+01
-5.876036167144775391e+00 -3.717481493949890137e-01 -7.229289412498474121e-01 1.100000000000000000e+01
-8.645719528198242188e+00 -5.454575419425964355e-01 -7.579063177108764648e-01 2.000000000000000000e+00
-3.476909255981445312e+01 -2.169209241867064986e+00 -6.080767512321472168e-01 2.000000000000000000e+01
-2.574239015579224077e+00 -1.569962352514266968e-01 -6.910468339920043945e-01 2.300000000000000000e+01
-2.991667509078979048e+00 -1.814059764146805087e-01 -6.919494271278381348e-01 1.300000000000000000e+01
-3.548972606658935991e+00 -2.145776599645614902e-01 -6.911101937294006348e-01 1.200000000000000000e+01
-4.478530502319335938e+01 -2.699959993362427202e+00 3.925320386886597124e+00 5.400000000000000000e+01
-4.464194774627686435e+00 -2.683497667312622070e-01 -7.083352804183959961e-01 8.000000000000000000e+00
-5.869371891021729404e+00 -3.507609963417053223e-01 -7.219539880752563477e-01 1.100000000000000000e+01
-8.679392814636230469e+00 -5.171711444854736328e-01 -7.606953382492065430e-01 2.000000000000000000e+00
-3.472654724121093750e+01 -2.044890642166138139e+00 -6.072041392326354980e-01 1.300000000000000000e+01
-2.553555965423583984e+00 -1.467899531126022061e-01 -6.853528022766113281e-01 2.100000000000000000e+01
-3.005901336669921875e+00 -1.717401146888732910e-01 -6.950987577438354492e-01 1.600000000000000000e+01
-3.555580377578734907e+00 -2.025230526924133023e-01 -6.922550201416015625e-01 1.200000000000000000e+01
-4.479047775268554688e+01 -2.543387651443481001e+00 3.924971818923950195e+00 5.400000000000000000e+01
-4.457215309143066406e+00 -2.523185908794403076e-01 -7.070837616920471191e-01 8.000000000000000000e+00
-5.874524116516113281e+00 -3.304939568042755127e-01 -7.224414944648742676e-01 1.100000000000000000e+01
-8.609531402587890625e+00 -4.828549027442932129e-01 -7.544201016426086426e-01 2.000000000000000000e+00
-1.719567871093750000e+01 -9.583771228790283203e-01 -9.025859236717224121e-01 5.000000000000000000e+00
-3.473147583007813211e+01 -1.923549294471740945e+00 -6.071692109107971191e-01 2.000000000000000000e+01
-2.565651178359984907e+00 -1.380525082349776944e-01 -6.884586811065673828e-01 2.100000000000000000e+01
-2.992888927459716797e+00 -1.599935889244079867e-01 -6.919494271278381348e-01 2.200000000000000000e+01
-4.498835754394531250e+01 -2.397109270095825195e+00 2.361084222793579102e+00 3.500000000000000000e+01
-3.560219764709473100e+00 -1.896987557411194125e-01 -6.930182576179504395e-01 1.200000000000000000e+01
-4.477164459228516336e+01 -2.377726078033446822e+00 3.922531366348267046e+00 5.400000000000000000e+01
-4.442329406738281250e+00 -2.351450622081756869e-01 -7.045808434486389160e-01 8.000000000000000000e+00
-5.891554832458496094e+00 -3.097944259643555243e-01 -7.243914008140563965e-01 1.100000000000000000e+01
-8.615222930908203125e+00 -4.515047073364257812e-01 -7.547687292098999023e-01 2.000000000000000000e+00
-1.719907569885253906e+01 -8.953453898429870605e-01 -9.025859236717224121e-01 5.000000000000000000e+00
-3.476026153564453125e+01 -1.797374963760375977e+00 -6.075531840324401855e-01 1.300000000000000000e+01
-2.566117525100708008e+00 -1.290958821773529053e-01 -6.884586811065673828e-01 2.100000000000000000e+01
-2.987590312957764116e+00 -1.492537856101990024e-01 -6.905997395515441895e-01 2.300000000000000000e+01
-4.499644851684570312e+01 -2.240056037902832031e+00 2.361084222793579102e+00 3.500000000000000000e+01
-3.564781904220581055e+00 -1.774653494358063022e-01 -6.937814950942993164e-01 1.300000000000000000e+01
-4.481946945190429688e+01 -2.223403692245482954e+00 3.926017522811890093e+00 5.400000000000000000e+01
-4.447068691253662109e+00 -2.198320627212524137e-01 -7.052065730094909668e-01 8.000000000000000000e+00
-5.856911659240722656e+00 -2.874754667282103937e-01 -7.200040817260742188e-01 1.100000000000000000e+01
-8.604806900024414062e+00 -4.208452403545380194e-01 -7.537228465080261230e-01 2.000000000000000000e+00
-3.474634933471679688e+01 -1.675065159797668013e+00 -6.072041392326354980e-01 2.000000000000000000e+01
-2.568461179733275923e+00 -1.206762790679932057e-01 -6.889762878417968750e-01 2.000000000000000000e+01
-2.991961956024169922e+00 -1.395273059606552124e-01 -6.914995312690734863e-01 2.300000000000000000e+01
-4.495973587036132812e+01 -2.088790893554687944e+00 2.358781576156616211e+00 3.400000000000000000e+01
-3.563389539718627930e+00 -1.655520200729370117e-01 -6.933999061584472656e-01 2.000000000000000000e+01
-4.480669403076171875e+01 -2.073843479156494141e+00 3.924274444580078125e+00 5.400000000000000000e+01
-4.449746608734130859e+00 -2.051748335361480990e-01 -7.055194377899169922e-01 1.000000000000000000e+01
-5.849900722503662109e+00 -2.676886916160582941e-01 -7.190291285514831543e-01 1.100000000000000000e+01
-8.610135078430175781e+00 -3.924898207187653143e-01 -7.540714740753173828e-01 2.000000000000000000e+00
-3.472774124145507812e+01 -1.558756947517395020e+00 -6.067852377891540527e-01 1.300000000000000000e+01
-2.553426504135131836e+00 -1.110385060310364047e-01 -6.848351955413818359e-01 2.000000000000000000e+01
-4.479317855834960938e+01 -1.940047025680541992e+00 7.826008200645446777e-01 4.800000000000000000e+01
-2.984642982482910156e+00 -1.287466287612915039e-01 -6.896999478340148926e-01 2.300000000000000000e+01
-4.489093017578125000e+01 -1.928581714630126953e+00 2.354804039001464844e+00 3.400000000000000000e+01
-3.550215721130371094e+00 -1.525225937366485873e-01 -6.907285451889038086e-01 1.900000000000000000e+01
-4.481365966796875000e+01 -1.917426347732543945e+00 3.924274444580078125e+00 5.400000000000000000e+01
-4.446488380432128906e+00 -1.894728690385817926e-01 -7.048937082290649414e-01 1.000000000000000000e+01
-5.858732700347900391e+00 -2.476023733615874967e-01 -7.200040817260742188e-01 1.100000000000000000e+01
-8.595527648925781250e+00 -3.617622256278992254e-01 -7.526770234107971191e-01 2.000000000000000000e+00
-1.710760688781737926e+01 -7.140301465988159180e-01 -8.973522782325744629e-01 5.000000000000000000e+00
-3.472897338867188211e+01 -1.437359690666198953e+00 -6.067154407501220703e-01 1.300000000000000000e+01
-2.551886081695557085e+00 -1.016021296381949962e-01 -6.843175292015075684e-01 2.100000000000000000e+01
-4.472006225585938211e+01 -1.772690534591675027e+00 7.812046408653259277e-01 4.800000000000000000e+01
-2.994831085205078125e+00 -1.181907355785370012e-01 -6.919494271278381348e-01 2.400000000000000000e+01
-3.552712440490723100e+00 -1.395864486694335938e-01 -6.911101937294006348e-01 1.800000000000000000e+01
-4.484029769897460938e+01 -1.753941893577575906e+00 3.926017522811890093e+00 5.400000000000000000e+01
-4.443205356597900391e+00 -1.730206757783890048e-01 -7.042679786682128906e-01 1.500000000000000000e+01
-5.847699165344238281e+00 -2.256680727005004883e-01 -7.185416221618652344e-01 1.100000000000000000e+01
-8.598787307739257812e+00 -3.303320705890656073e-01 -7.528513073921203613e-01 3.000000000000000000e+00
-1.701031875610351918e+01 -6.475241184234619141e-01 -8.921186923980712891e-01 5.000000000000000000e+00
-3.468205261230468750e+01 -1.308102369308471902e+00 -6.058079600334167480e-01 1.300000000000000000e+01
-2.558017015457152876e+00 -9.290411323308944702e-02 -6.858704686164855957e-01 2.000000000000000000e+01
-4.471798324584960938e+01 -1.616288661956787109e+00 7.810649871826171875e-01 4.800000000000000000e+01
-2.987435340881348100e+00 -1.074559092521667064e-01 -6.901498436927795410e-01 2.500000000000000000e+01
-3.553178071975708008e+00 -1.271843314170837125e-01 -6.911101937294006348e-01 2.000000000000000000e+01
-4.480632400512695312e+01 -1.595990896224976030e+00 3.922531366348267046e+00 5.400000000000000000e+01
-4.426014900207520419e+00 -1.568801701068877896e-01 -7.014521360397338867e-01 1.300000000000000000e+01
-5.856387138366699219e+00 -2.055329233407973966e-01 -7.195165753364562988e-01 1.100000000000000000e+01
-8.570019721984863281e+00 -2.992717027664185125e-01 -7.502366304397583008e-01 3.000000000000000000e+00
-3.467441558837891336e+01 -1.186621069908142090e+00 -6.055985093116760254e-01 1.300000000000000000e+01
-2.567979574203491211e+00 -8.429128676652908325e-02 -6.884586811065673828e-01 2.100000000000000000e+01
-4.471136093139647727e+01 -1.459792494773864968e+00 7.808555960655212402e-01 4.800000000000000000e+01
-2.980001449584960938e+00 -9.677415341138839722e-02 -6.883502006530761719e-01 2.400000000000000000e+01
-3.561449289321898970e+00 -1.150341629981995045e-01 -6.926366686820983887e-01 2.000000000000000000e+01
-4.481162261962891336e+01 -1.439577937126159890e+00 3.922531366348267046e+00 5.400000000000000000e+01
-4.420612812042236328e+00 -1.412402987480164129e-01 -7.005135416984558105e-01 1.700000000000000000e+01
-5.829291343688964844e+00 -1.842112690210342130e-01 -7.161042690277099609e-01 1.500000000000000000e+01
-8.578978538513183594e+00 -2.696052491664885919e-01 -7.509338855743408203e-01 3.000000000000000000e+00
-3.463837432861328125e+01 -1.064349174499511941e+00 -6.049004197120666504e-01 1.300000000000000000e+01
-2.568258285522460938e+00 -7.532685250043869019e-02 -6.884586811065673828e-01 2.100000000000000000e+01
-4.471618270874022727e+01 -1.303711771965027078e+00 7.808555960655212402e-01 4.800000000000000000e+01
-2.974477291107178178e+00 -8.620206266641616821e-02 -6.870005130767822266e-01 2.300000000000000000e+01
-3.552016973495482954e+00 -1.023190319538116039e-01 -6.907285451889038086e-01 2.000000000000000000e+01
-4.481637191772460938e+01 -1.283147454261780007e+00 3.922531366348267046e+00 5.400000000000000000e+01
-4.427002429962158203e+00 -1.259771883487701138e-01 -7.014521360397338867e-01 1.700000000000000000e+01
-5.823945999145507812e+00 -1.636947989463805875e-01 -7.153730392456054688e-01 1.300000000000000000e+01
-8.583849906921386719e+00 -2.397686541080475131e-01 -7.512825131416320801e-01 3.000000000000000000e+00
-1.681651687622069957e+01 -4.638532698154448908e-01 -8.816515207290649414e-01 5.000000000000000000e+00
-3.467385864257813211e+01 -9.443032741546630859e-01 -6.054588556289672852e-01 1.300000000000000000e+01
-2.558849573135375977e+00 -6.611201912164688110e-02 -6.858704686164855957e-01 2.300000000000000000e+01
-4.474045181274414062e+01 -1.148128151893615945e+00 7.812046408653259277e-01 4.800000000000000000e+01
-2.982552528381348100e+00 -7.601728290319442749e-02 -6.888001561164855957e-01 2.300000000000000000e+01
-3.546464681625366211e+00 -8.977051824331283569e-02 -6.895837187767028809e-01 2.000000000000000000e+01
-4.485244750976563211e+01 -1.127502322196960005e+00 3.925320386886597124e+00 5.400000000000000000e+01
-4.425440311431884766e+00 -1.104740053415298046e-01 -7.011392712593078613e-01 1.700000000000000000e+01
-5.822497367858886719e+00 -1.433155983686446866e-01 -7.151293158531188965e-01 1.500000000000000000e+01
-8.560733795166015625e+00 -2.092198133468627930e-01 -7.491907477378845215e-01 4.000000000000000000e+00
-3.462896728515625000e+01 -8.221240639686584473e-01 -6.046211719512939453e-01 1.300000000000000000e+01
-2.555202007293701172e+00 -5.709325894713401794e-02 -6.848351955413818359e-01 2.300000000000000000e+01
-4.474419021606445312e+01 -9.919478893280029297e-01 7.812046408653259277e-01 4.800000000000000000e+01
-2.992541074752808061e+00 -6.582002341747283936e-02 -6.910496354103088379e-01 2.200000000000000000e+01
-3.550682067871094194e+00 -7.747615873813629150e-02 -6.903469562530517578e-01 2.000000000000000000e+01
-4.482423782348632812e+01 -9.702413678169250488e-01 3.922531366348267046e+00 5.400000000000000000e+01
-4.421849250793457031e+00 -9.494085609912872314e-02 -7.005135416984558105e-01 1.700000000000000000e+01
-5.822962284088134766e+00 -1.229904145002364974e-01 -7.151293158531188965e-01 1.500000000000000000e+01
-8.531532287597656250e+00 -1.787101179361343106e-01 -7.465760707855224609e-01 4.000000000000000000e+00
-3.464361953735352273e+01 -7.014843225479125977e-01 -6.048306226730346680e-01 2.000000000000000000e+01
-2.547642707824707031e+00 -4.891724139451981285e-02 -6.827646493911743164e-01 2.000000000000000000e+01
-4.471909332275391336e+01 -8.508426547050476074e-01 7.807159423828125000e-01 4.800000000000000000e+01
-2.973249197006226030e+00 -5.605106428265572288e-02 -6.865506172180175781e-01 2.200000000000000000e+01
-3.541093349456787109e+00 -6.613768637180328369e-02 -6.884388327598571777e-01 2.000000000000000000e+01
-4.478722381591796875e+01 -8.286801576614379883e-01 3.919045209884643999e+00 5.400000000000000000e+01
-4.418175697326660156e+00 -8.097635954618453979e-02 -6.998878121376037598e-01 1.600000000000000000e+01
-5.817365646362304688e+00 -1.045894101262093007e-01 -7.143980860710144043e-01 1.300000000000000000e+01
-8.516115188598632812e+00 -1.516229510307312012e-01 -7.451816201210021973e-01 4.000000000000000000e+00
-1.672050285339355113e+01 -2.918574810028076172e-01 -8.764179348945617676e-01 5.000000000000000000e+00
-3.465365219116210938e+01 -5.927817225456237793e-01 -6.049702167510986328e-01 1.300000000000000000e+01
-2.557456016540526900e+00 -4.017572849988936684e-02 -6.853528022766113281e-01 2.100000000000000000e+01
-4.470979309082031250e+01 -6.945523619651794434e-01 7.805064916610717773e-01 4.800000000000000000e+01
-2.969529628753662109e+00 -4.561228677630423806e-02 -6.856508255004882812e-01 1.500000000000000000e+01
-3.551117658615111861e+00 -5.392561107873917320e-02 -6.903469562530517578e-01 1.200000000000000000e+01
-4.480179595947266336e+01 -6.725179553031921387e-01 3.920090913772583008e+00 5.400000000000000000e+01
-4.418431282043457031e+00 -6.555356085300445557e-02 -6.998878121376037598e-01 1.000000000000000000e+01
-5.809755325317382812e+00 -8.416736125946044922e-02 -7.134231328964233398e-01 1.300000000000000000e+01
-8.506631851196289062e+00 -1.217526718974113048e-01 -7.443100214004516602e-01 3.000000000000000000e+00
-1.670145034790039062e+01 -2.332113832235336026e-01 -8.753712177276611328e-01 5.000000000000000000e+00
-3.463551330566406250e+01 -4.715420603752136230e-01 -6.046211719512939453e-01 1.300000000000000000e+01
-2.565307617187500000e+00 -3.134270384907721779e-02 -6.874234080314636230e-01 2.100000000000000000e+01
-4.475193786621093750e+01 -5.389634370803833008e-01 7.812046408653259277e-01 4.800000000000000000e+01
-2.971619367599486861e+00 -3.526954352855681679e-02 -6.861007213592529297e-01 1.300000000000000000e+01
-4.504899978637695312e+01 -5.346773862838745117e-01 2.361084222793579102e+00 3.500000000000000000e+01
-3.541468620300292969e+00 -4.141478240489959717e-02 -6.884388327598571777e-01 1.100000000000000000e+01
-4.483176422119141336e+01 -5.164476633071899414e-01 3.922531366348267046e+00 5.400000000000000000e+01
-4.410732269287109375e+00 -5.004031583666800759e-02 -6.986362934112548828e-01 1.000000000000000000e+01
-5.806044101715087891e+00 -6.384336203336715698e-02 -7.129356861114501953e-01 1.100000000000000000e+01
-8.510989189147949219e+00 -9.210135787725448608e-02 -7.446586489677429199e-01 3.000000000000000000e+00
-3.459495544433593750e+01 -3.502135872840880793e-01 -6.038881540298461914e-01 2.000000000000000000e+01
-2.549947023391724077e+00 -2.225305140018463135e-02 -6.832822561264038086e-01 2.700000000000000000e+01
-4.474554824829102273e+01 -3.826783299446105957e-01 7.810649871826171875e-01 4.800000000000000000e+01
-2.965878486633300781e+00 -2.484746649861336101e-02 -6.847510337829589844e-01 1.300000000000000000e+01
-4.497869491577147727e+01 -3.768214285373687744e-01 2.357316255569458008e+00 3.400000000000000000e+01
-3.533738851547241211e+00 -2.898807823657989849e-02 -6.869123578071594238e-01 1.100000000000000000e+01
-4.483329391479492188e+01 -3.599524796009064276e-01 3.922531366348267046e+00 5.400000000000000000e+01
-4.414830684661865234e+00 -3.467471152544022300e-02 -6.992620825767517090e-01 1.000000000000000000e+01
-5.788366317749023438e+00 -4.344201460480690002e-02 -7.107419967651367188e-01 1.100000000000000000e+01
-8.483366012573242188e+00 -6.218743696808815002e-02 -7.422183156013488770e-01 2.000000000000000000e+00
-1.662278175354003906e+01 -1.160507947206497054e-01 -8.711843490600585938e-01 5.000000000000000000e+00
-3.458996963500977273e+01 -2.294127345085144043e-01 -6.037834286689758301e-01 1.300000000000000000e+01
-2.536486387252808061e+00 -1.328113302588463003e-02 -6.796588301658630371e-01 3.100000000000000000e+01
-4.473861312866210938e+01 -2.264443933963775912e-01 7.809253931045532227e-01 4.800000000000000000e+01
-2.975690603256226030e+00 -1.454208325594663967e-02 -6.870005130767822266e-01 1.300000000000000000e+01
-4.497977066040039062e+01 -2.119637578725815097e-01 2.357316255569458008e+00 3.400000000000000000e+01
-3.543634891510010210e+00 -1.669910922646522869e-02 -6.888204813003540039e-01 1.200000000000000000e+01
-4.483427810668945312e+01 -2.034528851509093961e-01 3.922531366348267046e+00 5.400000000000000000e+01
-4.426776885986328125e+00 -1.931558176875114094e-02 -7.011392712593078613e-01 1.000000000000000000e+01
-5.784512519836425781e+00 -2.322064526379108082e-02 -7.102545499801635742e-01 1.100000000000000000e+01
-8.459623336791992188e+00 -3.248278051614760659e-02 -7.401265501976013184e-01 2.000000000000000000e+00
-3.457656097412108664e+01 -1.086258292198181014e-01 -6.035391092300415039e-01 2.000000000000000000e+01
-2.542312860488892046e+00 -4.437177442014217377e-03 -6.812117099761962891e-01 3.500000000000000000e+01
-4.471513366699218750e+01 -7.023842632770538330e-02 7.805064916610717773e-01 4.800000000000000000e+01
-2.971825838088988814e+00 -4.149454180151224136e-03 -6.861007213592529297e-01 1.400000000000000000e+01
-4.502416610717772727e+01 -6.286563724279403687e-02 2.359618902206420898e+00 3.400000000000000000e+01
-3.529928684234619141e+00 -4.312623757869005203e-03 -6.861491203308105469e-01 1.200000000000000000e+01
-4.480681991577147727e+01 -4.692161083221436241e-02 3.920090913772583008e+00 5.400000000000000000e+01
-4.387310028076171875e+00 -3.828651271760464148e-03 -6.948819160461425781e-01 9.000000000000000000e+00
-5.800438880920410156e+00 -3.037102986127138138e-03 -7.122044563293457031e-01 1.100000000000000000e+01
-8.471639633178710938e+00 -2.957160118967295127e-03 -7.411724328994750977e-01 3.000000000000000000e+00
-1.662318801879883168e+01 -3.053630007817006004e-15 -8.711843490600585938e-01 5.000000000000000000e+00
-3.462272262573242188e+01 1.208561100065707987e-02 -6.043419241905212402e-01 1.300000000000000000e+01
-2.540380954742432085e+00 4.433806054294109344e-03 -6.806941032409667969e-01 3.600000000000000000e+01
-4.475510025024414062e+01 8.592373132705688477e-02 7.812046408653259277e-01 4.800000000000000000e+01
-2.964027166366577148e+00 6.207853090018033981e-03 -6.843010783195495605e-01 1.400000000000000000e+01
-4.497617721557617188e+01 9.419802576303482056e-02 2.357106685638428178e+00 3.400000000000000000e+01
-3.537775278091431108e+00 8.026971481740474701e-03 -6.876755952835083008e-01 1.200000000000000000e+01
-4.483460617065429688e+01 1.095518246293067932e-01 3.922531366348267046e+00 5.400000000000000000e+01
-4.403099536895751953e+00 1.152731385082005934e-02 -6.973848342895507812e-01 1.000000000000000000e+01
-5.772623062133789062e+00 1.712776720523833882e-02 -7.087920904159545898e-01 1.100000000000000000e+01
-8.459643363952636719e+00 2.657684125006198883e-02 -7.401265501976013184e-01 3.000000000000000000e+00
-3.456248092651367188e+01 1.327110528945923129e-01 -6.032947897911071777e-01 1.300000000000000000e+01
-2.548077344894409180e+00 1.334182359278202057e-02 -6.827646493911743164e-01 4.000000000000000000e+01
-4.473453140258789062e+01 2.420394718647002896e-01 7.808555960655212402e-01 4.800000000000000000e+01
-2.960090160369873047e+00 1.653243415057659149e-02 -6.834012866020202637e-01 1.400000000000000000e+01
-4.495161056518554688e+01 2.510597407817841131e-01 2.355850696563721147e+00 3.400000000000000000e+01
-3.525946378707886186e+00 2.030821703374385834e-02 -6.853858828544616699e-01 1.100000000000000000e+01
-4.483395004272460938e+01 2.660531401634215753e-01 3.922531366348267046e+00 5.400000000000000000e+01
-4.403032302856445312e+00 2.689692936837672840e-02 -6.973848342895507812e-01 1.000000000000000000e+01
-5.760617733001708984e+00 3.720096498727797768e-02 -7.073296904563903809e-01 1.100000000000000000e+01
-8.447545051574707031e+00 5.602706223726273277e-02 -7.390807271003723145e-01 3.000000000000000000e+00
-3.455580902099608664e+01 2.533118426799774170e-01 -6.031900644302368164e-01 2.000000000000000000e+01
-2.538356304168701172e+00 2.215190045535564076e-02 -6.801764369010925293e-01 3.300000000000000000e+01
-4.474541091918945312e+01 3.982974290847777765e-01 7.810649871826171875e-01 4.800000000000000000e+01
-2.967808961868286133e+00 2.693571895360947002e-02 -6.852009296417236328e-01 1.400000000000000000e+01
-4.497042846679688211e+01 4.081498980522155762e-01 2.356897354125977007e+00 3.400000000000000000e+01
-3.523890733718872070e+00 3.259778395295143127e-02 -6.850042939186096191e-01 1.200000000000000000e+01
-4.486063766479492188e+01 4.228140711784362793e-01 3.924971818923950195e+00 5.400000000000000000e+01
-4.402911663055419922e+00 4.226621612906455994e-02 -6.973848342895507812e-01 1.000000000000000000e+01
-5.788242816925048828e+00 5.758551880717278221e-02 -7.107419967651367188e-01 1.100000000000000000e+01
-8.439329147338867188e+00 8.543348312377929688e-02 -7.383834719657897949e-01 2.000000000000000000e+00
-3.452072143554688211e+01 3.735647201538085938e-01 -6.025967001914978027e-01 1.300000000000000000e+01
-2.536331892013549805e+00 3.098868206143378864e-02 -6.796588301658630371e-01 2.800000000000000000e+01
-4.472775268554688211e+01 5.542874336242675781e-01 7.807857394218444824e-01 4.800000000000000000e+01
-2.959902524948120117e+00 3.719719126820564270e-02 -6.834012866020202637e-01 1.400000000000000000e+01
-4.502065658569335938e+01 5.657760500907897949e-01 2.359618902206420898e+00 3.400000000000000000e+01
-3.521792411804199219e+00 4.487324506044387817e-02 -6.846227049827575684e-01 1.100000000000000000e+01
-4.483099746704102273e+01 5.790441036224365234e-01 3.922531366348267046e+00 5.400000000000000000e+01
-4.398787021636962891e+00 5.758327618241310120e-02 -6.967591047286987305e-01 1.000000000000000000e+01
-5.768157482147216797e+00 7.752313464879989624e-02 -7.083046436309814453e-01 1.100000000000000000e+01
-8.411088943481445312e+00 1.145120039582253058e-01 -7.359430789947509766e-01 2.000000000000000000e+00
-3.452120590209960938e+01 4.940908551216124933e-01 -6.026315689086914062e-01 2.000000000000000000e+01
-2.534290313720703125e+00 3.892696648836135864e-02 -6.791411638259887695e-01 2.500000000000000000e+01
-4.469379806518554688e+01 6.943038702011108398e-01 7.802273035049438477e-01 4.800000000000000000e+01
-2.959771156311035156e+00 4.649579897522926331e-02 -6.834012866020202637e-01 1.400000000000000000e+01
-4.491069412231445312e+01 7.133539319038391113e-01 2.353966712951660156e+00 3.400000000000000000e+01
-3.529486179351807085e+00 5.606176331639289856e-02 -6.861491203308105469e-01 1.100000000000000000e+01
-4.478911590576171875e+01 7.192419767379760742e-01 3.919045209884643999e+00 5.400000000000000000e+01
-4.366982460021972656e+00 7.088917493820190430e-02 -6.917532086372375488e-01 1.000000000000000000e+01
-5.769870281219482422e+00 9.567683935165405273e-02 -7.085483670234680176e-01 9.000000000000000000e+00
-8.410687446594238281e+00 1.409355998039245883e-01 -7.359430789947509766e-01 3.000000000000000000e+00
-1.632121086120605113e+01 2.791889011859893799e-01 -8.554835319519042969e-01 5.000000000000000000e+00
-3.450348663330078125e+01 6.022605895996093750e-01 -6.023523807525634766e-01 2.000000000000000000e+01
-2.536070585250854048e+00 4.780946671962738037e-02 -6.796588301658630371e-01 2.400000000000000000e+01
-4.473908615112304688e+01 8.512230515480041504e-01 7.810649871826171875e-01 4.800000000000000000e+01
-2.942055225372314009e+00 5.649034678936005333e-02 -6.793521642684936523e-01 1.500000000000000000e+01
-4.504372024536132812e+01 8.727481365203857422e-01 2.361084222793579102e+00 3.500000000000000000e+01
-3.529268980026245117e+00 6.838162988424301147e-02 -6.861491203308105469e-01 1.100000000000000000e+01
-4.482617187500000000e+01 8.763596415519714355e-01 3.922531366348267046e+00 5.400000000000000000e+01
-4.366708278656005859e+00 8.613235503435134888e-02 -6.917532086372375488e-01 9.000000000000000000e+00
-5.765531539916992188e+00 1.157371774315834045e-01 -7.080608606338500977e-01 1.100000000000000000e+01
-8.398192405700683594e+00 1.700515151023865024e-01 -7.348971962928771973e-01 2.000000000000000000e+00
-3.453316497802733664e+01 7.233666777610778809e-01 -6.029108166694641113e-01 2.000000000000000000e+01
-2.545535087585449219e+00 5.732176825404167175e-02 -6.822469830513000488e-01 2.400000000000000000e+01
-4.475565719604492188e+01 1.015648007392883079e+00 7.814140319824218750e-01 4.800000000000000000e+01
-2.947673082351685014e+00 6.740679591894149780e-02 -6.807019114494323730e-01 1.400000000000000000e+01
-4.496833419799804688e+01 1.036179423332213911e+00 2.357316255569458008e+00 3.400000000000000000e+01
-3.517218112945557085e+00 8.104523271322250366e-02 -6.838594675064086914e-01 1.200000000000000000e+01
-4.485453033447266336e+01 1.041389822959899902e+00 3.925320386886597124e+00 5.400000000000000000e+01
-4.378212451934813565e+00 1.024137288331985057e-01 -6.936303973197937012e-01 1.000000000000000000e+01
-5.759115219116210938e+00 1.367267817258835116e-01 -7.073296904563903809e-01 1.100000000000000000e+01
-8.397512435913085938e+00 2.008312940597533902e-01 -7.348971962928771973e-01 2.000000000000000000e+00
-1.621896171569823863e+01 3.935504555702208918e-01 -8.502499461174011230e-01 4.000000000000000000e+00
-3.450429153442382812e+01 8.492924571037292480e-01 -6.024570465087890625e-01 1.300000000000000000e+01
-2.539525985717772993e+00 6.605629622936248779e-02 -6.806941032409667969e-01 2.300000000000000000e+01
-4.473984527587891336e+01 1.171554088592529075e+00 7.812046408653259277e-01 4.800000000000000000e+01
-2.951316118240356001e+00 7.779838889837265015e-02 -6.816017031669616699e-01 1.400000000000000000e+01
-4.503631973266602273e+01 1.195049166679382102e+00 2.361084222793579102e+00 3.500000000000000000e+01
-3.512988805770874023e+00 9.321796149015426636e-02 -6.830962300300598145e-01 1.100000000000000000e+01
-4.481875228881835938e+01 1.197103857994080034e+00 3.922531366348267046e+00 5.400000000000000000e+01
-4.393625736236572266e+00 1.181206256151199063e-01 -6.961333751678466797e-01 1.000000000000000000e+01
-5.754633903503417969e+00 1.567209362983703891e-01 -7.068421840667724609e-01 1.100000000000000000e+01
-8.404726982116699219e+00 2.303612083196640015e-01 -7.355944514274597168e-01 2.000000000000000000e+00
-3.450911331176757812e+01 9.699544906616210938e-01 -6.025967001914978027e-01 1.300000000000000000e+01
-2.535430908203125000e+00 7.436402887105941772e-02 -6.796588301658630371e-01 1.700000000000000000e+01
-4.475570297241210938e+01 1.320500135421752930e+00 7.815536856651306152e-01 4.800000000000000000e+01
-2.952989816665648970e+00 8.764269202947616577e-02 -6.820515990257263184e-01 1.200000000000000000e+01
-4.497221755981445312e+01 1.342600345611572044e+00 2.357944250106811968e+00 3.400000000000000000e+01
-3.504810810089110884e+00 1.046326011419295987e-01 -6.815697550773620605e-01 1.200000000000000000e+01
-4.481453704833983664e+01 1.345721602439879927e+00 3.922531366348267046e+00 5.400000000000000000e+01
-4.375439643859863281e+00 1.321530342102051059e-01 -6.933175325393676758e-01 1.000000000000000000e+01
-5.746146202087402344e+00 1.755606383085251132e-01 -7.058672308921813965e-01 1.100000000000000000e+01
-8.378027915954589844e+00 2.574355304241179865e-01 -7.333284020423889160e-01 3.000000000000000000e+00
-3.451370239257813211e+01 1.084636807441710982e+00 -6.027362942695617676e-01 1.300000000000000000e+01
-2.550602436065673828e+00 8.372090011835098267e-02 -6.837999224662780762e-01 1.800000000000000000e+01
-4.473083496093750000e+01 1.476059079170227051e+00 7.812046408653259277e-01 4.800000000000000000e+01
-2.950718164443970171e+00 9.788540005683898926e-02 -6.816017031669616699e-01 1.300000000000000000e+01
-4.502714157104492188e+01 1.501571536064147949e+00 2.361084222793579102e+00 3.500000000000000000e+01
-3.508348464965819868e+00 1.169969066977501054e-01 -6.823329925537109375e-01 1.100000000000000000e+01
-4.483744430541992188e+01 1.503079891204833984e+00 3.924971818923950195e+00 5.400000000000000000e+01
-4.349286079406738281e+00 1.465605050325393954e-01 -6.892502307891845703e-01 9.000000000000000000e+00
-5.749465942382813388e+00 1.957524567842484076e-01 -7.063547372817993164e-01 1.100000000000000000e+01
-8.383051872253417969e+00 2.868831455707550049e-01 -7.338513731956481934e-01 2.000000000000000000e+00
-3.448572158813477273e+01 1.204267978668212891e+00 -6.023174524307250977e-01 2.000000000000000000e+01
-2.540641784667969194e+00 9.227307140827178955e-02 -6.812117099761962891e-01 1.500000000000000000e+01
-4.473740005493164062e+01 1.632627367973328081e+00 7.814140319824218750e-01 4.800000000000000000e+01
-2.942568778991699219e+00 1.078990995883942067e-01 -6.798020601272583008e-01 1.300000000000000000e+01
-4.502162551879882812e+01 1.658736467361449973e+00 2.361084222793579102e+00 3.500000000000000000e+01
-3.521652221679687944e+00 1.297485977411269864e-01 -6.850042939186096191e-01 1.200000000000000000e+01
-4.483192443847656250e+01 1.659582614898682085e+00 3.924971818923950195e+00 5.400000000000000000e+01
-4.352695941925048828e+00 1.618883013725281039e-01 -6.898760199546813965e-01 9.000000000000000000e+00
-5.740812778472900391e+00 2.155227512121201117e-01 -7.053797841072082520e-01 1.100000000000000000e+01
-8.376026153564453125e+00 3.159184455871582031e-01 -7.333284020423889160e-01 3.000000000000000000e+00
-3.446132659912108664e+01 1.323870658874511941e+00 -6.019684076309204102e-01 2.000000000000000000e+01
-2.553816318511962891e+00 1.016789898276329041e-01 -6.848351955413818359e-01 1.700000000000000000e+01
-4.475540542602539062e+01 1.789739012718200906e+00 7.818328738212585449e-01 4.800000000000000000e+01
-2.932438373565673828e+00 1.177788898348808011e-01 -6.775525808334350586e-01 1.300000000000000000e+01
-4.501556396484375000e+01 1.815881133079529031e+00 2.361084222793579102e+00 3.500000000000000000e+01
-3.507446289062500000e+00 1.414867490530014038e-01 -6.823329925537109375e-01 1.200000000000000000e+01
-4.482585906982421875e+01 1.816065073013306108e+00 3.924971818923950195e+00 5.400000000000000000e+01
-4.369868278503417969e+00 1.778038293123244962e-01 -6.926918029785156250e-01 1.000000000000000000e+01
-5.712257862091063565e+00 2.344210743904114047e-01 -7.019674181938171387e-01 1.100000000000000000e+01
-8.345012664794921875e+00 3.439236581325531006e-01 -7.307137250900268555e-01 2.000000000000000000e+00
-1.601018714904785156e+01 6.654273271560668945e-01 -8.397827744483947754e-01 4.000000000000000000e+00
-3.440055465698242188e+01 1.441810369491576926e+00 -6.009910702705383301e-01 1.300000000000000000e+01
-2.547636508941649947e+00 1.107867211103439053e-01 -6.832822561264038086e-01 1.600000000000000000e+01
-4.474854660034179688e+01 1.953763723373413086e+00 7.818328738212585449e-01 4.800000000000000000e+01
-2.941721200942993164e+00 1.289527416229248047e-01 -6.798020601272583008e-01 1.200000000000000000e+01
-3.499058723449707031e+00 1.539959460496901911e-01 -6.808065176010131836e-01 1.300000000000000000e+01
-4.485871124267578125e+01 1.982106924057007058e+00 3.928457975387572798e+00 5.400000000000000000e+01
-4.365240097045898438e+00 1.936439275741576871e-01 -6.920660734176635742e-01 1.000000000000000000e+01
-5.723258972167968750e+00 2.558879554271697998e-01 -7.034298777580261230e-01 1.100000000000000000e+01
-8.323791503906250000e+00 3.736139535903931219e-01 -7.289706468582153320e-01 3.000000000000000000e+00
-3.439503860473632812e+01 1.567885041236876997e+00 -6.009910702705383301e-01 1.300000000000000000e+01
-2.543374776840209961e+00 1.194976270198822021e-01 -6.822469830513000488e-01 2.100000000000000000e+01
-4.475343704223632812e+01 2.110518455505371094e+00 7.820423245429992676e-01 4.800000000000000000e+01
-2.945146322250366211e+00 1.394047439098357877e-01 -6.807019114494323730e-01 1.300000000000000000e+01
-4.500141525268554688e+01 2.137956619262694868e+00 2.361084222793579102e+00 3.500000000000000000e+01
-3.500460863113402876e+00 1.663021743297576904e-01 -6.811881065368652344e-01 1.200000000000000000e+01
-4.482365798950195312e+01 2.137352466583251953e+00 3.926017522811890093e+00 5.400000000000000000e+01
-4.352698802947998047e+00 2.083136886358261108e-01 -6.901888847351074219e-01 1.000000000000000000e+01
-5.712416648864746094e+00 2.753863632678986151e-01 -7.022111415863037109e-01 1.100000000000000000e+01
-8.318456649780273438e+00 4.024745821952819824e-01 -7.286220192909240723e-01 2.000000000000000000e+00
-3.435340499877929688e+01 1.686172008514404075e+00 -6.003627777099609375e-01 1.900000000000000000e+01
-2.544893980026245117e+00 1.280281692743301114e-01 -6.827646493911743164e-01 2.300000000000000000e+01
-4.473820495605468750e+01 2.258511304855347124e+00 7.819027304649353027e-01 4.800000000000000000e+01
-2.942721605300902876e+00 1.490718424320220947e-01 -6.802520155906677246e-01 1.300000000000000000e+01
-3.503811597824097124e+00 1.781085431575774869e-01 -6.819513440132141113e-01 1.200000000000000000e+01
-4.484418106079102273e+01 2.287402153015137163e+00 3.928457975387572798e+00 5.400000000000000000e+01
-4.324365139007568359e+00 2.213329970836639127e-01 -6.858087182044982910e-01 1.000000000000000000e+01
-5.727332115173339844e+00 2.951452136039733887e-01 -7.041610479354858398e-01 1.100000000000000000e+01
-8.313097000122070312e+00 4.298515915870667059e-01 -7.282733917236328125e-01 2.000000000000000000e+00
-3.433564376831054688e+01 1.799454808235168013e+00 -6.001533269882202148e-01 1.300000000000000000e+01
-2.552147865295410156e+00 1.373259127140044888e-01 -6.848351955413818359e-01 2.600000000000000000e+01
-4.473803710937500000e+01 2.415094375610352007e+00 7.820423245429992676e-01 4.800000000000000000e+01
-2.932453870773314986e+00 1.588160246610640924e-01 -6.780024766921997070e-01 1.300000000000000000e+01
-3.501208066940308061e+00 1.902315318584442139e-01 -6.815697550773620605e-01 1.200000000000000000e+01
-4.485183715820313211e+01 2.444791078567504883e+00 3.929852485656737837e+00 5.400000000000000000e+01
-4.331456184387207031e+00 2.368579357862473089e-01 -6.870601773262023926e-01 1.000000000000000000e+01
-5.706445693969726562e+00 3.140447139739990234e-01 -7.017236948013305664e-01 1.100000000000000000e+01
-8.315525054931640625e+00 4.590867459774016779e-01 -7.286220192909240723e-01 2.000000000000000000e+00
-3.434112930297852273e+01 1.919967293739319070e+00 -6.003627777099609375e-01 1.900000000000000000e+01
-2.553555965423583984e+00 1.467899531126022061e-01 -6.853528022766113281e-01 2.500000000000000000e+01
-4.474884796142578125e+01 2.580202341079711914e+00 7.823913693428039551e-01 4.800000000000000000e+01
-2.926015615463256836e+00 1.692253947257995883e-01 -6.766527891159057617e-01 1.300000000000000000e+01
-3.488727569580078125e+00 2.023806422948837003e-01 -6.792800426483154297e-01 1.100000000000000000e+01
-4.485848999023438211e+01 2.610090732574462891e+00 3.931246995925902876e+00 5.400000000000000000e+01
-4.332530975341796875e+00 2.528470158576964777e-01 -6.873730421066284180e-01 1.000000000000000000e+01
-5.693366527557373047e+00 3.342597186565399170e-01 -7.002612352371215820e-01 1.000000000000000000e+01
-8.281963348388671875e+00 4.876876771450042725e-01 -7.258329987525939941e-01 2.000000000000000000e+00
-3.432987213134766336e+01 2.045583009719849077e+00 -6.002929806709289551e-01 1.300000000000000000e+01
-2.547243118286132812e+00 1.553498357534409124e-01 -6.837999224662780762e-01 2.000000000000000000e+01
-4.476351928710938211e+01 2.737854242324829102e+00 7.828102111816406250e-01 4.800000000000000000e+01
-2.933187484741210938e+00 1.799152940511702936e-01 -6.784523725509643555e-01 1.300000000000000000e+01
-3.487999916076660156e+00 2.145573347806931097e-01 -6.792800426483154297e-01 1.100000000000000000e+01
-4.484910583496093750e+01 2.766660213470458984e+00 3.931246995925902876e+00 5.400000000000000000e+01
