4.038212966918945312e+01 -5.991249084472656250e-01 2.116570711135863814e+00 2.400000000000000000e+01
3.203678607940673828e+00 -4.753101617097855308e-02 -6.228005886077880859e-01 1.200000000000000000e+01
3.849565267562866211e+00 -5.845769494771956704e-02 -6.097815632820129395e-01 1.000000000000000000e+01
4.936328887939453125e+00 -7.668428868055343628e-02 -6.061781048774719238e-01 9.000000000000000000e+00
6.436615943908691406e+00 -1.011144444346428056e-01 -5.632004141807556152e-01 7.000000000000000000e+00
9.691449165344238281e+00 -1.556292474269866943e-01 -5.079727768898010254e-01 2.000000000000000000e+00
1.833073997497558949e+01 -3.007628619670867920e-01 -3.200073242187500000e-01 3.000000000000000000e+00
2.358417034149169922e+00 -4.198982194066047668e-02 -6.320360898971557617e-01 1.600000000000000000e+01
2.605036258697510210e+00 -4.729031398892403343e-02 -6.015191078186035156e-01 1.000000000000000000e+00
4.032800292968750000e+01 -7.320910692214965820e-01 2.113849163055419922e+00 2.400000000000000000e+01
3.191715478897095171e+00 -5.849779024720191956e-02 -6.205108761787414551e-01 1.200000000000000000e+01
3.847362756729125977e+00 -7.185794413089752197e-02 -6.094686985015869141e-01 9.000000000000000000e+00
4.936031341552734375e+00 -9.391482919454574585e-02 -6.061781048774719238e-01 9.000000000000000000e+00
6.452159881591796875e+00 -1.238877996802330017e-01 -5.645949244499206543e-01 7.000000000000000000e+00
3.776592636108397727e+01 -7.317366600036621094e-01 7.342329978942871094e+00 6.200000000000000000e+01
9.726790428161621094e+00 -1.901604831218718927e-01 -5.098568797111511230e-01 2.000000000000000000e+00
1.837756156921387074e+01 -3.657020628452301025e-01 -3.208450376987457275e-01 3.000000000000000000e+00
2.356324672698975053e+00 -5.018084496259689331e-02 -6.315184831619262695e-01 1.600000000000000000e+01
2.702269554138184038e+00 -5.849187448620796204e-02 -6.240141987800598145e-01 7.000000000000000000e+00
4.010755157470703125e+01 -8.681464791297912598e-01 2.102440118789672852e+00 2.300000000000000000e+01
3.199342966079711914e+00 -6.980991363525390625e-02 -6.220373511314392090e-01 1.400000000000000000e+01
3.862887620925902876e+00 -8.563756197690963745e-02 -6.119716167449951172e-01 9.000000000000000000e+00
4.941627025604248047e+00 -1.112782880663872043e-01 -6.069093346595764160e-01 1.100000000000000000e+01
6.453680038452148438e+00 -1.464544832706451138e-01 -5.647692084312438965e-01 9.000000000000000000e+00
9.754021644592285156e+00 -2.247562855482100885e-01 -5.113223195075988770e-01 2.000000000000000000e+00
1.842815017700194957e+01 -4.310653507709503174e-01 -3.217525780200958252e-01 3.000000000000000000e+00
2.346478939056396040e+00 -5.816628038883209229e-02 -6.289302706718444824e-01 1.500000000000000000e+01
5.952238845825195312e+01 -1.485880613327025923e+00 1.039290785789489968e+00 6.300000000000000000e+01
2.707893371582030806e+00 -6.807111203670501709e-02 -6.253639459609985352e-01 8.000000000000000000e+00
3.195154666900635210e+00 -8.087792247533798218e-02 -6.212741136550903320e-01 1.200000000000000000e+01
3.856641054153441939e+00 -9.896901249885559082e-02 -6.110330224037170410e-01 1.000000000000000000e+01
4.955099582672119141e+00 -1.288884282112122137e-01 -6.086155176162719727e-01 9.000000000000000000e+00
6.435204029083251953e+00 -1.685117483139038086e-01 -5.632004141807556152e-01 9.000000000000000000e+00
9.781128883361816406e+00 -2.595445215702056885e-01 -5.127876996994018555e-01 2.000000000000000000e+00
1.847451019287109020e+01 -4.966787695884705145e-01 -3.225902915000916082e-01 3.000000000000000000e+00
2.355916976928710938e+00 -6.662973761558532715e-02 -6.315184831619262695e-01 2.100000000000000000e+01
2.709587097167969194e+00 -7.757878303527832031e-02 -6.258138418197631836e-01 7.000000000000000000e+00
3.984896087646483664e+01 -1.140924334526062012e+00 2.089251279830933061e+00 2.300000000000000000e+01
3.202702522277832031e+00 -9.225671738386154175e-02 -6.228005886077880859e-01 1.200000000000000000e+01
3.848373889923096147e+00 -1.122003197669983049e-01 -6.097815632820129395e-01 1.000000000000000000e+01
4.960572242736816406e+00 -1.463598012924194058e-01 -6.093466877937316895e-01 1.100000000000000000e+01
6.434576988220214844e+00 -1.909737735986709872e-01 -5.632004141807556152e-01 7.000000000000000000e+00
9.804120063781738281e+00 -2.944048345088958740e-01 -5.140437483787536621e-01 2.000000000000000000e+00
1.857659912109375000e+01 -5.643212199211120605e-01 -3.244053423404694159e-01 3.000000000000000000e+00
2.363393545150756836e+00 -7.509844005107879639e-02 -6.335890293121337891e-01 2.100000000000000000e+01
2.719038486480712891e+00 -8.734939247369766235e-02 -6.280633211135864258e-01 8.000000000000000000e+00
3.977287292480468750e+01 -1.277707576751708984e+00 2.085483074188231978e+00 2.300000000000000000e+01
3.202361106872559038e+00 -1.034356728196143965e-01 -6.228005886077880859e-01 1.200000000000000000e+01
3.861778974533081055e+00 -1.260841935873031894e-01 -6.119716167449951172e-01 1.000000000000000000e+01
4.950110912322998047e+00 -1.633471846580505094e-01 -6.081280112266540527e-01 9.000000000000000000e+00
3.749199676513671875e+01 -1.237186908721924050e+00 5.941380977630615234e+00 1.300000000000000000e+01
6.459757804870604581e+00 -2.142922431230545044e-01 -5.654664635658264160e-01 9.000000000000000000e+00
9.767102241516113281e+00 -3.274213075637816828e-01 -5.121596455574035645e-01 2.000000000000000000e+00
1.865845489501953125e+01 -6.320053935050964355e-01 -3.258713185787200928e-01 3.000000000000000000e+00
2.365047693252563032e+00 -8.341585844755172729e-02 -6.341066360473632812e-01 1.900000000000000000e+01
2.730401992797852007e+00 -9.725629538297653198e-02 -6.307627558708190918e-01 1.100000000000000000e+01
3.201980590820312944e+00 -1.146133691072463989e-01 -6.228005886077880859e-01 1.200000000000000000e+01
3.865263700485229048e+00 -1.397062540054321012e-01 -6.125973463058471680e-01 9.000000000000000000e+00
4.957445621490479404e+00 -1.809148788452147882e-01 -6.091029644012451172e-01 9.000000000000000000e+00
3.758220291137695312e+01 -1.371508717536926047e+00 5.956398487091063565e+00 1.300000000000000000e+01
6.462952613830566406e+00 -2.369857132434844971e-01 -5.658150911331176758e-01 9.000000000000000000e+00
9.833760261535644531e+00 -3.640249073505402166e-01 -5.157185196876525879e-01 2.000000000000000000e+00
1.876004791259765980e+01 -7.010146379470825195e-01 -3.276863694190979004e-01 3.000000000000000000e+00
2.368602991104125977e+00 -9.182057529687881470e-02 -6.351419091224670410e-01 1.900000000000000000e+01
2.737834930419921875e+00 -1.070912554860115051e-01 -6.325623393058776855e-01 1.100000000000000000e+01
3.950725936889647727e+01 -1.552244424819946067e+00 2.072085142135620117e+00 2.200000000000000000e+01
3.199599266052246094e+00 -1.257125884294509888e-01 -6.224189400672912598e-01 1.300000000000000000e+01
3.876595258712768999e+00 -1.536671370267868042e-01 -6.144745945930480957e-01 1.000000000000000000e+01
4.954800605773925781e+00 -1.981391757726669034e-01 -6.088592410087585449e-01 9.000000000000000000e+00
3.730059432983397727e+01 -1.498146653175354004e+00 5.912597179412841797e+00 1.300000000000000000e+01
6.478012084960938388e+00 -2.601838409900664728e-01 -5.672096014022827148e-01 7.000000000000000000e+00
9.832429885864257812e+00 -3.983488976955413818e-01 -5.157185196876525879e-01 2.000000000000000000e+00
1.871752548217773082e+01 -7.648622393608093262e-01 -3.269882798194885254e-01 3.000000000000000000e+00
2.370198011398314986e+00 -1.001695543527603011e-01 -6.356595754623413086e-01 1.600000000000000000e+01
2.747179269790648970e+00 -1.170622482895850996e-01 -6.348118782043457031e-01 1.200000000000000000e+01
3.883113479614257812e+01 -1.661454081535338911e+00 2.036915302276610884e+00 2.200000000000000000e+01
3.195217847824097124e+00 -1.367126703262329102e-01 -6.216557025909423828e-01 1.300000000000000000e+01
3.878008842468262163e+00 -1.672831773757935125e-01 -6.147874593734741211e-01 1.000000000000000000e+01
4.958045005798339844e+00 -2.156059294939041138e-01 -6.093466877937316895e-01 9.000000000000000000e+00
3.736646652221679688e+01 -1.624921202659606934e+00 5.923860549926757812e+00 1.300000000000000000e+01
6.471093177795410156e+00 -2.825340330600739081e-01 -5.666866302490234375e-01 7.000000000000000000e+00
9.830979347229003906e+00 -4.326680600643157959e-01 -5.157185196876525879e-01 2.000000000000000000e+00
1.879065513610839844e+01 -8.335614800453186035e-01 -3.283146619796752930e-01 3.000000000000000000e+00
2.364044427871704102e+00 -1.081775575876235962e-01 -6.341066360473632812e-01 1.700000000000000000e+01
2.744807243347167969e+00 -1.265612244606018066e-01 -6.343619823455810547e-01 1.100000000000000000e+01
3.206488132476807085e+00 -1.484098434448241910e-01 -6.239454150199890137e-01 1.200000000000000000e+01
3.865561962127685991e+00 -1.802668124437331876e-01 -6.129102110862731934e-01 1.000000000000000000e+01
4.953296661376953125e+00 -2.327250987291336060e-01 -6.088592410087585449e-01 9.000000000000000000e+00
6.476037979125976562e+00 -3.054021894931793213e-01 -5.672096014022827148e-01 7.000000000000000000e+00
9.905219078063964844e+00 -4.705835878849030096e-01 -5.196960568428039551e-01 2.000000000000000000e+00
1.891147041320801137e+01 -9.050748348236083984e-01 -3.304787576198577881e-01 3.000000000000000000e+00
2.375249862670897993e+00 -1.165846586227416992e-01 -6.372125148773193359e-01 1.700000000000000000e+01
2.740479707717895952e+00 -1.354701966047286987e-01 -6.334621906280517578e-01 1.200000000000000000e+01
3.211860895156859907e+00 -1.593339443206787109e-01 -6.250902414321899414e-01 1.300000000000000000e+01
3.864942789077758789e+00 -1.930844932794570923e-01 -6.129102110862731934e-01 1.000000000000000000e+01
4.964393138885498047e+00 -2.497479766607285101e-01 -6.103217005729675293e-01 1.000000000000000000e+01
6.484938621520996094e+00 -3.273780941963195801e-01 -5.680811405181884766e-01 7.000000000000000000e+00
9.895625114440917969e+00 -5.030223131179809570e-01 -5.192773342132568359e-01 2.000000000000000000e+00
1.890836524963378906e+01 -9.677825570106506348e-01 -3.304787576198577881e-01 3.000000000000000000e+00
2.386403560638428178e+00 -1.254837661981582919e-01 -6.403183341026306152e-01 1.600000000000000000e+01
2.738044261932373047e+00 -1.449324339628219882e-01 -6.330122947692871094e-01 1.200000000000000000e+01
3.895955657958983664e+01 -2.069058418273925781e+00 2.044661045074462891e+00 2.200000000000000000e+01
3.205403804779053178e+00 -1.702321171760559082e-01 -6.239454150199890137e-01 1.300000000000000000e+01
3.876080751419066939e+00 -2.072071731090545932e-01 -6.147874593734741211e-01 1.000000000000000000e+01
4.941686630249023438e+00 -2.659021615982056219e-01 -6.076405644416809082e-01 1.100000000000000000e+01
6.491714477539063388e+00 -3.504423499107360840e-01 -5.687783956527709961e-01 7.000000000000000000e+00
9.826002120971679688e+00 -5.338772535324096680e-01 -5.157185196876525879e-01 2.000000000000000000e+00
1.910454368591308949e+01 -1.044697761535644975e+00 -3.339692354202271063e-01 3.000000000000000000e+00
2.384022235870360884e+00 -1.337049305438995084e-01 -6.398006677627563477e-01 1.600000000000000000e+01
2.743358612060546875e+00 -1.548185050487518033e-01 -6.343619823455810547e-01 1.200000000000000000e+01
3.883644104003906250e+01 -2.198492765426636186e+00 2.038590192794799805e+00 2.200000000000000000e+01
3.206750154495238814e+00 -1.815309822559356967e-01 -6.243270039558410645e-01 1.300000000000000000e+01
3.881250381469727007e+00 -2.210729569196701050e-01 -6.157260537147521973e-01 1.100000000000000000e+01
4.952619075775145596e+00 -2.838317155838013250e-01 -6.091029644012451172e-01 1.100000000000000000e+01
6.504375457763671875e+00 -3.739009499549865723e-01 -5.699985623359680176e-01 9.000000000000000000e+00
9.923775672912597656e+00 -5.739390850067138672e-01 -5.209521055221557617e-01 2.000000000000000000e+00
3.654564285278320312e+01 -2.120007991790771040e+00 8.451411247253417969e+00 1.100000000000000000e+01
1.910078048706055043e+01 -1.111378788948059082e+00 -3.339692354202271063e-01 3.000000000000000000e+00
2.366185188293457031e+00 -1.409917324781418124e-01 -6.351419091224670410e-01 1.500000000000000000e+01
2.746691942214965820e+00 -1.646268516778945923e-01 -6.352617740631103516e-01 1.100000000000000000e+01
3.211976051330565962e+00 -1.930769234895705899e-01 -6.254718899726867676e-01 1.300000000000000000e+01
3.882426738739014116e+00 -2.347389310598373136e-01 -6.160389184951782227e-01 1.000000000000000000e+01
4.959524154663085938e+00 -3.015998303890228271e-01 -6.100779175758361816e-01 1.200000000000000000e+01
6.514962673187255859e+00 -3.973308801651000977e-01 -5.710444450378417969e-01 9.000000000000000000e+00
9.961582183837890625e+00 -6.110215783119201660e-01 -5.230455398559570312e-01 2.000000000000000000e+00
1.917262840270996094e+01 -1.182724833488463911e+00 -3.352956175804138184e-01 3.000000000000000000e+00
2.379148483276367188e+00 -1.505171209573746005e-01 -6.387653946876525879e-01 1.600000000000000000e+01
2.746070146560668945e+00 -1.746928840875625888e-01 -6.352617740631103516e-01 1.100000000000000000e+01
3.211246728897095171e+00 -2.048481106758117953e-01 -6.254718899726867676e-01 1.300000000000000000e+01
4.116828536987304688e+01 -2.633373737335205078e+00 3.609119415283203125e+00 5.400000000000000000e+01
3.875626325607299805e+00 -2.485878169536591131e-01 -6.151003241539001465e-01 1.000000000000000000e+01
4.948480606079101562e+00 -3.191365897655487061e-01 -6.088592410087585449e-01 9.000000000000000000e+00
6.505509853363037109e+00 -4.206924438476563055e-01 -5.703471899032592773e-01 9.000000000000000000e+00
9.979206085205078125e+00 -6.488243341445922852e-01 -5.240922570228576660e-01 2.000000000000000000e+00
3.596949005126953125e+01 -2.344955444335937944e+00 8.321839332580566406e+00 1.000000000000000000e+01
1.914422035217285156e+01 -1.251422882080077903e+00 -3.348767757415770929e-01 3.000000000000000000e+00
2.376681089401245117e+00 -1.586922705173491877e-01 -6.382477879524230957e-01 1.800000000000000000e+01
2.735721826553345171e+00 -1.836248487234115878e-01 -6.330122947692871094e-01 1.200000000000000000e+01
3.224224090576171875e+00 -2.169789671897887906e-01 -6.281431913375854492e-01 1.300000000000000000e+01
3.866851568222045898e+00 -2.615814805030822754e-01 -6.138488650321960449e-01 1.100000000000000000e+01
4.957238674163818359e+00 -3.370814323425292969e-01 -6.100779175758361816e-01 1.200000000000000000e+01
6.541769504547119141e+00 -4.459730982780457098e-01 -5.736591219902038574e-01 8.000000000000000000e+00
9.984850883483886719e+00 -6.842004656791687012e-01 -5.245109796524047852e-01 2.000000000000000000e+00
3.597275161743164062e+01 -2.471299648284912109e+00 8.324539184570312500e+00 1.000000000000000000e+01
1.918761444091796875e+01 -1.321538686752318892e+00 -3.357144892215728760e-01 3.000000000000000000e+00
3.939564895629882812e+01 -2.713358402252196822e+00 1.058104038238525035e+01 9.000000000000000000e+00
2.391558647155762163e+00 -1.676535308361052912e-01 -6.423888802528381348e-01 1.900000000000000000e+01
2.744817256927489790e+00 -1.933805942535400113e-01 -6.352617740631103516e-01 1.100000000000000000e+01
3.209778070449829102e+00 -2.267014682292937955e-01 -6.254718899726867676e-01 1.300000000000000000e+01
3.879755735397338867e+00 -2.753819823265076239e-01 -6.160389184951782227e-01 1.000000000000000000e+01
4.946193695068359375e+00 -3.528121709823607843e-01 -6.088592410087585449e-01 9.000000000000000000e+00
6.532305240631104404e+00 -4.670955240726470947e-01 -5.729618668556213379e-01 8.000000000000000000e+00
9.998463630676269531e+00 -7.184528708457946777e-01 -5.253483057022094727e-01 2.000000000000000000e+00
1.928285026550292969e+01 -1.392360687255858931e+00 -3.374597430229187012e-01 3.000000000000000000e+00
3.902804183959960938e+01 -2.818105697631835938e+00 1.048475933074950994e+01 9.000000000000000000e+00
2.383252382278441939e+00 -1.754333078861237127e-01 -6.403183341026306152e-01 1.800000000000000000e+01
2.748012542724608931e+00 -2.032480984926224032e-01 -6.361615657806396484e-01 1.100000000000000000e+01
3.210925102233887163e+00 -2.380494475364685059e-01 -6.258534789085388184e-01 1.300000000000000000e+01
3.882710695266724077e+00 -2.892166674137114923e-01 -6.166646480560302734e-01 1.000000000000000000e+01
4.954829692840576172e+00 -3.708162009716033936e-01 -6.100779175758361816e-01 1.000000000000000000e+01
6.538582324981688565e+00 -4.904908239841461182e-01 -5.736591219902038574e-01 6.000000000000000000e+00
3.590473175048828125e+01 -2.699690341949462891e+00 6.998874187469482422e+00 6.000000000000000000e+01
9.983944892883300781e+00 -7.524490356445312500e-01 -5.247203111648559570e-01 2.000000000000000000e+00
1.931775283813476918e+01 -1.462681531906127930e+00 -3.381578326225280762e-01 3.000000000000000000e+00
3.791753005981445312e+01 -2.877655744552611861e+00 1.018918800354004084e+01 1.600000000000000000e+01
2.371100425720214844e+00 -1.824462413787842074e-01 -6.372125148773193359e-01 2.000000000000000000e+01
2.755095243453979048e+00 -2.129604518413543979e-01 -6.379612088203430176e-01 1.100000000000000000e+01
3.215990304946898970e+00 -2.491508871316910068e-01 -6.269983649253845215e-01 1.300000000000000000e+01
3.885669231414794922e+00 -3.023971319198607843e-01 -6.172903776168823242e-01 1.000000000000000000e+01
4.963468074798583984e+00 -3.880185484886168878e-01 -6.112966537475585938e-01 1.000000000000000000e+01
6.548837661743164062e+00 -5.131046175956726074e-01 -5.747049450874328613e-01 6.000000000000000000e+00
1.005705738067626953e+01 -7.915075421333312988e-01 -5.286978483200073242e-01 2.000000000000000000e+00
1.938854789733887074e+01 -1.532721877098083052e+00 -3.394842147827147882e-01 3.000000000000000000e+00
3.798148345947266336e+01 -3.002547979354857954e+00 1.020885848999023082e+01 1.600000000000000000e+01
2.374300479888916016e+00 -1.910316795110703070e-01 -6.382477879524230957e-01 1.800000000000000000e+01
2.750450134277344194e+00 -2.222622931003571112e-01 -6.370613574981689453e-01 1.000000000000000000e+01
3.213144063949584961e+00 -2.602168023586273193e-01 -6.266167163848876953e-01 1.300000000000000000e+01
3.870807647705078125e+00 -3.148378133773804266e-01 -6.151003241539001465e-01 1.200000000000000000e+01
4.956147670745849609e+00 -4.048570692539215088e-01 -6.105654239654541016e-01 9.000000000000000000e+00
6.548992156982421875e+00 -5.361237525939941406e-01 -5.748792886734008789e-01 6.000000000000000000e+00
1.002238464355468928e+01 -8.239899873733520508e-01 -5.270230770111083984e-01 2.000000000000000000e+00
4.072902297973632812e+01 -3.355692148208618164e+00 9.434897422790527344e+00 1.200000000000000000e+01
1.928343391418457031e+01 -1.592163801193237083e+00 -3.377389609813690186e-01 3.000000000000000000e+00
3.803045654296875000e+01 -3.140037775039672852e+00 1.022490501403808949e+01 8.000000000000000000e+00
2.385134696960449219e+00 -2.007045745849609097e-01 -6.413536071777343750e-01 1.700000000000000000e+01
2.741849899291992188e+00 -2.316853702068329135e-01 -6.352617740631103516e-01 1.100000000000000000e+01
3.216081142425537109e+00 -2.723231017589569092e-01 -6.273799538612365723e-01 1.300000000000000000e+01
3.877501010894774947e+00 -3.296923637390137274e-01 -6.163517832756042480e-01 9.000000000000000000e+00
4.972431659698486328e+00 -4.245393574237822931e-01 -6.127590537071228027e-01 1.200000000000000000e+01
6.572790145874023438e+00 -5.623313188552856445e-01 -5.771453380584716797e-01 8.000000000000000000e+00
1.001929664611816051e+01 -8.607183098793029785e-01 -5.270230770111083984e-01 2.000000000000000000e+00
1.928942298889160156e+01 -1.663861513137816939e+00 -3.379484117031096857e-01 3.000000000000000000e+00
2.388268470764160156e+00 -2.093664407730103094e-01 -6.423888802528381348e-01 1.500000000000000000e+01
2.752671718597412109e+00 -2.422799766063689908e-01 -6.379612088203430176e-01 1.100000000000000000e+01
3.211199760437012163e+00 -2.832027077674865723e-01 -6.266167163848876953e-01 1.300000000000000000e+01
3.884197235107421875e+00 -3.439222574234008789e-01 -6.176032423973083496e-01 9.000000000000000000e+00
4.951146602630615234e+00 -4.401360750198364258e-01 -6.103217005729675293e-01 1.000000000000000000e+01
6.576740741729736328e+00 -5.858014822006225586e-01 -5.776682496070861816e-01 6.000000000000000000e+00
1.002021026611327947e+01 -8.960427641868591309e-01 -5.272324085235595703e-01 2.000000000000000000e+00
3.626692199707031250e+01 -3.249497413635253906e+00 8.406420707702636719e+00 1.100000000000000000e+01
1.950656700134276988e+01 -1.751210093498229980e+00 -3.418577313423156738e-01 3.000000000000000000e+00
4.014214706420897727e+01 -3.610840797424315962e+00 1.079948329925536932e+01 9.000000000000000000e+00
2.383713245391846147e+00 -2.169349044561386108e-01 -6.413536071777343750e-01 1.900000000000000000e+01
2.751853227615356001e+00 -2.514068186283112127e-01 -6.379612088203430176e-01 1.300000000000000000e+01
3.210242986679077148e+00 -2.938498854637145996e-01 -6.266167163848876953e-01 1.300000000000000000e+01
3.896805047988892046e+00 -3.580660820007324219e-01 -6.197933554649353027e-01 1.000000000000000000e+01
4.947682857513427734e+00 -4.563699066638947088e-01 -6.100779175758361816e-01 1.000000000000000000e+01
6.556906700134277344e+00 -6.059574484825134277e-01 -5.760994553565979004e-01 4.000000000000000000e+00
1.008479976654052912e+01 -9.355385899543762207e-01 -5.307912826538085938e-01 2.000000000000000000e+00
3.615116882324218750e+01 -3.360006332397460938e+00 8.382125854492187500e+00 1.000000000000000000e+01
1.964799308776855113e+01 -1.829606771469115989e+00 -3.444406986236572266e-01 3.000000000000000000e+00
2.371401786804199219e+00 -2.241634726524353027e-01 -6.382477879524230957e-01 1.900000000000000000e+01
2.750958919525146040e+00 -2.610110640525817871e-01 -6.379612088203430176e-01 1.300000000000000000e+01
3.938880538940429688e+01 -3.737210988998413086e+00 2.073550701141356978e+00 2.200000000000000000e+01
3.209197759628295898e+00 -3.050539195537567139e-01 -6.266167163848876953e-01 1.300000000000000000e+01
3.881766319274901900e+00 -3.703529834747313898e-01 -6.176032423973083496e-01 1.000000000000000000e+01
4.959892272949218750e+00 -4.749623537063599188e-01 -6.117841005325317383e-01 1.000000000000000000e+01
6.568634510040283203e+00 -6.301735043525695801e-01 -5.773196220397949219e-01 6.000000000000000000e+00
1.009340095520020064e+01 -9.718840122222900391e-01 -5.314192771911621094e-01 2.000000000000000000e+00
3.659311676025391336e+01 -3.529962539672852007e+00 8.487402915954589844e+00 1.100000000000000000e+01
1.964148521423339844e+01 -1.898180007934570090e+00 -3.444406986236572266e-01 3.000000000000000000e+00
2.378295421600341797e+00 -2.331939041614531916e-01 -6.403183341026306152e-01 2.000000000000000000e+01
2.751970291137694868e+00 -2.708029448986052912e-01 -6.384111046791076660e-01 1.500000000000000000e+01
3.932714080810546875e+01 -3.876850605010985884e+00 2.071038484573363814e+00 2.200000000000000000e+01
3.221789836883544922e+00 -3.176024854183197021e-01 -6.292880773544311523e-01 1.300000000000000000e+01
3.886347055435181108e+00 -3.844840526580811102e-01 -6.185418963432312012e-01 1.000000000000000000e+01
3.895319366455078125e+01 -3.860582351684569868e+00 4.806282997131347656e+00 2.000000000000000000e+01
4.968080997467041016e+00 -4.932533502578734796e-01 -6.130027770996093750e-01 9.000000000000000000e+00
6.564412117004395419e+00 -6.529012918472290039e-01 -5.771453380584716797e-01 6.000000000000000000e+00
1.012969493865966975e+01 -1.011078000068664995e+00 -5.335127115249633789e-01 2.000000000000000000e+00
3.663680648803710938e+01 -3.663297414779663086e+00 8.500450134277343750e+00 2.200000000000000000e+01
1.963474082946776988e+01 -1.966729998588562012e+00 -3.444406986236572266e-01 3.000000000000000000e+00
3.741560363769531250e+01 -3.754360675811768022e+00 1.007582569122313920e+01 8.000000000000000000e+00
2.385154724121094194e+00 -2.422751933336257935e-01 -6.423888802528381348e-01 1.700000000000000000e+01
2.745192289352416992e+00 -2.798146307468413752e-01 -6.370613574981689453e-01 1.400000000000000000e+01
3.946110534667968750e+01 -4.022229671478270596e+00 2.078784227371215820e+00 2.200000000000000000e+01
3.232380151748656782e+00 -3.300432264804840088e-01 -6.315777897834777832e-01 1.300000000000000000e+01
3.888911485671997070e+00 -3.984502553939818781e-01 -6.191676259040832520e-01 1.000000000000000000e+01
3.659746551513671875e+01 -3.756159305572510210e+00 4.517209053039550781e+00 1.900000000000000000e+01
4.958430290222167969e+00 -5.097801089286804199e-01 -6.120278239250183105e-01 9.000000000000000000e+00
6.570020675659179688e+00 -6.766278147697448730e-01 -5.778425931930541992e-01 6.000000000000000000e+00
1.011418437957764027e+01 -1.045199275016784890e+00 -5.328847169876098633e-01 2.000000000000000000e+00
3.665674591064453125e+01 -3.794572591781616211e+00 8.508098602294921875e+00 1.100000000000000000e+01
1.972720718383789062e+01 -2.045568466186522993e+00 -3.461859226226807196e-01 3.000000000000000000e+00
3.732925415039063211e+01 -3.877358436584473100e+00 1.005615520477294922e+01 8.000000000000000000e+00
2.395822048187255859e+00 -2.518110573291779120e-01 -6.454946994781494141e-01 1.700000000000000000e+01
2.742260694503784180e+00 -2.891910672187805176e-01 -6.366114616394042969e-01 1.300000000000000000e+01
3.223398685455321822e+00 -3.404993712902069092e-01 -6.300513148307800293e-01 1.300000000000000000e+01
3.883568286895751953e+00 -4.116062819957733154e-01 -6.185418963432312012e-01 1.000000000000000000e+01
3.675389480590820312e+01 -3.901908159255981001e+00 4.538170814514160156e+00 1.900000000000000000e+01
4.944776535034179688e+00 -5.258256793022155762e-01 -6.105654239654541016e-01 9.000000000000000000e+00
6.579505920410156250e+00 -7.008235454559326172e-01 -5.788884162902832031e-01 8.000000000000000000e+00
1.013430500030517933e+01 -1.083044767379760964e+00 -5.341407656669616699e-01 2.000000000000000000e+00
3.656964874267578125e+01 -3.914623498916625977e+00 8.491002082824707031e+00 1.100000000000000000e+01
1.968018150329589844e+01 -2.110152959823607954e+00 -3.454878330230712891e-01 3.000000000000000000e+00
3.731933212280272727e+01 -4.008050918579101562e+00 1.005719089508056996e+01 8.000000000000000000e+00
2.389166831970214844e+00 -2.595465779304503839e-01 -6.439417600631713867e-01 1.900000000000000000e+01
5.978793716430664062e+01 -6.505607128143311435e+00 1.049762248992919922e+00 6.300000000000000000e+01
2.758670091629027876e+00 -3.006618320941925049e-01 -6.406605839729309082e-01 1.400000000000000000e+01
3.218287229537963867e+00 -3.513229489326477051e-01 -6.292880773544311523e-01 1.300000000000000000e+01
3.895853281021118164e+00 -4.266653358936309814e-01 -6.207319498062133789e-01 1.100000000000000000e+01
3.688607025146483664e+01 -4.046196937561035156e+00 4.556207180023193359e+00 1.900000000000000000e+01
4.954750537872313565e+00 -5.443837642669677734e-01 -6.120278239250183105e-01 9.000000000000000000e+00
6.586921691894531250e+00 -7.248757481575012207e-01 -5.797600150108337402e-01 6.000000000000000000e+00
1.016619682312012074e+01 -1.122358560562134011e+00 -5.360248684883117676e-01 2.000000000000000000e+00
3.452585220336914062e+01 -3.817789077758789062e+00 8.019505500793457031e+00 1.000000000000000000e+01
1.981182289123535156e+01 -2.194245815277100053e+00 -3.479311764240264893e-01 3.000000000000000000e+00
4.005850219726563211e+01 -4.443731307983398438e+00 1.079948329925536932e+01 9.000000000000000000e+00
2.388246297836304155e+00 -2.678847610950469971e-01 -6.439417600631713867e-01 1.900000000000000000e+01
5.996358489990233664e+01 -6.736591339111328125e+00 1.053252696990967019e+00 6.200000000000000000e+01
2.757603645324707031e+00 -3.102895617485045832e-01 -6.406605839729309082e-01 1.400000000000000000e+01
5.964126205444335938e+01 -6.710920810699462891e+00 3.145390987396239790e+00 6.300000000000000000e+01
3.220942974090576172e+00 -3.629944622516632080e-01 -6.300513148307800293e-01 1.300000000000000000e+01
3.898265838623046875e+00 -4.407055974006652832e-01 -6.213576793670654297e-01 1.100000000000000000e+01
3.689539337158203125e+01 -4.177608966827392578e+00 4.559132099151611328e+00 1.900000000000000000e+01
4.956764698028563565e+00 -5.621231198310852051e-01 -6.125153303146362305e-01 9.000000000000000000e+00
6.584351062774658203e+00 -7.478639483451843262e-01 -5.797600150108337402e-01 8.000000000000000000e+00
1.019793605804443004e+01 -1.161908149719238059e+00 -5.379089713096618652e-01 2.000000000000000000e+00
3.445423126220703125e+01 -3.931655406951903853e+00 8.006008148193359375e+00 1.000000000000000000e+01
1.987556648254394887e+01 -2.271563053131103960e+00 -3.491877615451812744e-01 3.000000000000000000e+00
3.458105468750000000e+01 -3.952241659164429155e+00 9.326285362243652344e+00 6.000000000000000000e+00
2.383458614349364790e+00 -2.757755815982819159e-01 -6.429064869880676270e-01 1.900000000000000000e+01
5.986819458007813211e+01 -6.937575340270996094e+00 1.051996111869812012e+00 6.300000000000000000e+01
2.754568099975585938e+00 -3.196888267993927002e-01 -6.402106881141662598e-01 1.500000000000000000e+01
5.961747360229492188e+01 -6.919066905975341797e+00 3.145390987396239790e+00 6.300000000000000000e+01
3.231357097625731978e+00 -3.755954802036284845e-01 -6.323410272598266602e-01 1.300000000000000000e+01
3.877083063125609907e+00 -4.520228505134583075e-01 -6.182290315628051758e-01 1.100000000000000000e+01
4.980403900146484375e+00 -5.824194550514221191e-01 -6.156839132308959961e-01 1.000000000000000000e+01
6.589616298675537109e+00 -7.717701196670532227e-01 -5.804572701454162598e-01 6.000000000000000000e+00
1.017001533508300959e+01 -1.194702148437500000e+00 -5.366529226303100586e-01 2.000000000000000000e+00
3.470738220214843750e+01 -4.083321571350097656e+00 8.068094253540039062e+00 1.000000000000000000e+01
1.993901062011719105e+01 -2.349351644515991211e+00 -3.504443168640137274e-01 3.000000000000000000e+00
2.384498834609984907e+00 -2.834901213645935059e-01 -6.434241533279418945e-01 2.000000000000000000e+01
5.991758728027343750e+01 -7.134133815765380859e+00 1.053252696990967019e+00 6.200000000000000000e+01
2.747745037078856978e+00 -3.276487588882445734e-01 -6.388610005378723145e-01 1.300000000000000000e+01
3.224313020706177202e+00 -3.850468099117279053e-01 -6.311961412429809570e-01 1.300000000000000000e+01
3.887411832809447798e+00 -4.656103253364562988e-01 -6.201062202453613281e-01 1.100000000000000000e+01
4.974607944488525391e+00 -5.975894331932067871e-01 -6.151964664459228516e-01 1.000000000000000000e+01
6.591115474700927734e+00 -7.929441332817077637e-01 -5.808058977127075195e-01 6.000000000000000000e+00
3.348654174804688211e+01 -4.034527778625488281e+00 6.556197166442871094e+00 5.800000000000000000e+01
1.016621208190917969e+01 -1.226646304130553977e+00 -5.366529226303100586e-01 2.000000000000000000e+00
3.470212173461914062e+01 -4.193272590637207031e+00 8.069893836975097656e+00 1.000000000000000000e+01
1.998314666748046875e+01 -2.418226480484008789e+00 -3.513518571853638250e-01 3.000000000000000000e+00
2.394999980926514116e+00 -2.932204306125640869e-01 -6.465299725532531738e-01 2.000000000000000000e+01
5.989231872558593750e+01 -7.343241691589354581e+00 1.053252696990967019e+00 6.200000000000000000e+01
2.748518943786621094e+00 -3.374756872653961182e-01 -6.393108963966369629e-01 1.500000000000000000e+01
3.221000671386719194e+00 -3.960598111152648926e-01 -6.308145523071289062e-01 1.300000000000000000e+01
3.885762929916381836e+00 -4.791770875453948975e-01 -6.201062202453613281e-01 1.100000000000000000e+01
3.653993225097656250e+01 -4.512436389923095703e+00 4.520621299743652344e+00 1.900000000000000000e+01
4.958701133728027344e+00 -6.132449507713317871e-01 -6.134902834892272949e-01 9.000000000000000000e+00
6.608079910278320312e+00 -8.183953762054443359e-01 -5.825489759445190430e-01 5.000000000000000000e+00
3.388529968261718750e+01 -4.202620983123779297e+00 6.637100219726563388e+00 5.800000000000000000e+01
1.019358062744140980e+01 -1.266064286231995073e+00 -5.383276343345642090e-01 2.000000000000000000e+00
2.010158348083496094e+01 -2.503784418106079102e+00 -3.535857498645781916e-01 3.000000000000000000e+00
3.506378173828125000e+01 -4.373639583587645596e+00 9.468118667602539062e+00 7.000000000000000000e+00
2.388211727142333984e+00 -3.008543848991394043e-01 -6.449770331382751465e-01 1.900000000000000000e+01
5.986632156372070312e+01 -7.552259922027587891e+00 1.053252696990967019e+00 6.200000000000000000e+01
2.762791156768798828e+00 -3.490216732025145929e-01 -6.429101228713989258e-01 1.600000000000000000e+01
3.221546411514281782e+00 -4.075472056865692139e-01 -6.311961412429809570e-01 1.300000000000000000e+01
3.897784233093262163e+00 -4.944782555103302002e-01 -6.222962737083435059e-01 1.100000000000000000e+01
4.958499431610107422e+00 -6.308007836341857910e-01 -6.137340068817138672e-01 1.000000000000000000e+01
6.585418701171875000e+00 -8.389390707015991211e-01 -5.808058977127075195e-01 6.000000000000000000e+00
3.396779632568358664e+01 -4.333299160003662109e+00 6.656180858612061435e+00 5.900000000000000000e+01
1.027230739593506037e+01 -1.312268495559691939e+00 -5.427238941192626953e-01 2.000000000000000000e+00
3.508565902709960938e+01 -4.488352775573729581e+00 8.166172981262207031e+00 1.000000000000000000e+01
2.016412544250487926e+01 -2.583084106445312944e+00 -3.548423349857329767e-01 3.000000000000000000e+00
3.493602752685546875e+01 -4.475408554077148438e+00 9.437577247619628906e+00 1.400000000000000000e+01
2.381399393081665039e+00 -3.084445297718048096e-01 -6.434241533279418945e-01 1.900000000000000000e+01
5.983959579467772727e+01 -7.761186599731445312e+00 1.053252696990967019e+00 6.200000000000000000e+01
2.759623289108275923e+00 -3.584125041961669922e-01 -6.424602270126342773e-01 1.300000000000000000e+01
3.225944757461547852e+00 -4.195496141910552979e-01 -6.323410272598266602e-01 1.300000000000000000e+01
3.884281873703002930e+00 -5.065483450889587402e-01 -6.204190850257873535e-01 1.100000000000000000e+01
3.623196792602539062e+01 -4.731434822082520419e+00 4.486497879028320312e+00 1.900000000000000000e+01
4.975950717926025391e+00 -6.506792306900024414e-01 -6.161714196205139160e-01 1.300000000000000000e+01
6.574548244476318359e+00 -8.608866930007934570e-01 -5.801086425781250000e-01 5.000000000000000000e+00
1.022013759613036932e+01 -1.341877579689026101e+00 -5.402117371559143066e-01 2.000000000000000000e+00
3.496930694580078125e+01 -4.597588062286376953e+00 8.142778396606445312e+00 1.000000000000000000e+01
3.511283493041992188e+01 -4.628927230834960938e+00 9.489859580993652344e+00 7.000000000000000000e+00
2.380252838134766069e+00 -3.171707391738892157e-01 -6.434241533279418945e-01 1.900000000000000000e+01
2.758291244506835938e+00 -3.685246109962462824e-01 -6.424602270126342773e-01 1.400000000000000000e+01
3.218547582626343218e+00 -4.305894672870635986e-01 -6.311961412429809570e-01 1.200000000000000000e+01
3.874567747116088867e+00 -5.197311043739318848e-01 -6.191676259040832520e-01 1.100000000000000000e+01
3.612388229370117188e+01 -4.852043628692626953e+00 4.475286006927490234e+00 1.900000000000000000e+01
4.971565246582031250e+00 -6.686480641365051270e-01 -6.159276366233825684e-01 1.200000000000000000e+01
3.513376998901367188e+01 -4.725297927856445312e+00 5.614745616912841797e+00 1.300000000000000000e+01
6.581221580505371094e+00 -8.863074183464050293e-01 -5.809801816940307617e-01 8.000000000000000000e+00
1.024681949615479049e+01 -1.383603334426880105e+00 -5.418865084648132324e-01 2.000000000000000000e+00
2.021646499633789062e+01 -2.736966133117675781e+00 -3.560988903045653742e-01 3.000000000000000000e+00
3.498542785644531250e+01 -4.736433506011962891e+00 9.459836006164550781e+00 7.000000000000000000e+00
2.382959365844727007e+00 -3.260011374950408936e-01 -6.444594264030456543e-01 1.800000000000000000e+01
2.749265432357788086e+00 -3.770913779735565186e-01 -6.406605839729309082e-01 1.400000000000000000e+01
3.234529733657836914e+00 -4.442257881164550781e-01 -6.346307396888732910e-01 1.300000000000000000e+01
3.874686717987060991e+00 -5.335221290588378906e-01 -6.194804906845092773e-01 9.000000000000000000e+00
3.598480224609375000e+01 -4.961300373077392578e+00 4.460174083709716797e+00 1.900000000000000000e+01
4.973133563995361328e+00 -6.865409016609191895e-01 -6.164151430130004883e-01 9.000000000000000000e+00
6.591903209686279297e+00 -9.111844301223754883e-01 -5.822003483772277832e-01 6.000000000000000000e+00
1.023005771636963068e+01 -1.417717933654784934e+00 -5.412584543228149414e-01 2.000000000000000000e+00
3.336815643310546875e+01 -4.630214214324951172e+00 7.777457714080811435e+00 9.000000000000000000e+00
2.043258285522460938e+01 -2.838890075683594194e+00 -3.600780367851256769e-01 3.000000000000000000e+00
3.498505401611328125e+01 -4.867025375366210938e+00 9.464494705200195312e+00 1.400000000000000000e+01
2.393344163894652876e+00 -3.355106711387634277e-01 -6.475652456283569336e-01 2.000000000000000000e+01
5.968375015258789062e+01 -8.377382278442382812e+00 1.051996111869812012e+00 6.300000000000000000e+01
2.740280628204346147e+00 -3.851213455200194757e-01 -6.388610005378723145e-01 1.300000000000000000e+01
3.217486143112183061e+00 -4.527608454227448065e-01 -6.315777897834777832e-01 1.200000000000000000e+01
3.876808404922484907e+00 -5.469200015068054199e-01 -6.201062202453613281e-01 1.000000000000000000e+01
3.907769775390625000e+01 -5.519835472106933594e+00 4.845768928527832031e+00 2.000000000000000000e+01
4.962967395782470703e+00 -7.019166946411132812e-01 -6.154401898384094238e-01 9.000000000000000000e+00
6.594763278961181641e+00 -9.338769912719726562e-01 -5.827233195304870605e-01 5.000000000000000000e+00
1.026880359649658025e+01 -1.457810282707213911e+00 -5.435612201690673828e-01 2.000000000000000000e+00
3.566397476196289062e+01 -5.069384574890136719e+00 8.316440582275390625e+00 1.000000000000000000e+01
2.042305755615234020e+01 -2.906631469726562944e+00 -3.600780367851256769e-01 3.000000000000000000e+00
3.498297882080078125e+01 -4.978815078735351562e+00 9.468118667602539062e+00 7.000000000000000000e+00
2.382597446441649947e+00 -3.424886167049407959e-01 -6.449770331382751465e-01 1.900000000000000000e+01
2.750492572784423828e+00 -3.963520228862761896e-01 -6.415604352951049805e-01 1.400000000000000000e+01
3.219772338867187944e+00 -4.645499289035797119e-01 -6.323410272598266602e-01 1.300000000000000000e+01
3.888560771942139116e+00 -5.624286532402038574e-01 -6.222962737083435059e-01 1.000000000000000000e+01
4.036268615722656250e+01 -5.845118522644042969e+00 5.007611274719238281e+00 2.400000000000000000e+01
4.968345165252686435e+00 -7.203757762908935547e-01 -6.164151430130004883e-01 9.000000000000000000e+00
6.605265140533447266e+00 -9.588950276374816895e-01 -5.839434862136840820e-01 6.000000000000000000e+00
3.408127975463867188e+01 -4.953697681427001953e+00 6.694342613220214844e+00 5.900000000000000000e+01
1.029922866821289062e+01 -1.498823523521422896e+00 -5.454453229904174805e-01 2.000000000000000000e+00
3.372154235839843750e+01 -4.913430213928222656e+00 7.867438316345214844e+00 9.000000000000000000e+00
2.051172447204589844e+01 -2.992336988449097124e+00 -3.618232905864716131e-01 3.000000000000000000e+00
3.450380706787108664e+01 -5.039711475372313565e+00 9.343367576599121094e+00 1.400000000000000000e+01
2.371770143508911133e+00 -3.498095870018004816e-01 -6.423888802528381348e-01 1.900000000000000000e+01
2.752876996994018999e+00 -4.070004522800446112e-01 -6.424602270126342773e-01 1.400000000000000000e+01
3.219990253448485884e+00 -4.766353368759155273e-01 -6.327226161956787109e-01 1.300000000000000000e+01
3.882565259933472124e+00 -5.760973095893859863e-01 -6.216705441474914551e-01 1.000000000000000000e+01
4.973525524139404297e+00 -7.397490143775939941e-01 -6.173900961875915527e-01 9.000000000000000000e+00
3.523631286621093750e+01 -5.240955829620361328e+00 5.642278194427490234e+00 1.300000000000000000e+01
6.593823909759520596e+00 -9.819242358207702637e-01 -5.832462310791015625e-01 6.000000000000000000e+00
1.031341934204101918e+01 -1.539510607719420943e+00 -5.464920401573181152e-01 2.000000000000000000e+00
3.613866043090820312e+01 -5.407407283782958984e+00 9.791124343872070312e+00 7.000000000000000000e+00
2.378175497055054155e+00 -3.592406511306763250e-01 -6.444594264030456543e-01 2.000000000000000000e+01
3.773508453369141336e+01 -5.706894874572753906e+00 6.661583781242370605e-01 3.100000000000000000e+01
2.751439571380614790e+00 -4.166073203086853027e-01 -6.424602270126342773e-01 1.400000000000000000e+01
3.224130153656005859e+00 -4.887550473213195801e-01 -6.338675022125244141e-01 1.200000000000000000e+01
3.866859912872314009e+00 -5.875692367553710938e-01 -6.194804906845092773e-01 1.000000000000000000e+01
4.990537643432617188e+00 -7.600943446159362793e-01 -6.198275089263916016e-01 9.000000000000000000e+00
3.547558212280272727e+01 -5.403182983398438388e+00 5.683577060699462891e+00 1.300000000000000000e+01
6.598234653472900391e+00 -1.006136298179626021e+00 -5.839434862136840820e-01 5.000000000000000000e+00
3.414199829101563211e+01 -5.212263584136962891e+00 6.713423728942871094e+00 5.900000000000000000e+01
1.030008506774901988e+01 -1.574294805526732954e+00 -5.460733771324157715e-01 2.000000000000000000e+00
2.068745040893555043e+01 -3.169319868087768999e+00 -3.653137683868408203e-01 3.000000000000000000e+00
4.201250457763671875e+01 -6.436321258544921875e+00 1.138855552673340021e+01 1.100000000000000000e+01
2.390270948410034180e+00 -3.696063458919525146e-01 -6.480829119682312012e-01 2.200000000000000000e+01
3.761612319946289062e+01 -5.823283672332763672e+00 6.644130945205688477e-01 3.100000000000000000e+01
2.738414049148560014e+00 -4.244183003902434748e-01 -6.397607922554016113e-01 1.400000000000000000e+01
3.222404241561890093e+00 -5.000063776969909668e-01 -6.338675022125244141e-01 1.200000000000000000e+01
3.878448724746704102e+00 -6.031884551048278809e-01 -6.216705441474914551e-01 1.000000000000000000e+01
3.661847305297852273e+01 -5.701565265655517578e+00 4.550357341766357422e+00 1.900000000000000000e+01
4.974124431610107422e+00 -7.753697037696838379e-01 -6.181213259696960449e-01 1.000000000000000000e+01
3.527988052368164062e+01 -5.505757808685302734e+00 5.655418872833251953e+00 1.300000000000000000e+01
6.604525089263916016e+00 -1.030698418617248979e+00 -5.848150253295898438e-01 5.000000000000000000e+00
3.422058486938477273e+01 -5.346562862396240234e+00 6.732504367828369141e+00 5.900000000000000000e+01
1.034188556671142933e+01 -1.617646813392638938e+00 -5.485854744911193848e-01 2.000000000000000000e+00
2.398506879806518999e+00 -3.794570565223693848e-01 -6.506710648536682129e-01 1.900000000000000000e+01
3.769432067871093750e+01 -5.970194339752197266e+00 6.661583781242370605e-01 3.100000000000000000e+01
2.746539354324340820e+00 -4.355005025863646906e-01 -6.420103311538696289e-01 1.500000000000000000e+01
3.799151229858397727e+01 -6.030859470367431641e+00 2.015980958938599077e+00 2.200000000000000000e+01
3.220639228820800781e+00 -5.112516283988952637e-01 -6.338675022125244141e-01 1.200000000000000000e+01
3.880221366882324219e+00 -6.173438429832458496e-01 -6.222962737083435059e-01 1.000000000000000000e+01
4.967466831207275391e+00 -7.921027541160583496e-01 -6.176338195800781250e-01 1.000000000000000000e+01
3.568179321289063211e+01 -5.696136474609375000e+00 5.722998619079589844e+00 1.300000000000000000e+01
6.622529506683349609e+00 -1.057201147079467995e+00 -5.867324471473693848e-01 5.000000000000000000e+00
1.035589790344237926e+01 -1.656892299652100053e+00 -5.496321916580200195e-01 2.000000000000000000e+00
2.076354408264160156e+01 -3.329497814178466797e+00 -3.670590221881865900e-01 3.000000000000000000e+00
3.676571655273438211e+01 -5.902077674865722656e+00 9.977474212646484375e+00 8.000000000000000000e+00
2.381978511810303178e+00 -3.849430978298187256e-01 -6.465299725532531738e-01 1.700000000000000000e+01
2.741232633590697798e+00 -4.439828097820281982e-01 -6.411104798316955566e-01 1.300000000000000000e+01
3.211174488067626953e+00 -5.206719636917114258e-01 -6.323410272598266602e-01 1.200000000000000000e+01
3.889851570129394975e+00 -6.321088075637817383e-01 -6.241735219955444336e-01 1.100000000000000000e+01
4.958934783935546875e+00 -8.076138496398925781e-01 -6.169025897979736328e-01 9.000000000000000000e+00
6.613087654113770419e+00 -1.078194618225098100e+00 -5.862095355987548828e-01 6.000000000000000000e+00
1.035034656524658025e+01 -1.691224575042725053e+00 -5.496321916580200195e-01 2.000000000000000000e+00
2.078001594543457031e+01 -3.402858018875122070e+00 -3.675476908683776855e-01 3.000000000000000000e+00
3.567937850952147727e+01 -5.842721939086914062e+00 9.687597274780273438e+00 7.000000000000000000e+00
2.371090173721313032e+00 -3.916811347007750910e-01 -6.439417600631713867e-01 1.900000000000000000e+01
5.992686080932617188e+01 -9.910081863403320312e+00 1.060233712196350098e+00 6.100000000000000000e+01
2.753124237060546875e+00 -4.557767510414124090e-01 -6.442598104476928711e-01 1.300000000000000000e+01
3.209337472915648970e+00 -5.318778753280639648e-01 -6.323410272598266602e-01 1.200000000000000000e+01
3.794833755493164062e+01 -6.295916557312011719e+00 3.365431785583496094e+00 5.000000000000000000e+01
3.875929355621337891e+00 -6.437411904335021973e-01 -6.222962737083435059e-01 1.000000000000000000e+01
3.748992919921875000e+01 -6.233311176300048828e+00 4.666377067565917969e+00 2.000000000000000000e+01
4.981541633605957031e+00 -8.291558623313903809e-01 -6.200712323188781738e-01 1.000000000000000000e+01
3.568895721435546875e+01 -5.946673393249511719e+00 5.730507373809813565e+00 1.300000000000000000e+01
6.615180015563964844e+00 -1.102254390716552956e+00 -5.867324471473693848e-01 8.000000000000000000e+00
3.687094116210938211e+01 -6.150234699249267578e+00 7.266006469726563388e+00 6.200000000000000000e+01
1.033650016784667969e+01 -1.726027846336364968e+00 -5.492135286331176758e-01 2.000000000000000000e+00
3.406869888305664062e+01 -5.695032596588134766e+00 7.974514961242675781e+00 1.000000000000000000e+01
2.093762588500976918e+01 -3.503756999969481978e+00 -3.705494999885559082e-01 3.000000000000000000e+00
3.481850051879882812e+01 -5.826619148254395419e+00 9.459318161010742188e+00 1.400000000000000000e+01
2.371613502502440962e+00 -4.002768993377686102e-01 -6.444594264030456543e-01 1.600000000000000000e+01
5.969472885131835938e+01 -1.008589076995849965e+01 1.056743264198303001e+00 6.200000000000000000e+01
2.741909265518188032e+00 -4.637592434883118231e-01 -6.420103311538696289e-01 1.200000000000000000e+01
3.221011161804199219e+00 -5.453715324401855469e-01 -6.350123286247253418e-01 1.100000000000000000e+01
3.873658657073975053e+00 -6.572667956352233887e-01 -6.222962737083435059e-01 1.000000000000000000e+01
3.741314697265625000e+01 -6.354829788208007812e+00 4.659552574157714844e+00 4.000000000000000000e+01
4.992315769195556641e+00 -8.488689661026000977e-01 -6.217774152755737305e-01 9.000000000000000000e+00
3.537693023681641336e+01 -6.015319824218750000e+00 5.683577060699462891e+00 1.300000000000000000e+01
6.621112823486328125e+00 -1.127010583877563032e+00 -5.876040458679199219e-01 6.000000000000000000e+00
1.036978816986083984e+01 -1.768815040588378906e+00 -5.513069629669189453e-01 2.000000000000000000e+00
3.403900527954102273e+01 -5.812279701232910156e+00 7.972265243530273438e+00 1.000000000000000000e+01
2.089767265319823863e+01 -3.572104692459106001e+00 -3.700608313083649237e-01 3.000000000000000000e+00
3.479795074462891336e+01 -5.948122978210449219e+00 9.459318161010742188e+00 1.400000000000000000e+01
2.379720687866210938e+00 -4.101937115192412775e-01 -6.470476388931274414e-01 1.600000000000000000e+01
5.965915679931641336e+01 -1.029420280456542969e+01 1.056743264198303001e+00 6.200000000000000000e+01
2.738353490829468218e+00 -4.729957580566406250e-01 -6.415604352951049805e-01 1.400000000000000000e+01
3.219087839126586914e+00 -5.566116571426391602e-01 -6.350123286247253418e-01 1.100000000000000000e+01
3.875233650207519975e+00 -6.714588403701782227e-01 -6.229220628738403320e-01 1.000000000000000000e+01
4.967808246612548828e+00 -8.625547289848327637e-01 -6.190962791442871094e-01 1.000000000000000000e+01
