-1.099178194999695046e+00 -1.240648508071898970e+00 4.441334903240203857e-01 8.200000000000000000e+01
-1.229220509529113992e+00 -1.383531332015990989e+00 -4.958972930908203125e-01 5.600000000000000000e+01
-1.130496501922606978e+00 -1.271966695785522017e+00 2.970399521291255951e-02 5.200000000000000000e+01
-1.236569046974181907e+00 -1.390824317932128906e+00 -4.296565055847167969e-01 4.000000000000000000e+01
-1.089742422103882058e+00 -1.225251197814940962e+00 8.593563735485076904e-02 5.600000000000000000e+01
-1.093920588493346946e+00 -1.229516625404357910e+00 1.439812928438186923e-01 6.700000000000000000e+01
-1.094301700592041016e+00 -1.229080796241760032e+00 2.020593732595444003e-01 8.200000000000000000e+01
-4.030829906463623047e+00 -4.525694370269775391e+00 -7.441341876983642578e-01 1.000000000000000000e+00
-1.095728516578674094e+00 -1.230250954627990945e+00 2.609326839447020929e-01 6.200000000000000000e+01
-1.097268700599669966e+00 -1.231114625930785911e+00 3.205591142177581787e-01 8.200000000000000000e+01
-1.099960088729857954e+00 -1.233267426490783913e+00 3.815169930458068848e-01 7.400000000000000000e+01
-1.162225008010864036e+00 -1.302620649337768999e+00 -3.047190234065055847e-02 1.000000000000000000e+01
-1.093426942825316939e+00 -1.225081324577331987e+00 4.399923682212830145e-01 8.400000000000000000e+01
-1.223737239837646040e+00 -1.367714524269104004e+00 -4.917561709880828857e-01 5.100000000000000000e+01
-1.132262229919434038e+00 -1.265032768249511941e+00 2.963418699800968170e-02 5.200000000000000000e+01
-1.238816618919373003e+00 -1.383595705032349077e+00 -4.287567138671875000e-01 4.500000000000000000e+01
-1.105790019035338911e+00 -1.235022544860840066e+00 8.687768876552581787e-02 5.300000000000000000e+01
-1.219469904899596946e+00 -1.361509799957274947e+00 -3.552863597869873047e-01 7.000000000000000000e+00
-1.096876144409179910e+00 -1.224206805229187012e+00 1.438069790601730069e-01 6.500000000000000000e+01
-1.251209855079651101e+00 -1.395965933799744096e+00 -2.969126105308533270e-01 1.000000000000000000e+00
-1.095934987068176047e+00 -1.222297549247741921e+00 2.015718966722488126e-01 7.900000000000000000e+01
-1.096272587776184082e+00 -1.221815705299376997e+00 2.599940896034240723e-01 6.400000000000000000e+01
-1.104182124137877974e+00 -1.230199098587035911e+00 3.213223516941071112e-01 8.800000000000000000e+01
-1.108164906501770020e+00 -1.233769774436950906e+00 3.828666806221007746e-01 7.700000000000000000e+01
-1.093822360038757102e+00 -1.216946840286255105e+00 4.384394586086273193e-01 9.200000000000000000e+01
-1.224624514579772949e+00 -1.359128952026366965e+00 -4.902032613754271906e-01 5.200000000000000000e+01
-1.139348864555359109e+00 -1.264043450355530007e+00 2.970399521291255951e-02 4.900000000000000000e+01
-1.222759127616882102e+00 -1.356106519699096902e+00 -4.215582907199860174e-01 4.100000000000000000e+01
-1.111431837081908958e+00 -1.232638359069823997e+00 8.698236197233200073e-02 5.100000000000000000e+01
-1.234734535217284934e+00 -1.368907451629638894e+00 -3.583392798900604248e-01 3.000000000000000000e+01
-1.102477431297302024e+00 -1.221849679946898970e+00 1.439812928438186923e-01 6.900000000000000000e+01
-1.233574271202086958e+00 -1.366661548614501953e+00 -2.915938496589661200e-01 1.900000000000000000e+01
-1.101525306701659934e+00 -1.219937920570373979e+00 2.018156349658966064e-01 8.700000000000000000e+01
-1.104290485382080078e+00 -1.222571372985840066e+00 2.609326839447020929e-01 9.500000000000000000e+01
-1.092671990394592063e+00 -1.208859801292418990e+00 3.167429268360137939e-01 8.500000000000000000e+01
-1.263179421424865945e+00 -1.397007822990417036e+00 -9.870561212301254272e-02 1.000000000000000000e+00
-1.111157536506653054e+00 -1.228448748588562012e+00 3.824167847633361816e-01 6.500000000000000000e+01
-1.104545712471008079e+00 -1.220282554626465066e+00 4.410276412963867188e-01 8.800000000000000000e+01
-1.228063106536865012e+00 -1.353415250778198020e+00 -4.896856248378754217e-01 5.100000000000000000e+01
-1.149130344390868919e+00 -1.265981435775757058e+00 2.984361536800861012e-02 3.800000000000000000e+01
-1.213075160980225053e+00 -1.335960030555725098e+00 -4.166093468666077215e-01 4.700000000000000000e+01
-1.119755625724792036e+00 -1.233187198638916016e+00 8.729637414216995239e-02 5.300000000000000000e+01
-1.238185405731200950e+00 -1.363135814666748047e+00 -3.579576611518859863e-01 4.000000000000000000e+01
-1.108075737953186035e+00 -1.219468474388123003e+00 1.441555917263031006e-01 6.300000000000000000e+01
-1.221064329147339089e+00 -1.343344449996948020e+00 -2.875265479087830145e-01 4.000000000000000000e+01
-1.096428513526916948e+00 -1.205804586410522017e+00 2.001094669103621881e-01 8.500000000000000000e+01
-1.227541089057921919e+00 -1.349523186683655007e+00 -2.239958494901657104e-01 5.000000000000000000e+00
-1.113868117332458052e+00 -1.224554300308227983e+00 2.621841728687285822e-01 8.200000000000000000e+01
-1.221562623977660911e+00 -1.342479825019835982e+00 -1.587977558374404907e-01 3.000000000000000000e+00
-1.096884965896606001e+00 -1.205038309097290039e+00 3.167429268360137939e-01 8.800000000000000000e+01
-1.233086109161376953e+00 -1.354194045066833052e+00 -9.598414599895477295e-02 2.100000000000000000e+01
-1.111502051353455034e+00 -1.220240592956542969e+00 3.810670971870421808e-01 5.800000000000000000e+01
-1.243144631385803001e+00 -1.364283561706542969e+00 -3.221714124083518982e-02 9.000000000000000000e+00
-1.107497096061706987e+00 -1.214991807937622070e+00 4.405100047588347834e-01 9.200000000000000000e+01
-1.236689448356627974e+00 -1.353398680686950906e+00 -4.912385344505310059e-01 5.200000000000000000e+01
-1.209840893745421919e+00 -1.323088645935059038e+00 -4.139099419116973877e-01 5.000000000000000000e+01
-1.120010137557982954e+00 -1.224849224090575950e+00 8.698236197233200073e-02 5.000000000000000000e+01
-1.228360056877136008e+00 -1.342870593070984109e+00 -3.537598848342896063e-01 4.500000000000000000e+01
-1.117705702781677024e+00 -1.221472740173340066e+00 1.448528468608855924e-01 6.700000000000000000e+01
-1.231081128120421919e+00 -1.344902396202086958e+00 -2.887780368328093927e-01 4.500000000000000000e+01
-1.105993270874022993e+00 -1.207826137542725053e+00 2.010844200849533081e-01 9.600000000000000000e+01
-1.237607717514038086e+00 -1.351085186004638894e+00 -2.249708026647568027e-01 2.800000000000000000e+01
-1.112798690795897993e+00 -1.214832186698914018e+00 2.609326839447020929e-01 8.200000000000000000e+01
-1.231625437736511008e+00 -1.344083309173583984e+00 -1.594950109720230103e-01 3.800000000000000000e+01
-1.110370874404907005e+00 -1.211332678794861062e+00 3.194142580032349188e-01 1.000000000000000000e+02
-1.231056451797484907e+00 -1.342521190643310991e+00 -9.546078741550445557e-02 3.800000000000000000e+01
-1.110485434532165971e+00 -1.210609078407288042e+00 3.792674839496613104e-01 7.700000000000000000e+01
-1.245195269584655984e+00 -1.356989026069640891e+00 -3.214733302593231201e-02 4.800000000000000000e+01
-1.114132404327393022e+00 -1.214159250259398970e+00 4.415452778339385986e-01 9.200000000000000000e+01
-1.230941176414489968e+00 -1.337700963020324929e+00 -4.870974421501160223e-01 5.000000000000000000e+01
-1.232427835464477983e+00 -1.338847517967223899e+00 3.176337853074073792e-02 2.100000000000000000e+01
-1.227652549743651900e+00 -1.333192825317383035e+00 -4.184089601039885919e-01 5.600000000000000000e+01
-1.133749246597290039e+00 -1.231216788291930930e+00 8.771505951881408691e-02 5.300000000000000000e+01
-1.219738721847533958e+00 -1.324134826660156028e+00 -3.499436974525452215e-01 5.100000000000000000e+01
-1.120612502098083052e+00 -1.216098546981811968e+00 1.446785330772399902e-01 6.700000000000000000e+01
-1.238445997238158958e+00 -1.343501806259155051e+00 -2.894037663936614990e-01 5.000000000000000000e+01
-1.111548423767090066e+00 -1.205417394638061968e+00 2.013281583786011020e-01 9.000000000000000000e+01
-1.243662357330322044e+00 -1.348216056823730025e+00 -2.252145409584045133e-01 4.000000000000000000e+01
-1.113014340400696023e+00 -1.206584572792053001e+00 2.599940896034240723e-01 7.200000000000000000e+01
-1.229553937911987083e+00 -1.332454800605773926e+00 -1.586234569549561102e-01 5.800000000000000000e+01
-1.106602549552917036e+00 -1.198793888092041016e+00 3.171245455741881769e-01 9.100000000000000000e+01
-1.227605342864990012e+00 -1.329411864280700906e+00 -9.483275562524795532e-02 4.300000000000000000e+01
-1.125283002853393999e+00 -1.218177080154418945e+00 3.828666806221007746e-01 7.800000000000000000e+01
-1.226853132247925027e+00 -1.327666997909545898e+00 -3.155395016074181297e-02 4.900000000000000000e+01
-1.117263674736022949e+00 -1.208649039268494096e+00 4.410276412963867188e-01 9.700000000000000000e+01
-1.230350852012634055e+00 -1.327728033065795898e+00 -4.850268959999083918e-01 5.900000000000000000e+01
-1.211264371871948020e+00 -1.306673407554626021e+00 3.110018745064735066e-02 3.400000000000000000e+01
-1.226998567581176980e+00 -1.323183774948119895e+00 -4.166093468666077215e-01 5.000000000000000000e+01
-1.151837229728698953e+00 -1.241695761680603027e+00 8.876178413629531860e-02 5.300000000000000000e+01
-1.224353313446044922e+00 -1.319869041442871094e+00 -3.499436974525452215e-01 5.100000000000000000e+01
-1.118074417114258035e+00 -1.204877138137816939e+00 1.438069790601730069e-01 6.500000000000000000e+01
-1.233720660209655984e+00 -1.329036355018615945e+00 -2.872136831283568781e-01 4.900000000000000000e+01
-1.129257202148437944e+00 -1.216076374053955078e+00 2.037655413150787076e-01 9.000000000000000000e+01
-1.244307756423949973e+00 -1.339503407478332964e+00 -2.244833260774611872e-01 4.200000000000000000e+01
-1.117219328880310059e+00 -1.202692031860352007e+00 2.599940896034240723e-01 6.400000000000000000e+01
-1.220634937286376953e+00 -1.313559651374816895e+00 -1.568803340196608942e-01 5.500000000000000000e+01
-1.118800520896912065e+00 -1.203551411628722922e+00 3.194142580032349188e-01 1.000000000000000000e+02
-1.232238411903380904e+00 -1.325118541717529075e+00 -9.483275562524795532e-02 4.900000000000000000e+01
-1.126873731613158958e+00 -1.211387991905211958e+00 3.819668889045714777e-01 8.100000000000000000e+01
-1.226031064987183061e+00 -1.317520737648010032e+00 -3.141433000564575195e-02 4.800000000000000000e+01
-1.116001367568969949e+00 -1.199280381202697976e+00 4.389570951461791992e-01 8.800000000000000000e+01
-1.227069854736327903e+00 -1.314950823783874956e+00 -4.819210767745972235e-01 5.000000000000000000e+01
-1.204901695251465066e+00 -1.290743231773376021e+00 3.082094900310039867e-02 5.000000000000000000e+01
-1.223629713058471902e+00 -1.310346961021422896e+00 -4.139099419116973877e-01 5.000000000000000000e+01
-1.192976355552672896e+00 -1.277074337005615012e+00 9.158792346715927124e-02 4.800000000000000000e+01
-1.232973694801331010e+00 -1.319891214370727983e+00 -3.510885536670684814e-01 5.700000000000000000e+01
-1.130435466766356978e+00 -1.209701299667357954e+00 1.448528468608855924e-01 6.500000000000000000e+01
-1.227560639381408913e+00 -1.313177347183227983e+00 -2.847107350826262873e-01 4.800000000000000000e+01
-1.125360012054442915e+00 -1.203427672386168990e+00 2.023031115531921109e-01 9.300000000000000000e+01
-1.239483237266540971e+00 -1.325004100799560991e+00 -2.227771580219269076e-01 4.200000000000000000e+01
-1.110822081565856934e+00 -1.187050342559814009e+00 2.574911415576934814e-01 5.400000000000000000e+01
-1.226574063301085982e+00 -1.310745596885680930e+00 -1.570546478033066073e-01 5.800000000000000000e+01
-1.105552911758423074e+00 -1.181006312370300071e+00 3.144532144069672186e-01 8.700000000000000000e+01
-1.225934982299804910e+00 -1.309146404266356978e+00 -9.399537742137908936e-02 5.200000000000000000e+01
-1.139088988304137962e+00 -1.215980291366576926e+00 3.846662938594818115e-01 7.400000000000000000e+01
-1.233357310295104980e+00 -1.316151380538939986e+00 -3.148414194583892822e-02 4.700000000000000000e+01
-1.125674366950988992e+00 -1.200819730758666992e+00 4.410276412963867188e-01 8.600000000000000000e+01
-1.235850691795348899e+00 -1.314667224884032981e+00 -4.834739863872528076e-01 4.700000000000000000e+01
-1.204144716262816939e+00 -1.280491352081299050e+00 3.068133071064949036e-02 5.300000000000000000e+01
-1.215071678161621094e+00 -1.291659235954284890e+00 -4.094109237194060724e-01 4.800000000000000000e+01
-1.199017882347106934e+00 -1.274147868156433105e+00 9.169259667396545410e-02 4.400000000000000000e+01
-1.232421278953552024e+00 -1.309644341468811035e+00 -3.495620787143707275e-01 5.600000000000000000e+01
-1.134861588478087935e+00 -1.205549955368041992e+00 1.448528468608855924e-01 6.500000000000000000e+01
-1.225594162940979004e+00 -1.301478862762450950e+00 -2.831463813781737726e-01 4.600000000000000000e+01
-1.118873953819274902e+00 -1.187735438346863015e+00 2.003532052040100098e-01 5.600000000000000000e+01
-1.238885641098022017e+00 -1.314673423767090066e+00 -2.218022048473357877e-01 5.200000000000000000e+01
-1.109539866447448953e+00 -1.177415132522583008e+00 2.562396526336669922e-01 5.500000000000000000e+01
-1.236836552619934082e+00 -1.312040209770203081e+00 -1.577518880367279053e-01 5.600000000000000000e+01
-1.116608738899230957e+00 -1.184087991714477983e+00 3.163613080978394110e-01 9.100000000000000000e+01
-1.217019796371459961e+00 -1.290115952491760032e+00 -9.294866025447845459e-02 5.300000000000000000e+01
-1.130163431167602983e+00 -1.197624087333678977e+00 3.801672756671906073e-01 8.300000000000000000e+01
-1.229936718940735085e+00 -1.302897334098815918e+00 -3.127471357584000328e-02 4.800000000000000000e+01
-1.129859089851378950e+00 -1.196882963180541992e+00 4.410276412963867188e-01 8.400000000000000000e+01
-1.241760373115539995e+00 -1.311748266220092995e+00 -4.839916229248046875e-01 5.000000000000000000e+01
-1.208607196807861106e+00 -1.276280283927917036e+00 3.068133071064949036e-02 5.600000000000000000e+01
-1.216892600059509055e+00 -1.284580469131469949e+00 -4.085111021995543878e-01 5.100000000000000000e+01
-1.192467689514159934e+00 -1.258356928825377974e+00 9.085521847009658813e-02 4.300000000000000000e+01
-1.228882789611815962e+00 -1.296784162521362083e+00 -3.472723662853240967e-01 6.000000000000000000e+01
-1.148657917976378950e+00 -1.211702823638916016e+00 1.460730284452438077e-01 6.400000000000000000e+01
-1.232848167419434038e+00 -1.300059437751770020e+00 -2.837721109390258789e-01 5.200000000000000000e+01
-1.125745534896851030e+00 -1.186702966690063032e+00 2.008406817913054865e-01 5.900000000000000000e+01
-1.235268473625183105e+00 -1.301701307296752930e+00 -2.203397750854491910e-01 5.200000000000000000e+01
-1.107047796249390093e+00 -1.166177272796631081e+00 2.546752989292144775e-01 5.700000000000000000e+01
-1.238665461540221946e+00 -1.304824948310852051e+00 -1.574032753705978116e-01 5.700000000000000000e+01
-1.126142859458922896e+00 -1.185877561569214089e+00 3.178877830505371094e-01 9.100000000000000000e+01
-1.218764543533324973e+00 -1.282963871955872026e+00 -9.273931384086608887e-02 5.300000000000000000e+01
-1.131652235984802024e+00 -1.190846562385559082e+00 3.792674839496613104e-01 8.300000000000000000e+01
-1.227588415145874023e+00 -1.291349530220031960e+00 -3.110018745064735066e-02 5.200000000000000000e+01
-1.139563441276550071e+00 -1.198333501815795898e+00 4.430982172489166260e-01 8.600000000000000000e+01
-1.234334826469420943e+00 -1.294821023941040039e+00 -4.793328642845153809e-01 4.700000000000000000e+01
-1.217195034027100053e+00 -1.276395201683043990e+00 3.078604489564895977e-02 5.400000000000000000e+01
-1.228094816207885964e+00 -1.287375211715698020e+00 -4.107606112957000732e-01 6.100000000000000000e+01
-1.194095134735106978e+00 -1.251296997070312944e+00 9.064587950706481934e-02 5.500000000000000000e+01
-1.227980375289916992e+00 -1.286805391311645952e+00 -3.457458913326262873e-01 5.600000000000000000e+01
-1.151504755020142046e+00 -1.206244707107543945e+00 1.458987146615982056e-01 6.100000000000000000e+01
-1.238742947578429954e+00 -1.297176718711853027e+00 -2.840849757194519043e-01 5.300000000000000000e+01
-1.138108372688293013e+00 -1.191378593444823997e+00 2.023031115531921109e-01 6.100000000000000000e+01
-1.239804625511168990e+00 -1.297381520271301047e+00 -2.203397750854491910e-01 4.900000000000000000e+01
-1.102720379829406960e+00 -1.153931021690369096e+00 2.527981102466583252e-01 5.600000000000000000e+01
-1.232198596000670943e+00 -1.288971662521362083e+00 -1.560087800025939941e-01 5.900000000000000000e+01
-1.138416647911071999e+00 -1.190452814102173074e+00 3.201774954795836847e-01 9.100000000000000000e+01
-1.223235487937927024e+00 -1.278701782226562944e+00 -9.273931384086608887e-02 5.300000000000000000e+01
-1.138496875762939009e+00 -1.189704895019531028e+00 3.801672756671906073e-01 8.300000000000000000e+01
-1.226557374000549094e+00 -1.281278491020203081e+00 -3.096056915819644928e-02 5.400000000000000000e+01
-1.143530964851378950e+00 -1.194548010826111062e+00 4.430982172489166260e-01 9.000000000000000000e+01
-1.226806402206420898e+00 -1.277961850166321023e+00 -4.746741354465485174e-01 4.400000000000000000e+01
-1.213332533836364968e+00 -1.263484597206115945e+00 3.057661652565002094e-02 5.400000000000000000e+01
-1.231231093406677024e+00 -1.281675100326538086e+00 -4.103107154369354248e-01 5.400000000000000000e+01
-1.192920088768004927e+00 -1.241360783576965110e+00 9.022718667984008789e-02 6.000000000000000000e+01
-1.235185265541077104e+00 -1.285342216491698997e+00 -3.465091288089752197e-01 6.000000000000000000e+01
-1.148804426193237083e+00 -1.195036172866821067e+00 1.450271606445313055e-01 5.800000000000000000e+01
-1.230940341949462891e+00 -1.280030250549315962e+00 -2.812691628932952881e-01 5.100000000000000000e+01
-1.156022310256958008e+00 -1.201704621315001997e+00 2.047404944896697998e-01 7.500000000000000000e+01
-1.249831676483154075e+00 -1.298767328262329102e+00 -2.213147282600403110e-01 5.200000000000000000e+01
-1.127492070198059082e+00 -1.171228408813477007e+00 2.574911415576934814e-01 5.200000000000000000e+01
-1.232545018196105957e+00 -1.280356526374816895e+00 -1.554858386516571045e-01 5.900000000000000000e+01
-1.142565250396728960e+00 -1.186471700668334961e+00 3.201774954795836847e-01 1.000000000000000000e+02
-1.237391233444214089e+00 -1.284492850303649902e+00 -9.347201883792877197e-02 5.400000000000000000e+01
-1.148051738739013894e+00 -1.191336512565613015e+00 3.819668889045714777e-01 8.100000000000000000e+01
-1.228246688842772993e+00 -1.274109840393065962e+00 -3.089075908064841877e-02 5.400000000000000000e+01
-1.134491443634032981e+00 -1.176442742347717063e+00 4.379218220710753839e-01 9.700000000000000000e+01
-1.233722448348999023e+00 -1.276664972305298074e+00 -4.757094085216522217e-01 5.200000000000000000e+01
-1.211956262588500977e+00 -1.253703117370605025e+00 3.043699637055397034e-02 5.400000000000000000e+01
-1.239538550376892090e+00 -1.281787753105164018e+00 -4.116604328155518133e-01 5.200000000000000000e+01
-1.206750750541687012e+00 -1.247446537017822044e+00 9.095989167690277100e-02 6.300000000000000000e+01
-1.239440917968750000e+00 -1.281239151954651101e+00 -3.465091288089752197e-01 5.500000000000000000e+01
-1.162459731101989968e+00 -1.201242327690124956e+00 1.462473422288894931e-01 5.500000000000000000e+01
-1.229682564735413042e+00 -1.270264148712157981e+00 -2.800177037715911865e-01 5.000000000000000000e+01
-1.151715159416198953e+00 -1.189308285713196023e+00 2.032780647277832031e-01 8.700000000000000000e+01
-1.258275270462035911e+00 -1.298892974853516069e+00 -2.220459431409836093e-01 5.400000000000000000e+01
-1.142161607742310014e+00 -1.179031014442444070e+00 2.599940896034240723e-01 5.100000000000000000e+01
-1.234011054039001021e+00 -1.273400664329529031e+00 -1.551372259855270108e-01 6.000000000000000000e+01
-1.124629378318787065e+00 -1.160122275352478027e+00 3.140715956687927246e-01 9.100000000000000000e+01
-1.229130148887634055e+00 -1.267478346824645996e+00 -9.252996742725372314e-02 5.300000000000000000e+01
-1.157423496246337891e+00 -1.193117737770081010e+00 3.837665021419525146e-01 8.500000000000000000e+01
-1.238035440444946067e+00 -1.275770068168639915e+00 -3.103037923574447979e-02 5.400000000000000000e+01
-1.142217874526977983e+00 -1.177031993865967019e+00 4.394747316837310791e-01 9.200000000000000000e+01
-1.239518642425537109e+00 -1.273735165596008079e+00 -4.762270450592041016e-01 5.600000000000000000e+01
-1.217720031738281028e+00 -1.250897884368896040e+00 3.047190234065055847e-02 5.700000000000000000e+01
-1.248083949089050071e+00 -1.281641483306884988e+00 -4.130101501941680908e-01 4.600000000000000000e+01
-1.211097717285156028e+00 -1.243226647377013938e+00 9.095989167690277100e-02 6.300000000000000000e+01
-1.248015522956847922e+00 -1.281123757362365945e+00 -3.476539850234984796e-01 5.000000000000000000e+01
-1.170817255973815918e+00 -1.201457977294922097e+00 1.467702686786651889e-01 5.200000000000000000e+01
-1.231351256370543990e+00 -1.263135075569153054e+00 -2.793919444084166925e-01 5.100000000000000000e+01
-1.146158099174499956e+00 -1.175332427024841087e+00 2.015718966722488126e-01 3.600000000000000000e+01
-1.250326037406920943e+00 -1.281704187393188032e+00 -2.198522984981536865e-01 5.200000000000000000e+01
-1.164410471916198953e+00 -1.193215727806091087e+00 2.640613913536071777e-01 3.100000000000000000e+01
-1.244014620780945046e+00 -1.274789094924926980e+00 -1.558344662189483920e-01 6.000000000000000000e+01
-1.142386198043823020e+00 -1.170238018035888894e+00 3.178877830505371094e-01 9.100000000000000000e+01
-1.232151627540587935e+00 -1.261751174926758035e+00 -9.242530167102813721e-02 5.600000000000000000e+01
-1.153410673141479048e+00 -1.180706381797790971e+00 3.810670971870421808e-01 8.000000000000000000e+01
-1.242481231689452903e+00 -1.271440744400023970e+00 -3.103037923574447979e-02 5.400000000000000000e+01
-1.149225115776062012e+00 -1.175600528717041016e+00 4.405100047588347834e-01 9.200000000000000000e+01
-1.258830666542053001e+00 -1.284578323364258035e+00 -4.819210767745972235e-01 5.000000000000000000e+01
-1.229078292846679910e+00 -1.253779530525207964e+00 3.064642660319805145e-02 6.000000000000000000e+01
-1.256643414497375044e+00 -1.281451225280761941e+00 -4.143598377704619806e-01 5.200000000000000000e+01
-1.205639481544495073e+00 -1.229011178016663042e+00 9.022718667984008789e-02 6.500000000000000000e+01
-1.251104950904845969e+00 -1.275358080863953081e+00 -3.472723662853240967e-01 4.400000000000000000e+01
-1.186167955398560014e+00 -1.208740115165710005e+00 1.481647640466690063e-01 5.100000000000000000e+01
-1.244055867195128950e+00 -1.267287135124206987e+00 -2.812691628932952881e-01 5.100000000000000000e+01
-1.172507882118225098e+00 -1.193986058235168013e+00 2.054717093706130981e-01 4.600000000000000000e+01
-1.252010226249695046e+00 -1.274499773979187012e+00 -2.193648219108582098e-01 5.200000000000000000e+01
-1.161439299583435059e+00 -1.182301998138427956e+00 2.624970376491547186e-01 2.100000000000000000e+01
-1.248456835746764915e+00 -1.270438909530640093e+00 -1.558344662189483920e-01 6.000000000000000000e+01
-1.151969432830810991e+00 -1.171843409538269043e+00 3.194142580032349188e-01 9.300000000000000000e+01
-1.237948775291443093e+00 -1.258866548538208008e+00 -9.252996742725372314e-02 5.800000000000000000e+01
-1.157525062561034934e+00 -1.176673054695128950e+00 3.810670971870421808e-01 8.300000000000000000e+01
-1.242703914642333984e+00 -1.262820005416869895e+00 -3.092566505074501038e-02 5.600000000000000000e+01
-1.168022394180298074e+00 -1.186929583549499956e+00 4.462040364742279053e-01 8.000000000000000000e+01
-1.280947208404541016e+00 -1.298052072525023970e+00 -4.886503517627716064e-01 4.100000000000000000e+01
-1.233447313308716042e+00 -1.249481678009032981e+00 3.064642660319805145e-02 6.000000000000000000e+01
-1.272063136100769043e+00 -1.288149714469909890e+00 -4.179590642452239990e-01 5.400000000000000000e+01
-1.212729454040526900e+00 -1.227636933326720969e+00 9.043653309345245361e-02 6.500000000000000000e+01
-1.258308649063109907e+00 -1.273776531219481978e+00 -3.480356037616729736e-01 4.100000000000000000e+01
-1.184778213500977007e+00 -1.198923587799072044e+00 1.474675238132477084e-01 5.100000000000000000e+01
-1.255415678024291992e+00 -1.269960880279541016e+00 -2.828335165977478027e-01 4.900000000000000000e+01
-1.175272703170775923e+00 -1.188474535942078081e+00 2.052279710769653043e-01 5.200000000000000000e+01
-1.256451368331908958e+00 -1.270121574401855025e+00 -2.193648219108582098e-01 5.200000000000000000e+01
-1.162780880928039995e+00 -1.175431847572327104e+00 2.618713080883026123e-01 3.000000000000000000e+01
-1.245876789093018022e+00 -1.258992314338684082e+00 -1.549629122018814087e-01 6.500000000000000000e+01
-1.161577701568603960e+00 -1.173396110534667969e+00 3.209407329559326172e-01 9.300000000000000000e+01
-1.246551632881164995e+00 -1.258795142173767090e+00 -9.284398704767227173e-02 6.000000000000000000e+01
-1.158882498741149902e+00 -1.169856548309325950e+00 3.801672756671906073e-01 8.300000000000000000e+01
-1.237251520156859907e+00 -1.248531699180603027e+00 -3.068133071064949036e-02 5.800000000000000000e+01
-1.161279916763306108e+00 -1.171867489814758079e+00 4.420629143714904785e-01 8.800000000000000000e+01
-1.302039742469788042e+00 -1.309789299964905007e+00 -4.948620200157166082e-01 4.000000000000000000e+01
-1.235198616981505904e+00 -1.242116570472717063e+00 3.057661652565002094e-02 6.000000000000000000e+01
-1.287770748138427956e+00 -1.294531226158142090e+00 -4.215582907199860174e-01 5.200000000000000000e+01
-1.218629598617553933e+00 -1.224599599838257058e+00 9.054120630025863647e-02 6.100000000000000000e+01
-1.265738487243651900e+00 -1.271939277648926003e+00 -3.487988412380219061e-01 3.800000000000000000e+01
-1.190570235252379927e+00 -1.195985198020935059e+00 1.476418226957320889e-01 4.800000000000000000e+01
-1.268425107002258079e+00 -1.273749470710753950e+00 -2.847107350826262873e-01 4.700000000000000000e+01
-1.188026666641234907e+00 -1.192597150802612083e+00 2.066904008388519010e-01 7.500000000000000000e+01
-1.262499451637268066e+00 -1.266914129257201926e+00 -2.196085602045058927e-01 4.800000000000000000e+01
-1.186810016632080078e+00 -1.190544366836548074e+00 2.662514448165894110e-01 4.700000000000000000e+01
-1.242043137550354004e+00 -1.245951294898987038e+00 -1.539170444011687955e-01 6.700000000000000000e+01
-1.165870547294616921e+00 -1.169130802154541016e+00 3.209407329559326172e-01 9.300000000000000000e+01
-1.256799101829529031e+00 -1.259873867034912109e+00 -9.326267242431640625e-02 6.400000000000000000e+01
-1.168668508529663086e+00 -1.171118736267090066e+00 3.819668889045714777e-01 8.000000000000000000e+01
-1.237581014633178933e+00 -1.239742875099181907e+00 -3.057661652565002094e-02 5.900000000000000000e+01
-1.162837505340575950e+00 -1.164868831634521040e+00 4.410276412963867188e-01 8.600000000000000000e+01
-1.320271253585814986e+00 -1.318889379501342995e+00 -5.000383853912353516e-01 4.000000000000000000e+01
-1.228206992149353027e+00 -1.226493239402770996e+00 3.029737807810306896e-02 6.000000000000000000e+01
-1.293660879135132058e+00 -1.291404962539673074e+00 -4.220081865787506104e-01 5.100000000000000000e+01
-1.225724339485168013e+00 -1.223159909248352051e+00 9.075054526329040527e-02 6.100000000000000000e+01
-1.279898524284363015e+00 -1.277220606803894043e+00 -3.514701724052429199e-01 4.000000000000000000e+01
-1.201790452003479004e+00 -1.198857545852660911e+00 1.485133916139602939e-01 5.000000000000000000e+01
-1.272863626480102983e+00 -1.269314050674438032e+00 -2.847107350826262873e-01 4.900000000000000000e+01
-1.192182302474976030e+00 -1.188442826271056907e+00 2.066904008388519010e-01 8.700000000000000000e+01
-1.269726276397705078e+00 -1.265301823616028054e+00 -2.200960367918015081e-01 4.700000000000000000e+01
-1.192358136177062988e+00 -1.187788486480712891e+00 2.665643393993378241e-01 5.200000000000000000e+01
-1.246384739875793013e+00 -1.241608142852782981e+00 -1.539170444011687955e-01 7.300000000000000000e+01
-1.161597609519958052e+00 -1.156742095947266069e+00 3.186510205268859863e-01 8.000000000000000000e+01
-1.255527377128601074e+00 -1.249842882156372070e+00 -9.284398704767227173e-02 6.600000000000000000e+01
-1.175512075424193892e+00 -1.169781446456908958e+00 3.828666806221007746e-01 7.800000000000000000e+01
-1.244736313819885032e+00 -1.238235950469970925e+00 -3.064642660319805145e-02 6.100000000000000000e+01
-1.172578573226928933e+00 -1.166047811508178933e+00 4.430982172489166260e-01 7.000000000000000000e+01
-1.242205023765563965e+00 -1.232271790504456010e+00 3.054171055555343975e-02 6.300000000000000000e+01
-1.291017532348633035e+00 -1.280246973037719949e+00 -4.197586774826049805e-01 4.100000000000000000e+01
-1.232610583305359109e+00 -1.221900701522826926e+00 9.095989167690277100e-02 6.300000000000000000e+01
-1.285521149635314941e+00 -1.274351477622986062e+00 -3.518517911434174139e-01 4.300000000000000000e+01
-1.210005044937134011e+00 -1.199072957038878950e+00 1.490363180637359897e-01 4.900000000000000000e+01
-1.284082651138306108e+00 -1.272037148475646973e+00 -2.862750589847565252e-01 5.000000000000000000e+01
-1.193295717239380105e+00 -1.181689262390136941e+00 2.062029242515563965e-01 9.300000000000000000e+01
-1.264039874076843040e+00 -1.251308441162108931e+00 -2.183898687362670898e-01 4.400000000000000000e+01
-1.200502634048461914e+00 -1.187996387481689009e+00 2.675029337406157892e-01 5.900000000000000000e+01
-1.258992314338684082e+00 -1.245876789093018022e+00 -1.549629122018814087e-01 7.200000000000000000e+01
-1.175197243690490945e+00 -1.162548661231995073e+00 3.213223516941071112e-01 8.500000000000000000e+01
-1.248303890228271040e+00 -1.234437584877013938e+00 -9.200660884380340576e-02 6.600000000000000000e+01
-1.179384708404541016e+00 -1.165876865386962891e+00 3.828666806221007746e-01 8.000000000000000000e+01
-1.250257968902587891e+00 -1.235507011413573997e+00 -3.068133071064949036e-02 5.700000000000000000e+01
-1.181732416152954102e+00 -1.167789936065674050e+00 4.451687633991240900e-01 6.900000000000000000e+01
-1.945667028427124023e+00 -1.917349100112915039e+00 -7.319402694702148438e-01 1.700000000000000000e+01
-1.242225170135498047e+00 -1.223718166351317915e+00 3.043699637055397034e-02 6.100000000000000000e+01
-1.225481748580933061e+00 -1.206381559371948020e+00 9.012251347303390503e-02 5.700000000000000000e+01
-1.295557975769042969e+00 -1.275365591049193892e+00 -3.533782660961151123e-01 4.500000000000000000e+01
-1.228384256362915039e+00 -1.208816647529602051e+00 1.507794409990310947e-01 4.900000000000000000e+01
-1.294147849082946999e+00 -1.273088216781615989e+00 -2.875265479087830145e-01 4.500000000000000000e+01
-1.203074932098388894e+00 -1.183084130287169966e+00 2.071778774261474887e-01 9.000000000000000000e+01
-1.259906411170959029e+00 -1.238538861274719016e+00 -2.169274240732192993e-01 4.000000000000000000e+01
-1.206051230430603027e+00 -1.185183167457581010e+00 2.678157985210419256e-01 5.900000000000000000e+01
-1.266175746917725053e+00 -1.244267463684082031e+00 -1.553115397691726962e-01 7.200000000000000000e+01
-1.186250805854796919e+00 -1.165318489074707031e+00 3.232304453849791925e-01 9.100000000000000000e+01
-1.256880402565001997e+00 -1.234270811080933061e+00 -9.232062846422195435e-02 6.300000000000000000e+01
-1.177884578704833984e+00 -1.156292200088500977e+00 3.810670971870421808e-01 8.300000000000000000e+01
-1.253135800361633079e+00 -1.229734659194946067e+00 -3.064642660319805145e-02 5.200000000000000000e+01
-1.192695736885071023e+00 -1.170423269271851030e+00 4.477569460868834894e-01 7.200000000000000000e+01
-1.949253439903259055e+00 -1.908183693885803001e+00 -7.309049963951110840e-01 1.800000000000000000e+01
-1.246276378631592019e+00 -1.219592094421386941e+00 3.043699637055397034e-02 6.000000000000000000e+01
-2.285970926284790039e+00 -2.236244678497314009e+00 -7.382893562316894531e-01 1.500000000000000000e+01
-1.239259719848633035e+00 -1.212302207946776900e+00 9.085521847009658813e-02 5.300000000000000000e+01
-1.295569181442260964e+00 -1.266944408416748047e+00 -3.522334098815917969e-01 4.700000000000000000e+01
-1.228111863136291948e+00 -1.200558304786681907e+00 1.502564996480942050e-01 5.200000000000000000e+01
-1.301188111305237038e+00 -1.271550893783568892e+00 -2.881522774696350098e-01 4.100000000000000000e+01
-1.209831476211548074e+00 -1.181862473487854004e+00 2.076653540134429932e-01 9.000000000000000000e+01
-1.264006614685059038e+00 -1.234354019165039062e+00 -2.169274240732192993e-01 4.200000000000000000e+01
-1.208355307579040971e+00 -1.180008292198180930e+00 2.675029337406157892e-01 5.900000000000000000e+01
-1.270294904708862083e+00 -1.240061759948730025e+00 -1.553115397691726962e-01 6.500000000000000000e+01
-1.197134017944335938e+00 -1.168234109878540039e+00 3.251385390758513849e-01 8.800000000000000000e+01
-1.268114805221558061e+00 -1.237069368362426980e+00 -9.284398704767227173e-02 6.400000000000000000e+01
-1.195664286613463911e+00 -1.165985345840454102e+00 3.855661153793334961e-01 7.200000000000000000e+01
-1.260070681571960005e+00 -1.228364109992980957e+00 -3.071623481810092926e-02 5.100000000000000000e+01
-1.197953820228577104e+00 -1.167810201644897017e+00 4.482745826244354248e-01 6.900000000000000000e+01
-1.946205973625183105e+00 -1.891941785812377930e+00 -7.272815108299255371e-01 1.600000000000000000e+01
-1.253394126892090066e+00 -1.218021512031554954e+00 3.050680644810200084e-02 6.100000000000000000e+01
-2.289569616317749023e+00 -2.224177837371826172e+00 -7.369396686553955078e-01 1.100000000000000000e+01
-1.242261886596679910e+00 -1.206360578536987083e+00 9.075054526329040527e-02 4.900000000000000000e+01
-1.297166824340820090e+00 -1.259678840637207031e+00 -3.514701724052429199e-01 1.500000000000000000e+01
-1.226576805114746094e+00 -1.190712928771973100e+00 1.495592594146729071e-01 5.600000000000000000e+01
-1.307036280632019043e+00 -1.268376946449280007e+00 -2.884651422500609796e-01 2.600000000000000000e+01
-1.228197813034058061e+00 -1.191454172134398970e+00 2.101027518510817926e-01 6.200000000000000000e+01
-1.275432944297790971e+00 -1.236844062805176003e+00 -2.181461304426192960e-01 4.800000000000000000e+01
-1.219763755798340066e+00 -1.182446241378783958e+00 2.690672874450684149e-01 6.200000000000000000e+01
-1.271754741668700950e+00 -1.232846498489380105e+00 -1.549629122018814087e-01 5.900000000000000000e+01
-1.199794769287108931e+00 -1.162682056427001953e+00 3.247569203376770020e-01 8.000000000000000000e+01
-1.273859858512877974e+00 -1.234025001525878906e+00 -9.294866025447845459e-02 6.300000000000000000e+01
-1.194127321243285911e+00 -1.156381964683532937e+00 3.837665021419525146e-01 6.100000000000000000e+01
-1.268661141395569070e+00 -1.228130698204040971e+00 -3.082094900310039867e-02 5.200000000000000000e+01
-1.192508220672606978e+00 -1.154007554054260032e+00 4.446511268615723211e-01 7.200000000000000000e+01
-1.955577969551085982e+00 -1.887820243835448997e+00 -7.283167839050292969e-01 1.600000000000000000e+01
-1.246126651763916016e+00 -1.202530145645142046e+00 3.022756800055503845e-02 6.100000000000000000e+01
-2.295917034149169922e+00 -2.214819192886352983e+00 -7.364897727966308594e-01 1.300000000000000000e+01
-1.252005219459533913e+00 -1.207781076431273970e+00 9.116923809051513672e-02 4.900000000000000000e+01
-2.758563995361328125e+00 -2.660195112228393999e+00 -7.449183464050292969e-01 1.300000000000000000e+01
-1.239332199096679910e+00 -1.194720864295959029e+00 1.506051272153854093e-01 5.600000000000000000e+01
-1.301499009132385032e+00 -1.254211664199829102e+00 -2.862750589847565252e-01 1.200000000000000000e+01
-1.236638188362122026e+00 -1.191291332244873047e+00 2.108339667320250910e-01 6.300000000000000000e+01
-1.285462021827697976e+00 -1.237892270088196023e+00 -2.191210836172103882e-01 2.100000000000000000e+01
-1.238115072250365989e+00 -1.191881060600280984e+00 2.721959650516510010e-01 5.900000000000000000e+01
-1.276050329208374023e+00 -1.228399753570557085e+00 -1.549629122018814087e-01 5.900000000000000000e+01
-1.203845977783202903e+00 -1.158486843109131081e+00 3.247569203376770020e-01 9.300000000000000000e+01
-1.272402167320251021e+00 -1.224032282829284890e+00 -9.252996742725372314e-02 6.100000000000000000e+01
-1.209393739700316939e+00 -1.163012742996216042e+00 3.873657286167144775e-01 5.800000000000000000e+01
-1.278706789016724077e+00 -1.229238152503967063e+00 -3.096056915819644928e-02 5.400000000000000000e+01
-1.199113845825195090e+00 -1.152724385261536089e+00 4.456863999366760254e-01 7.300000000000000000e+01
-1.966339468955994096e+00 -1.884993076324462891e+00 -7.298697233200073242e-01 1.600000000000000000e+01
-1.251760363578795943e+00 -1.199556589126586914e+00 3.026247210800648083e-02 6.400000000000000000e+01
-2.299412488937377930e+00 -2.202747344970703125e+00 -7.351400256156921387e-01 1.200000000000000000e+01
-1.253328919410706010e+00 -1.200640201568603960e+00 9.095989167690277100e-02 5.700000000000000000e+01
-2.769250869750977007e+00 -2.651907444000244141e+00 -7.452999353408813477e-01 1.300000000000000000e+01
-1.247812628746032937e+00 -1.194520711898803933e+00 1.511280536651611051e-01 5.500000000000000000e+01
-3.460909843444824219e+00 -3.311943054199219194e+00 -7.587071657180786133e-01 1.100000000000000000e+01
-1.232182383537292036e+00 -1.178734064102173074e+00 2.093715369701384943e-01 6.300000000000000000e+01
-4.681353092193604404e+00 -4.476726055145263672e+00 -7.953193187713623047e-01 1.400000000000000000e+01
-1.243695855140686035e+00 -1.188916921615601030e+00 2.725088298320770264e-01 6.100000000000000000e+01
-1.287531495094299094e+00 -1.230821847915648970e+00 -1.558344662189483920e-01 5.900000000000000000e+01
-1.207882523536681907e+00 -1.154277563095092995e+00 3.247569203376770020e-01 9.300000000000000000e+01
-1.275222897529602051e+00 -1.218203663825988992e+00 -9.242530167102813721e-02 6.000000000000000000e+01
-1.212036728858947976e+00 -1.157438278198241965e+00 3.869158029556273859e-01 5.300000000000000000e+01
-1.282989859580994096e+00 -1.224767088890075906e+00 -3.096056915819644928e-02 5.900000000000000000e+01
-1.205925107002258079e+00 -1.151199579238892046e+00 4.467216730117797852e-01 7.300000000000000000e+01
-1.981961011886596902e+00 -1.885418057441710982e+00 -7.329755425453186035e-01 1.800000000000000000e+01
-1.265051603317260964e+00 -1.203009486198425071e+00 3.047190234065055847e-02 6.300000000000000000e+01
-2.310678243637084961e+00 -2.196587324142456055e+00 -7.360398769378662109e-01 1.300000000000000000e+01
-1.252347350120543990e+00 -1.190096020698546919e+00 9.054120630025863647e-02 5.600000000000000000e+01
-2.777989864349364790e+00 -2.639902353286743164e+00 -7.449183464050292969e-01 1.300000000000000000e+01
-1.256723642349242942e+00 -1.193837404251099077e+00 1.516509950160979947e-01 5.600000000000000000e+01
-3.472168922424315962e+00 -3.297269344329833984e+00 -7.583943009376525879e-01 1.200000000000000000e+01
-1.226621508598328081e+00 -1.164427280426024947e+00 2.076653540134429932e-01 5.200000000000000000e+01
-4.679789066314697266e+00 -4.440953731536865234e+00 -7.921507358551025391e-01 1.500000000000000000e+01
-1.246612191200255904e+00 -1.182990789413451926e+00 2.721959650516510010e-01 7.200000000000000000e+01
-1.298029899597167969e+00 -1.231353878974914995e+00 -1.565317213535309115e-01 5.900000000000000000e+01
-1.223702192306518999e+00 -1.160438537597656028e+00 3.278098404407501221e-01 8.200000000000000000e+01
-1.287138462066649947e+00 -1.220168590545654075e+00 -9.294866025447845459e-02 5.600000000000000000e+01
-1.213642954826354980e+00 -1.150094985961914062e+00 3.860160112380980890e-01 5.300000000000000000e+01
-1.286231398582458052e+00 -1.218456506729125977e+00 -3.092566505074501038e-02 5.900000000000000000e+01
-1.216147422790526900e+00 -1.151662707328795943e+00 4.487922191619873047e-01 7.200000000000000000e+01
-1.982912898063659890e+00 -1.873181819915771040e+00 -7.309049963951110840e-01 1.600000000000000000e+01
-1.273604869842529075e+00 -1.202705144882201926e+00 3.057661652565002094e-02 6.100000000000000000e+01
-2.322582960128784180e+00 -2.192521333694458008e+00 -7.373895645141601562e-01 1.200000000000000000e+01
-1.260643959045409934e+00 -1.190049529075623003e+00 9.085521847009658813e-02 5.800000000000000000e+01
-2.782904386520386186e+00 -2.626147031784058061e+00 -7.437734603881835938e-01 1.500000000000000000e+01
-1.257984638214111106e+00 -1.186708927154541016e+00 1.513023674488067905e-01 5.600000000000000000e+01
-3.490843057632445845e+00 -3.291905403137207031e+00 -7.599586248397827148e-01 1.200000000000000000e+01
-1.232123017311095969e+00 -1.161500096321105957e+00 2.079091072082520086e-01 5.600000000000000000e+01
-4.721266746520996094e+00 -4.449096679687500000e+00 -7.965380549430847168e-01 1.200000000000000000e+01
-1.250939726829529031e+00 -1.178413867950439009e+00 2.721959650516510010e-01 7.800000000000000000e+01
-1.299419641494750977e+00 -1.224083065986633079e+00 -1.561830937862395963e-01 5.900000000000000000e+01
-1.223457694053649902e+00 -1.152122139930725098e+00 3.266650140285491943e-01 7.200000000000000000e+01
-1.301569581031799094e+00 -1.225251078605652078e+00 -9.368136525154113770e-02 5.400000000000000000e+01
-1.226165175437927024e+00 -1.153864502906799094e+00 3.887154161930084229e-01 5.800000000000000000e+01
-1.289020299911499023e+00 -1.212589144706726074e+00 -3.089075908064841877e-02 5.800000000000000000e+01
-1.225789308547974077e+00 -1.152704238891602007e+00 4.508627653121948242e-01 6.500000000000000000e+01
-1.980337023735045943e+00 -1.859009861946105957e+00 -7.277991771697998047e-01 1.600000000000000000e+01
-1.277377009391784890e+00 -1.198698043823241965e+00 3.057661652565002094e-02 5.200000000000000000e+01
-2.336565732955933061e+00 -2.191880226135253906e+00 -7.396390438079833984e-01 1.400000000000000000e+01
-1.271659731864928977e+00 -1.192915558815001997e+00 9.137857705354690552e-02 5.700000000000000000e+01
-2.788276672363280806e+00 -2.614705324172974077e+00 -7.430102229118347168e-01 1.500000000000000000e+01
-1.263160228729248047e+00 -1.184113621711730957e+00 1.514766812324523926e-01 5.300000000000000000e+01
-3.506933212280272993e+00 -3.286325454711914062e+00 -7.612100839614868164e-01 1.100000000000000000e+01
-1.237214684486388938e+00 -1.158980727195739968e+00 2.081528455018996915e-01 5.400000000000000000e+01
-4.743914604187011719e+00 -4.442383766174316406e+00 -7.980004549026489258e-01 1.500000000000000000e+01
-1.254430651664734109e+00 -1.174697041511536089e+00 2.721959650516510010e-01 7.400000000000000000e+01
-1.301804304122925027e+00 -1.218633174896240012e+00 -1.560087800025939941e-01 5.600000000000000000e+01
-1.241406083106995073e+00 -1.161687254905700906e+00 3.304811716079711914e-01 3.700000000000000000e+01
-1.317080974578856978e+00 -1.232071399688720925e+00 -9.451873600482940674e-02 5.500000000000000000e+01
-1.241171002388000044e+00 -1.160654902458190918e+00 3.923146426677703857e-01 5.200000000000000000e+01
-1.301588296890259011e+00 -1.216727018356323020e+00 -3.110018745064735066e-02 5.500000000000000000e+01
-1.222347259521483931e+00 -1.142252683639525923e+00 4.482745826244354248e-01 6.800000000000000000e+01
-1.985401034355164018e+00 -1.850768685340880904e+00 -7.272815108299255371e-01 1.600000000000000000e+01
-1.280090570449829102e+00 -1.192868590354918990e+00 3.054171055555343975e-02 5.100000000000000000e+01
-2.338499069213867188e+00 -2.178397417068481001e+00 -7.378394603729248047e-01 1.400000000000000000e+01
-1.280200242996216042e+00 -1.192553520202636941e+00 9.169259667396545410e-02 5.400000000000000000e+01
-2.804570674896239790e+00 -2.611646175384521040e+00 -7.449183464050292969e-01 1.600000000000000000e+01
-1.268744111061095969e+00 -1.181054711341857910e+00 1.516509950160979947e-01 5.100000000000000000e+01
-3.512598752975463867e+00 -3.268681049346923828e+00 -7.599586248397827148e-01 1.100000000000000000e+01
-1.249973535537719949e+00 -1.162767291069030984e+00 2.096152752637862882e-01 5.200000000000000000e+01
-4.753577709197998047e+00 -4.420390129089354581e+00 -7.970255017280578613e-01 2.100000000000000000e+01
-1.265756368637084961e+00 -1.177037000656127930e+00 2.737603187561035156e-01 6.700000000000000000e+01
-1.325020790100098100e+00 -1.231716275215148926e+00 -1.582748293876647949e-01 1.100000000000000000e+01
-1.262711524963378906e+00 -1.173383951187134011e+00 3.350605964660645086e-01 3.300000000000000000e+01
-1.315520405769347922e+00 -1.222029209136962891e+00 -9.410005062818527222e-02 5.400000000000000000e+01
-1.252354860305785911e+00 -1.162945628166198953e+00 3.945641517639160156e-01 5.200000000000000000e+01
-1.308758616447448953e+00 -1.214897155761718972e+00 -3.116999752819538116e-02 5.500000000000000000e+01
-1.230575203895569070e+00 -1.141921162605286089e+00 4.498274922370911200e-01 6.600000000000000000e+01
-2.005256175994873047e+00 -1.854938149452209029e+00 -7.319402694702148438e-01 1.700000000000000000e+01
-1.293470501899719016e+00 -1.196090579032897949e+00 3.075114078819752086e-02 5.000000000000000000e+01
-2.339691162109375000e+00 -2.162788152694702148e+00 -7.355899214744567871e-01 1.200000000000000000e+01
-1.290636420249938965e+00 -1.193052053451538086e+00 9.211128205060958862e-02 5.300000000000000000e+01
-2.821787357330321822e+00 -2.607520341873168945e+00 -7.468264102935791016e-01 1.400000000000000000e+01
-1.279123783111572044e+00 -1.181582093238831010e+00 1.523482352495192926e-01 5.600000000000000000e+01
-3.520770072937012163e+00 -3.251149177551269975e+00 -7.590200304985046387e-01 1.200000000000000000e+01
-1.255887627601623979e+00 -1.159305572509766069e+00 2.098590135574341098e-01 5.000000000000000000e+01
-4.767598152160645419e+00 -4.399412631988525391e+00 -7.965380549430847168e-01 1.200000000000000000e+01
-1.276073455810547097e+00 -1.177526712417602983e+00 2.750117778778076172e-01 5.800000000000000000e+01
-5.850564956665039062e+00 -5.396855831146240234e+00 -6.963743567466735840e-01 5.000000000000000000e+00
-1.280197262763977051e+00 -1.180504918098449929e+00 3.384951651096343994e-01 3.800000000000000000e+01
-1.306986212730407937e+00 -1.204785704612731934e+00 -9.315799921751022339e-02 2.100000000000000000e+01
-1.262543320655822976e+00 -1.163410544395446999e+00 3.963637650012969971e-01 5.500000000000000000e+01
-1.326650977134705034e+00 -1.222056508064270020e+00 -3.148414194583892822e-02 5.200000000000000000e+01
-1.240435838699341042e+00 -1.142638683319092019e+00 4.518980383872985840e-01 6.000000000000000000e+01
-2.015986919403076172e+00 -1.851847887039185014e+00 -7.334931492805480957e-01 2.200000000000000000e+01
-1.310893893241882102e+00 -1.203740835189818892e+00 3.106528334319591869e-02 5.400000000000000000e+01
-2.342919588088988814e+00 -2.150654554367064986e+00 -7.342402338981628418e-01 1.400000000000000000e+01
-1.290379047393799050e+00 -1.184487819671631081e+00 9.179726988077163696e-02 5.200000000000000000e+01
-2.814960241317749023e+00 -2.583053588867187944e+00 -7.426286339759826660e-01 1.400000000000000000e+01
-1.286177039146422896e+00 -1.179803609848022017e+00 1.526968628168106079e-01 5.000000000000000000e+01
-3.542288780212401900e+00 -3.248184919357299805e+00 -7.612100839614868164e-01 1.200000000000000000e+01
-1.280413269996643066e+00 -1.173693776130676047e+00 2.132713496685028076e-01 5.600000000000000000e+01
-4.781462192535400391e+00 -4.381402969360351562e+00 -7.962942719459533691e-01 1.000000000000000000e+01
-1.283088803291321023e+00 -1.175734281539916992e+00 2.756375372409821112e-01 5.200000000000000000e+01
-5.889936447143554688e+00 -5.395241737365722656e+00 -6.988147497177124023e-01 6.000000000000000000e+00
-1.297341585159301980e+00 -1.187961697578429954e+00 3.419297337532042902e-01 4.300000000000000000e+01
-1.262283682823180930e+00 -1.155049681663512962e+00 3.950140476226807196e-01 3.400000000000000000e+01
-1.327957630157470925e+00 -1.214718818664551003e+00 -3.141433000564575195e-02 4.300000000000000000e+01
-1.254595279693603960e+00 -1.147210121154784934e+00 4.555215239524840753e-01 6.100000000000000000e+01
-2.016408681869506836e+00 -1.839943766593933105e+00 -7.314226031303405762e-01 2.500000000000000000e+01
-1.323742866516113059e+00 -1.207472920417786089e+00 3.127471357584000328e-02 5.200000000000000000e+01
