7.048678398132324219e+00 1.183835697174072088e+01 -2.404941618442535123e-01 2.000000000000000000e+00
1.143196940422058105e+00 1.913931250572205034e+00 -5.973543524742126465e-01 1.100000000000000000e+01
1.305846929550170898e+00 2.184506177902222124e+00 -5.875721573829650879e-01 1.200000000000000000e+01
1.507405519485474077e+00 2.520687341690063032e+00 -5.709004998207092285e-01 1.200000000000000000e+01
1.797583103179932085e+00 3.003542423248291016e+00 -5.544037222862243652e-01 9.000000000000000000e+00
2.209366083145142046e+00 3.688659191131591797e+00 -5.279380083084106445e-01 1.000000000000000000e+01
2.881730556488037109e+00 4.809304714202880859e+00 -4.905125200748444159e-01 9.000000000000000000e+00
4.109707355499267578e+00 6.853241443634033203e+00 -4.187923073768615723e-01 1.000000000000000000e+00
7.081727027893066406e+00 1.179996299743651988e+01 -2.402149289846420011e-01 2.000000000000000000e+00
1.150867223739624023e+00 1.911584138870239036e+00 -5.978720188140869141e-01 1.000000000000000000e+01
1.310447096824645996e+00 2.174926996231079102e+00 -5.862224698066711426e-01 1.200000000000000000e+01
1.511127710342407005e+00 2.507003068923950195e+00 -5.689924359321594238e-01 1.000000000000000000e+01
1.809076786041259988e+00 2.998940944671630859e+00 -5.547165870666503906e-01 8.000000000000000000e+00
2.225306272506713867e+00 3.686022758483887163e+00 -5.286692380905151367e-01 9.000000000000000000e+00
2.896440505981444868e+00 4.795804977416992188e+00 -4.901638925075531006e-01 9.000000000000000000e+00
4.108809471130371094e+00 6.797831535339354581e+00 -4.162802100181580145e-01 2.000000000000000000e+00
7.110453128814697266e+00 1.175463962554931996e+01 -2.397960573434829989e-01 2.000000000000000000e+00
1.158535122871398926e+00 1.909206748008728027e+00 -5.983896255493164062e-01 9.000000000000000000e+00
1.321065664291382058e+00 2.175336360931396040e+00 -5.875721573829650879e-01 1.100000000000000000e+01
1.520888924598694070e+00 2.503391027450561968e+00 -5.693740248680114746e-01 1.100000000000000000e+01
1.820560336112976074e+00 2.994295597076416016e+00 -5.550295114517211914e-01 9.000000000000000000e+00
2.245382547378540039e+00 3.690103292465209961e+00 -5.303753614425659180e-01 1.000000000000000000e+01
2.909019470214844194e+00 4.778858184814453125e+00 -4.894666373729705811e-01 9.000000000000000000e+00
4.157451629638671875e+00 6.824383735656738281e+00 -4.187923073768615723e-01 2.000000000000000000e+00
7.151441574096679688e+00 1.172974777221680043e+01 -2.397960573434829989e-01 2.000000000000000000e+00
1.165192365646362083e+00 1.905151009559630904e+00 -5.983896255493164062e-01 9.000000000000000000e+00
1.330685615539551003e+00 2.174036026000977007e+00 -5.884719491004943848e-01 1.100000000000000000e+01
1.529618144035338911e+00 2.498066663742064986e+00 -5.693740248680114746e-01 9.000000000000000000e+00
1.824808478355407937e+00 2.977816820144652876e+00 -5.531522631645202637e-01 9.000000000000000000e+00
2.259287595748900923e+00 3.683935165405272993e+00 -5.306191444396972656e-01 9.000000000000000000e+00
2.926724910736083984e+00 4.770372867584229404e+00 -4.896409511566162109e-01 9.000000000000000000e+00
4.183338165283203125e+00 6.813233852386474609e+00 -4.190016686916350763e-01 2.000000000000000000e+00
7.192342281341552734e+00 1.170471286773681996e+01 -2.397960573434829989e-01 2.000000000000000000e+00
1.163066864013672097e+00 1.888322114944458008e+00 -5.942485332489013672e-01 7.000000000000000000e+00
1.336486458778380904e+00 2.168185949325561968e+00 -5.880220532417297363e-01 1.200000000000000000e+01
1.539519429206847922e+00 2.496591091156005859e+00 -5.701372623443603516e-01 1.100000000000000000e+01
1.830004811286926047e+00 2.965345144271851030e+00 -5.519008040428161621e-01 9.000000000000000000e+00
2.272936105728148970e+00 3.680197238922119141e+00 -5.311065912246704102e-01 1.000000000000000000e+01
2.949027776718140093e+00 4.773019313812255859e+00 -4.908611476421356201e-01 6.000000000000000000e+00
4.204721450805664062e+00 6.800057888031005859e+00 -4.190016686916350763e-01 2.000000000000000000e+00
7.229078292846679688e+00 1.168206024169922053e+01 -2.397960573434829989e-01 2.000000000000000000e+00
1.174745559692383035e+00 1.892457365989685059e+00 -5.968367457389831543e-01 8.000000000000000000e+00
1.340961694717407005e+00 2.158541440963745117e+00 -5.866723656654357910e-01 1.100000000000000000e+01
1.553406238555907981e+00 2.499539375305175781e+00 -5.720453858375549316e-01 1.000000000000000000e+01
1.846604347229003906e+00 2.969003677368164062e+00 -5.537779927253723145e-01 9.000000000000000000e+00
2.281572580337523970e+00 3.665499687194824219e+00 -5.301316380500793457e-01 9.000000000000000000e+00
2.958298683166503906e+00 4.750857353210449219e+00 -4.896409511566162109e-01 9.000000000000000000e+00
4.215756893157958984e+00 6.764998435974121094e+00 -4.177455902099608820e-01 2.000000000000000000e+00
7.286743164062500000e+00 1.168390274047851918e+01 -2.403545379638671875e-01 2.000000000000000000e+00
1.183028578758239968e+00 1.889570116996764915e+00 -5.973543524742126465e-01 9.000000000000000000e+00
1.351309299468993919e+00 2.156679391860961914e+00 -5.875721573829650879e-01 1.100000000000000000e+01
1.561949610710144043e+00 2.491892814636230025e+00 -5.716637372970581055e-01 1.100000000000000000e+01
1.855891466140747070e+00 2.958544492721558061e+00 -5.531522631645202637e-01 9.000000000000000000e+00
2.289297342300415039e+00 3.646624565124512163e+00 -5.286692380905151367e-01 1.000000000000000000e+01
2.984995841979980025e+00 4.752961158752441406e+00 -4.910354614257813055e-01 9.000000000000000000e+00
4.241701602935791016e+00 6.748761653900145596e+00 -4.177455902099608820e-01 2.000000000000000000e+00
7.301740646362304688e+00 1.160844230651854936e+01 -2.393772006034851074e-01 2.000000000000000000e+00
1.189617156982422097e+00 1.885429024696350098e+00 -5.973543524742126465e-01 1.400000000000000000e+01
1.362991094589232954e+00 2.158540248870850053e+00 -5.893717408180236816e-01 1.100000000000000000e+01
1.567492961883544922e+00 2.481446027755736861e+00 -5.705189108848571777e-01 1.100000000000000000e+01
1.868318438529968040e+00 2.955387592315673828e+00 -5.537779927253723145e-01 9.000000000000000000e+00
2.306257963180541992e+00 3.645321369171143022e+00 -5.296441912651062012e-01 9.000000000000000000e+00
2.998372077941894975e+00 4.737462043762207031e+00 -4.905125200748444159e-01 8.000000000000000000e+00
4.267370700836181641e+00 6.737288475036621094e+00 -4.179549515247344971e-01 2.000000000000000000e+00
7.342216968536376953e+00 1.158288383483887074e+01 -2.393772006034851074e-01 2.000000000000000000e+00
1.194498538970947044e+00 1.880051970481873003e+00 -5.968367457389831543e-01 1.900000000000000000e+01
1.369765639305114968e+00 2.154247760772705078e+00 -5.893717408180236816e-01 1.100000000000000000e+01
1.574227213859558105e+00 2.474852800369263139e+00 -5.701372623443603516e-01 1.100000000000000000e+01
1.879715442657470925e+00 2.952836275100708008e+00 -5.544037222862243652e-01 9.000000000000000000e+00
2.317698478698730025e+00 3.638057947158813032e+00 -5.296441912651062012e-01 9.000000000000000000e+00
3.006815671920775923e+00 4.717937946319580078e+00 -4.894666373729705811e-01 9.000000000000000000e+00
4.290663242340087891e+00 6.727216720581054688e+00 -4.181642830371857245e-01 2.000000000000000000e+00
7.378569602966308594e+00 1.155976104736327947e+01 -2.393772006034851074e-01 2.000000000000000000e+00
1.206262230873107910e+00 1.884005665779113992e+00 -5.994248986244201660e-01 2.000000000000000000e+01
1.375174283981323020e+00 2.146171569824219194e+00 -5.884719491004943848e-01 1.100000000000000000e+01
1.587094306945801003e+00 2.475954055786132812e+00 -5.716637372970581055e-01 1.200000000000000000e+01
1.883611798286437988e+00 2.936280965805054155e+00 -5.525265336036682129e-01 9.000000000000000000e+00
2.334673404693603960e+00 3.636627435684204102e+00 -5.306191444396972656e-01 1.000000000000000000e+01
3.031879425048828125e+00 4.720824718475341797e+00 -4.908611476421356201e-01 9.000000000000000000e+00
4.316279411315917969e+00 6.715559005737304688e+00 -4.183736443519591730e-01 2.000000000000000000e+00
7.431857109069824219e+00 1.155411624908447088e+01 -2.397960573434829989e-01 2.000000000000000000e+00
1.212831258773803933e+00 1.879783511161803977e+00 -5.994248986244201660e-01 2.000000000000000000e+01
1.376314997673034890e+00 2.131535530090332031e+00 -5.857725739479064941e-01 1.100000000000000000e+01
1.594662070274353027e+00 2.468749761581420898e+00 -5.712821483612060547e-01 1.000000000000000000e+01
1.895994544029236062e+00 2.933005809783935991e+00 -5.531522631645202637e-01 9.000000000000000000e+00
2.350588083267211914e+00 3.633455991744995117e+00 -5.313503146171569824e-01 1.000000000000000000e+01
3.044009685516356978e+00 4.703522205352783203e+00 -4.901638925075531006e-01 9.000000000000000000e+00
4.327751636505126953e+00 6.682011127471923828e+00 -4.172222316265106201e-01 3.000000000000000000e+00
7.454741001129150391e+00 1.150125503540039062e+01 -2.392375916242598932e-01 2.000000000000000000e+00
1.226756691932678001e+00 1.886875987052917036e+00 -6.030483841896057129e-01 2.100000000000000000e+01
1.387998223304748979e+00 2.133251905441284180e+00 -5.875721573829650879e-01 1.100000000000000000e+01
1.602198958396912065e+00 2.461522817611693892e+00 -5.709004998207092285e-01 1.100000000000000000e+01
1.901908397674560991e+00 2.919749021530150923e+00 -5.519008040428161621e-01 9.000000000000000000e+00
2.343743801116942915e+00 3.595295667648314986e+00 -5.269630551338195801e-01 1.000000000000000000e+01
3.060409307479857954e+00 4.692867755889892578e+00 -4.901638925075531006e-01 9.000000000000000000e+00
4.348866462707520419e+00 6.663518905639648438e+00 -4.170129001140593927e-01 4.000000000000000000e+00
7.512338161468505859e+00 1.150195026397705078e+01 -2.397960573434829989e-01 2.000000000000000000e+00
1.231948614120482954e+00 1.881181359291077104e+00 -6.025307178497314453e-01 2.300000000000000000e+01
1.399337530136107954e+00 2.135157108306885210e+00 -5.893717408180236816e-01 1.100000000000000000e+01
1.604970693588257058e+00 2.447987079620360884e+00 -5.689924359321594238e-01 1.100000000000000000e+01
1.920249462127685991e+00 2.926638841629027876e+00 -5.544037222862243652e-01 9.000000000000000000e+00
2.365459442138671875e+00 3.602437973022460938e+00 -5.291566848754882812e-01 9.000000000000000000e+00
3.082517862319945845e+00 4.692685127258300781e+00 -4.912097752094268799e-01 9.000000000000000000e+00
4.369842529296875000e+00 6.647391796112061435e+00 -4.169082343578339178e-01 4.000000000000000000e+00
7.513071537017822266e+00 1.142017555236816051e+01 -2.386092990636826117e-01 2.000000000000000000e+00
1.226803541183471902e+00 1.859132885932921919e+00 -5.968367457389831543e-01 1.900000000000000000e+01
1.412151455879210982e+00 2.138390064239501953e+00 -5.916212797164916992e-01 1.200000000000000000e+01
1.614588141441344993e+00 2.444007873535155806e+00 -5.693740248680114746e-01 1.100000000000000000e+01
1.930453658103943093e+00 2.919918060302733931e+00 -5.544037222862243652e-01 9.000000000000000000e+00
2.391164302825928178e+00 3.614025354385375977e+00 -5.320815443992614746e-01 9.000000000000000000e+00
3.103278398513793945e+00 4.688541889190673828e+00 -4.919070005416870117e-01 9.000000000000000000e+00
4.395225524902343750e+00 6.635427951812744141e+00 -4.171175658702849787e-01 4.000000000000000000e+00
7.559518814086914062e+00 1.140388107299805043e+01 -2.388187348842621127e-01 2.000000000000000000e+00
1.236494541168212891e+00 1.859665274620055930e+00 -5.983896255493164062e-01 2.100000000000000000e+01
1.419607281684875044e+00 2.133447885513306108e+00 -5.916212797164916992e-01 1.200000000000000000e+01
1.625285267829895020e+00 2.441625595092772993e+00 -5.701372623443603516e-01 1.100000000000000000e+01
1.936253666877747026e+00 2.906585693359375000e+00 -5.531522631645202637e-01 9.000000000000000000e+00
2.394955873489379883e+00 3.592442989349364790e+00 -5.301316380500793457e-01 9.000000000000000000e+00
3.120730876922606978e+00 4.679338455200195312e+00 -4.920813143253325861e-01 9.000000000000000000e+00
4.408381938934326172e+00 6.605093955993652344e+00 -4.161755144596099854e-01 6.000000000000000000e+00
7.592615604400634766e+00 1.136744689941406072e+01 -2.386092990636826117e-01 2.000000000000000000e+00
1.245128989219665971e+00 1.858547687530518022e+00 -5.994248986244201660e-01 2.100000000000000000e+01
1.417278885841370073e+00 2.113911867141724077e+00 -5.875721573829650879e-01 1.200000000000000000e+01
1.638172507286071999e+00 2.442459344863892046e+00 -5.716637372970581055e-01 1.200000000000000000e+01
1.944185972213744895e+00 2.896528959274291992e+00 -5.525265336036682129e-01 9.000000000000000000e+00
2.407481193542480025e+00 3.584061145782471147e+00 -5.301316380500793457e-01 9.000000000000000000e+00
3.128155946731566939e+00 4.655187129974365234e+00 -4.906868338584899902e-01 8.000000000000000000e+00
4.422494888305664062e+00 6.576406955718994141e+00 -4.153381586074829102e-01 6.000000000000000000e+00
7.625550270080566406e+00 1.133092021942139027e+01 -2.383998781442641934e-01 2.000000000000000000e+00
1.257013082504272017e+00 1.862196087837219016e+00 -6.020131111145019531e-01 2.300000000000000000e+01
1.426830887794495073e+00 2.112181425094604048e+00 -5.884719491004943848e-01 1.400000000000000000e+01
1.646688222885132058e+00 2.436726093292235884e+00 -5.716637372970581055e-01 1.400000000000000000e+01
1.956498146057128906e+00 2.892997264862060991e+00 -5.531522631645202637e-01 9.000000000000000000e+00
2.426653146743773970e+00 3.585499525070189986e+00 -5.315940976142883301e-01 9.000000000000000000e+00
3.152205467224121094e+00 4.655787944793701172e+00 -4.919070005416870117e-01 9.000000000000000000e+00
4.475672721862792969e+00 6.605572700500488281e+00 -4.181642830371857245e-01 5.000000000000000000e+00
7.678523063659667969e+00 1.132409381866455078e+01 -2.388187348842621127e-01 2.000000000000000000e+00
1.255900740623473899e+00 1.846615076065063032e+00 -5.983896255493164062e-01 2.200000000000000000e+01
1.438580989837646040e+00 2.113631963729857954e+00 -5.902715921401977539e-01 1.400000000000000000e+01
1.655184030532836914e+00 2.430963277816772017e+00 -5.716637372970581055e-01 1.200000000000000000e+01
1.971033930778502974e+00 2.892679929733275923e+00 -5.544037222862243652e-01 9.000000000000000000e+00
2.440272331237792969e+00 3.578647136688231978e+00 -5.318378210067749023e-01 9.000000000000000000e+00
3.166192531585692915e+00 4.641464710235595703e+00 -4.915584027767180841e-01 9.000000000000000000e+00
4.505459785461425781e+00 6.599806785583496094e+00 -4.187923073768615723e-01 5.000000000000000000e+00
7.704468250274658203e+00 1.127740764617919922e+01 -2.383998781442641934e-01 2.000000000000000000e+00
1.260155081748961958e+00 1.839032649993896040e+00 -5.973543524742126465e-01 2.100000000000000000e+01
1.445950150489806907e+00 2.108597517013549805e+00 -5.902715921401977539e-01 1.300000000000000000e+01
1.659217238426208052e+00 2.418694972991942915e+00 -5.701372623443603516e-01 1.100000000000000000e+01
1.977765202522278054e+00 2.880896568298339844e+00 -5.534651279449462891e-01 9.000000000000000000e+00
2.451625347137451172e+00 3.568470954895019975e+00 -5.315940976142883301e-01 9.000000000000000000e+00
3.178989410400391069e+00 4.625458240509033203e+00 -4.910354614257813055e-01 9.000000000000000000e+00
4.529601573944091797e+00 6.585685253143311435e+00 -4.188970029354094904e-01 4.000000000000000000e+00
7.723378658294677734e+00 1.122079563140868963e+01 -2.377715855836868009e-01 2.000000000000000000e+00
1.269859433174133079e+00 1.839392066001892090e+00 -5.989072918891906738e-01 2.300000000000000000e+01
1.449978590011596902e+00 2.098727464675902876e+00 -5.889218449592590332e-01 1.200000000000000000e+01
1.668766140937804954e+00 2.414503574371337891e+00 -5.705189108848571777e-01 1.000000000000000000e+01
1.986685633659363015e+00 2.872350692749022993e+00 -5.531522631645202637e-01 9.000000000000000000e+00
2.465196371078491211e+00 3.561523675918579102e+00 -5.318378210067749023e-01 7.000000000000000000e+00
3.187176465988159180e+00 4.602867126464843750e+00 -4.898152649402617853e-01 6.000000000000000000e+00
4.568488121032714844e+00 6.592816829681395596e+00 -4.203624129295349121e-01 3.000000000000000000e+00
7.780732154846191406e+00 1.122005939483642933e+01 -2.383300662040709894e-01 2.000000000000000000e+00
1.279581665992737038e+00 1.839706063270569070e+00 -6.004601716995239258e-01 2.100000000000000000e+01
1.453955888748168945e+00 2.088855028152465820e+00 -5.875721573829650879e-01 1.400000000000000000e+01
1.682793498039246050e+00 2.416719675064086914e+00 -5.724269747734069824e-01 1.100000000000000000e+01
1.996699929237365945e+00 2.865398406982421875e+00 -5.531522631645202637e-01 9.000000000000000000e+00
2.474206924438477007e+00 3.548012018203734907e+00 -5.311065912246704102e-01 9.000000000000000000e+00
3.204364061355590820e+00 4.593348026275634766e+00 -4.899895787239075262e-01 8.000000000000000000e+00
4.604050159454345703e+00 6.594843864440917969e+00 -4.215137958526610773e-01 2.000000000000000000e+00
7.833593368530273438e+00 1.121250247955322088e+01 -2.387489229440689087e-01 2.000000000000000000e+00
1.290430068969727007e+00 1.841556668281554954e+00 -6.025307178497314453e-01 2.100000000000000000e+01
1.462357282638550027e+00 2.085362672805786133e+00 -5.880220532417297363e-01 1.300000000000000000e+01
1.686709284782409890e+00 2.404402017593383789e+00 -5.709004998207092285e-01 1.200000000000000000e+01
2.013499975204468218e+00 2.868111610412598100e+00 -5.550295114517211914e-01 9.000000000000000000e+00
2.484294414520264116e+00 3.536105155944824219e+00 -5.306191444396972656e-01 9.000000000000000000e+00
3.235271453857421875e+00 4.603325843811035156e+00 -4.922556281089783270e-01 9.000000000000000000e+00
4.638532161712645596e+00 6.595068931579589844e+00 -4.225605130195618231e-01 2.000000000000000000e+00
7.831249237060546875e+00 1.112622070312500000e+01 -2.374923527240752896e-01 2.000000000000000000e+00
1.295736312866210938e+00 1.835462808609009011e+00 -6.020131111145019531e-01 2.300000000000000000e+01
1.475249767303467019e+00 2.088203430175780806e+00 -5.902715921401977539e-01 1.400000000000000000e+01
1.690559506416321023e+00 2.392086505889893022e+00 -5.693740248680114746e-01 1.100000000000000000e+01
2.023499250411986861e+00 2.861065626144409180e+00 -5.550295114517211914e-01 9.000000000000000000e+00
2.494328975677489790e+00 3.524171352386475053e+00 -5.301316380500793457e-01 9.000000000000000000e+00
3.247866392135620117e+00 4.587126255035400391e+00 -4.917326867580413818e-01 9.000000000000000000e+00
4.661525249481201172e+00 6.578837394714354581e+00 -4.225605130195618231e-01 2.000000000000000000e+00
7.863099098205566406e+00 1.108903026580811080e+01 -2.372829169034957886e-01 2.000000000000000000e+00
1.294297933578490989e+00 1.819908380508423074e+00 -5.983896255493164062e-01 2.200000000000000000e+01
1.482529997825623003e+00 2.083041191101074219e+00 -5.902715921401977539e-01 1.400000000000000000e+01
1.703453898429871050e+00 2.392567873001099077e+00 -5.709004998207092285e-01 1.100000000000000000e+01
2.025449991226195845e+00 2.842723369598389116e+00 -5.528393983840942383e-01 9.000000000000000000e+00
2.513530254364014116e+00 3.525140762329102007e+00 -5.315940976142883301e-01 9.000000000000000000e+00
3.258073806762694868e+00 4.567650794982910156e+00 -4.908611476421356201e-01 9.000000000000000000e+00
4.707668781280517578e+00 6.595037460327148438e+00 -4.246539473533629816e-01 2.000000000000000000e+00
7.901759147644042969e+00 1.106151485443115057e+01 -2.372829169034957886e-01 2.000000000000000000e+00
1.297583341598510964e+00 1.810441732406615989e+00 -5.968367457389831543e-01 2.000000000000000000e+01
1.486747384071350098e+00 2.072842836380004883e+00 -5.889218449592590332e-01 1.500000000000000000e+01
1.708778023719788042e+00 2.381523132324219194e+00 -5.697556734085083008e-01 1.000000000000000000e+01
2.034703493118286133e+00 2.833676099777222124e+00 -5.525265336036682129e-01 1.000000000000000000e+01
2.526433706283568892e+00 3.515904426574707031e+00 -5.315940976142883301e-01 9.000000000000000000e+00
3.279444932937622070e+00 4.562150001525878906e+00 -4.915584027767180841e-01 9.000000000000000000e+00
4.734141826629638672e+00 6.580981254577636719e+00 -4.248632788658142090e-01 2.000000000000000000e+00
7.932901859283447266e+00 1.101949596405028942e+01 -2.370036840438843051e-01 2.000000000000000000e+00
1.309549450874329057e+00 1.813732624053955078e+00 -5.994248986244201660e-01 2.100000000000000000e+01
1.492832660675049050e+00 2.066060781478881836e+00 -5.884719491004943848e-01 1.300000000000000000e+01
1.723981261253356934e+00 2.385090589523314986e+00 -5.720453858375549316e-01 1.000000000000000000e+01
2.046897888183594194e+00 2.829757452011107954e+00 -5.531522631645202637e-01 9.000000000000000000e+00
2.539855003356934038e+00 3.508672237396239790e+00 -5.318378210067749023e-01 7.000000000000000000e+00
3.302361011505126953e+00 4.560357093811035156e+00 -4.926042556762694757e-01 9.000000000000000000e+00
4.757084846496582031e+00 6.564415931701660156e+00 -4.248632788658142090e-01 2.000000000000000000e+00
7.983058929443359375e+00 1.100792598724365057e+01 -2.373527288436889926e-01 2.000000000000000000e+00
1.318648338317871094e+00 1.814297676086426003e+00 -6.009778380393981934e-01 2.000000000000000000e+01
1.499315977096558061e+00 2.061360836029053178e+00 -5.884719491004943848e-01 1.400000000000000000e+01
1.730310678482056108e+00 2.378075122833251953e+00 -5.716637372970581055e-01 1.200000000000000000e+01
2.060428857803345171e+00 2.829700708389281782e+00 -5.544037222862243652e-01 9.000000000000000000e+00
2.552034378051757812e+00 3.502279996871947798e+00 -5.320815443992614746e-01 9.000000000000000000e+00
3.310803413391112837e+00 4.541909694671630859e+00 -4.917326867580413818e-01 9.000000000000000000e+00
4.782392501831054688e+00 6.555892944335938388e+00 -4.252819716930388849e-01 2.000000000000000000e+00
8.017601966857910156e+00 1.098279190063476918e+01 -2.373527288436889926e-01 2.000000000000000000e+00
1.323832154273987038e+00 1.808125019073486106e+00 -6.004601716995239258e-01 2.100000000000000000e+01
1.509957671165466087e+00 2.060830593109130859e+00 -5.898216366767883301e-01 1.500000000000000000e+01
1.733958721160888894e+00 2.365686893463135210e+00 -5.701372623443603516e-01 1.100000000000000000e+01
2.072630405426024947e+00 2.825676918029785156e+00 -5.550295114517211914e-01 9.000000000000000000e+00
2.565418720245360884e+00 3.494950771331787109e+00 -5.323252677917480469e-01 7.000000000000000000e+00
3.334892272949219194e+00 4.541566848754882812e+00 -4.929528832435607910e-01 6.000000000000000000e+00
4.817074298858642578e+00 6.555253982543945312e+00 -4.263286888599395752e-01 2.000000000000000000e+00
8.065367698669433594e+00 1.096762657165526988e+01 -2.376319617033005038e-01 2.000000000000000000e+00
1.325548887252808061e+00 1.797273993492126021e+00 -5.983896255493164062e-01 2.100000000000000000e+01
1.517142057418823020e+00 2.055547237396239790e+00 -5.898216366767883301e-01 1.300000000000000000e+01
1.746870398521422896e+00 2.365937471389770952e+00 -5.716637372970581055e-01 1.100000000000000000e+01
2.080133438110352007e+00 2.815247297286986861e+00 -5.544037222862243652e-01 9.000000000000000000e+00
2.572881937026977983e+00 3.479589939117432085e+00 -5.313503146171569824e-01 7.000000000000000000e+00
3.343615770339965820e+00 4.520287036895751953e+00 -4.919070005416870117e-01 8.000000000000000000e+00
4.858940124511718750e+00 6.564084053039550781e+00 -4.280034601688385010e-01 1.000000000000000000e+00
8.094079971313476562e+00 1.092655181884765980e+01 -2.373527288436889926e-01 2.000000000000000000e+00
1.332966566085814986e+00 1.794186711311340110e+00 -5.989072918891906738e-01 2.300000000000000000e+01
1.524307966232300027e+00 2.050238847732543945e+00 -5.898216366767883301e-01 1.500000000000000000e+01
1.756290078163146973e+00 2.361400604248046875e+00 -5.720453858375549316e-01 1.200000000000000000e+01
2.085230112075806108e+00 2.801630496978760210e+00 -5.531522631645202637e-01 9.000000000000000000e+00
2.592126846313477007e+00 3.480139732360839844e+00 -5.328127741813659668e-01 7.000000000000000000e+00
3.362945556640625000e+00 4.513381481170654297e+00 -4.924299418926239014e-01 8.000000000000000000e+00
4.884211063385009766e+00 6.550285339355468750e+00 -4.282127916812896729e-01 2.000000000000000000e+00
8.115428924560546875e+00 1.087579441070556996e+01 -2.368640601634978970e-01 2.000000000000000000e+00
1.339221358299254927e+00 1.789522886276244895e+00 -5.989072918891906738e-01 2.000000000000000000e+01
1.525614619255065918e+00 2.037106513977050781e+00 -5.875721573829650879e-01 1.400000000000000000e+01
1.765699386596679910e+00 2.356827020645142046e+00 -5.724269747734069824e-01 1.100000000000000000e+01
2.090257167816162109e+00 2.788012742996215820e+00 -5.519008040428161621e-01 9.000000000000000000e+00
2.599493741989136186e+00 3.464718818664550781e+00 -5.318378210067749023e-01 7.000000000000000000e+00
3.383463621139525923e+00 4.507988929748535156e+00 -4.931271970272064209e-01 8.000000000000000000e+00
4.873460769653320312e+00 6.488481521606445312e+00 -4.252819716930388849e-01 2.000000000000000000e+00
8.162955284118652344e+00 1.086018753051757990e+01 -2.371432930231094083e-01 2.000000000000000000e+00
1.351274251937865989e+00 1.792550444602966087e+00 -6.014954447746276855e-01 2.100000000000000000e+01
1.537410497665405051e+00 2.037991523742675781e+00 -5.893717408180236816e-01 1.300000000000000000e+01
1.771550178527832031e+00 2.347514867782593218e+00 -5.716637372970581055e-01 1.100000000000000000e+01
2.111881017684936968e+00 2.796463012695312944e+00 -5.550295114517211914e-01 9.000000000000000000e+00
2.612768888473511186e+00 3.457207441329956055e+00 -5.320815443992614746e-01 9.000000000000000000e+00
3.400380373001099077e+00 4.497740268707275391e+00 -4.933015108108521063e-01 9.000000000000000000e+00
4.912950515747070312e+00 6.493729114532470703e+00 -4.267473816871643066e-01 2.000000000000000000e+00
8.183915138244628906e+00 1.080930709838867010e+01 -2.366546243429183960e-01 2.000000000000000000e+00
1.352850079536437988e+00 1.781668424606323020e+00 -5.994248986244201660e-01 2.400000000000000000e+01
1.544515132904052956e+00 2.032612562179564986e+00 -5.893717408180236816e-01 1.400000000000000000e+01
1.779733777046204057e+00 2.341316699981689009e+00 -5.716637372970581055e-01 1.100000000000000000e+01
2.120433568954468218e+00 2.787501811981201172e+00 -5.547165870666503906e-01 1.000000000000000000e+01
2.620011329650878906e+00 3.441748142242432085e+00 -5.311065912246704102e-01 9.000000000000000000e+00
3.411231279373168945e+00 4.479502677917479581e+00 -4.926042556762694757e-01 9.000000000000000000e+00
4.942851543426513672e+00 6.486071586608886719e+00 -4.273754060268402100e-01 2.000000000000000000e+00
8.199769973754882812e+00 1.075205326080322088e+01 -2.360263466835021973e-01 2.000000000000000000e+00
1.357887387275696023e+00 1.775400757789612038e+00 -5.989072918891906738e-01 2.300000000000000000e+01
1.555154085159301980e+00 2.031851291656494141e+00 -5.907214879989624023e-01 1.300000000000000000e+01
1.787895679473876953e+00 2.335090160369873047e+00 -5.716637372970581055e-01 1.100000000000000000e+01
2.130150794982910156e+00 2.780083179473876953e+00 -5.547165870666503906e-01 1.000000000000000000e+01
2.638048887252808061e+00 3.440458059310913086e+00 -5.323252677917480469e-01 7.000000000000000000e+00
3.428059577941894975e+00 4.469149112701416016e+00 -4.927785694599152166e-01 8.000000000000000000e+00
4.965462207794188565e+00 6.468778133392333984e+00 -4.273754060268402100e-01 1.000000000000000000e+00
8.229942321777343750e+00 1.071385002136229936e+01 -2.358169108629226962e-01 2.000000000000000000e+00
1.362897515296936035e+00 1.769119620323180930e+00 -5.983896255493164062e-01 2.200000000000000000e+01
1.565806627273560014e+00 2.031040430068970171e+00 -5.920711755752563477e-01 1.300000000000000000e+01
1.797234773635864036e+00 2.330389499664307085e+00 -5.720453858375549316e-01 1.000000000000000000e+01
2.130187034606934038e+00 2.760120153427124023e+00 -5.522136688232421875e-01 1.000000000000000000e+01
2.652468919754027876e+00 3.434370756149291992e+00 -5.328127741813659668e-01 9.000000000000000000e+00
3.433893918991088867e+00 4.444542407989501953e+00 -4.913840889930725098e-01 8.000000000000000000e+00
4.980682373046875000e+00 6.441925525665283203e+00 -4.267473816871643066e-01 2.000000000000000000e+00
8.294212341308593750e+00 1.071985149383544922e+01 -2.365848273038864136e-01 2.000000000000000000e+00
1.370248913764954057e+00 1.765877723693848100e+00 -5.989072918891906738e-01 2.000000000000000000e+01
1.564520239830017090e+00 2.014788150787353960e+00 -5.889218449592590332e-01 1.300000000000000000e+01
1.808971524238585982e+00 2.328753232955933061e+00 -5.731902122497558594e-01 1.200000000000000000e+01
2.148295164108275923e+00 2.763584852218627930e+00 -5.544037222862243652e-01 1.000000000000000000e+01
2.663222074508666992e+00 3.423524141311645952e+00 -5.325690507888793945e-01 9.000000000000000000e+00
3.453058242797852007e+00 4.437245845794677734e+00 -4.919070005416870117e-01 9.000000000000000000e+00
5.003138542175292969e+00 6.424500465393066406e+00 -4.267473816871643066e-01 2.000000000000000000e+00
8.321746826171875000e+00 1.067821502685547053e+01 -2.363055795431137085e-01 2.000000000000000000e+00
1.385921597480773926e+00 1.773260831832885964e+00 -6.030483841896057129e-01 2.000000000000000000e+01
1.573944807052612083e+00 2.012384653091431108e+00 -5.898216366767883301e-01 1.300000000000000000e+01
1.814669728279113992e+00 2.319332122802733931e+00 -5.724269747734069824e-01 1.100000000000000000e+01
2.160364389419556108e+00 2.759179592132567915e+00 -5.550295114517211914e-01 1.000000000000000000e+01
2.671483278274536133e+00 3.409519195556641069e+00 -5.318378210067749023e-01 7.000000000000000000e+00
3.475900650024414062e+00 4.434574127197265625e+00 -4.929528832435607910e-01 8.000000000000000000e+00
5.020603179931640625e+00 6.400711536407470703e+00 -4.263286888599395752e-01 2.000000000000000000e+00
8.376255989074707031e+00 1.067112350463867010e+01 -2.367942482233046930e-01 2.000000000000000000e+00
1.387323260307312012e+00 1.762340426445007102e+00 -6.009778380393981934e-01 2.000000000000000000e+01
1.580959796905518022e+00 2.006878376007080078e+00 -5.898216366767883301e-01 1.300000000000000000e+01
1.819109201431273970e+00 2.308357477188109907e+00 -5.712821483612060547e-01 1.200000000000000000e+01
2.172428846359252930e+00 2.754724025726317915e+00 -5.556552410125732422e-01 9.000000000000000000e+00
2.683368444442749023e+00 3.400173187255858931e+00 -5.318378210067749023e-01 9.000000000000000000e+00
3.490124464035034180e+00 4.420850276947020596e+00 -4.927785694599152166e-01 9.000000000000000000e+00
5.028057575225830078e+00 6.364340782165527344e+00 -4.250726401805878241e-01 2.000000000000000000e+00
8.358885765075683594e+00 1.057279872894286932e+01 -2.352584451436995905e-01 2.000000000000000000e+00
1.387159943580626997e+00 1.750160336494446023e+00 -5.983896255493164062e-01 2.100000000000000000e+01
1.592450022697448953e+00 2.007731914520264116e+00 -5.916212797164916992e-01 1.200000000000000000e+01
1.827974200248718040e+00 2.303850412368773970e+00 -5.716637372970581055e-01 1.200000000000000000e+01
2.176638603210449219e+00 2.741316556930541992e+00 -5.544037222862243652e-01 9.000000000000000000e+00
2.698333978652954102e+00 3.395918846130371094e+00 -5.325690507888793945e-01 9.000000000000000000e+00
3.493607521057128906e+00 4.395215034484863281e+00 -4.912097752094268799e-01 9.000000000000000000e+00
5.064054489135742188e+00 6.366389274597167969e+00 -4.263286888599395752e-01 2.000000000000000000e+00
8.423789978027343750e+00 1.058257102966308949e+01 -2.360961586236954013e-01 2.000000000000000000e+00
1.389644980430603027e+00 1.740778207778931108e+00 -5.968367457389831543e-01 2.000000000000000000e+01
1.597015976905822976e+00 1.999115824699402078e+00 -5.907214879989624023e-01 1.500000000000000000e+01
1.838456273078918013e+00 2.300522804260253906e+00 -5.724269747734069824e-01 1.200000000000000000e+01
2.178791761398314986e+00 2.724445819854735884e+00 -5.525265336036682129e-01 1.000000000000000000e+01
2.713892459869385210e+00 3.391128778457642046e+00 -5.333002209663391113e-01 7.000000000000000000e+00
3.518889904022216797e+00 4.395436286926270419e+00 -4.926042556762694757e-01 9.000000000000000000e+00
5.086246490478515625e+00 6.348673343658447266e+00 -4.263286888599395752e-01 2.000000000000000000e+00
8.453173637390136719e+00 1.054374122619629084e+01 -2.358867228031157892e-01 2.000000000000000000e+00
1.398133993148803933e+00 1.738927960395812988e+00 -5.978720188140869141e-01 2.000000000000000000e+01
1.597876429557800071e+00 1.985937476158142090e+00 -5.884719491004943848e-01 1.400000000000000000e+01
1.848937392234802024e+00 2.297150373458861861e+00 -5.731902122497558594e-01 1.200000000000000000e+01
2.195723295211791992e+00 2.726054191589355025e+00 -5.544037222862243652e-01 9.000000000000000000e+00
2.726958990097045898e+00 3.383180379867554155e+00 -5.335440039634704590e-01 9.000000000000000000e+00
3.541715145111083984e+00 4.392432212829589844e+00 -4.936501383781433105e-01 8.000000000000000000e+00
5.098342895507813388e+00 6.318445682525634766e+00 -4.254913330078125000e-01 2.000000000000000000e+00
8.487414360046386719e+00 1.051105785369873047e+01 -2.358169108629226962e-01 2.000000000000000000e+00
1.413921475410460982e+00 1.746047616004944070e+00 -6.020131111145019531e-01 1.800000000000000000e+01
1.607252717018126997e+00 1.983375787734984907e+00 -5.893717408180236816e-01 1.400000000000000000e+01
1.854472041130065918e+00 2.287632226943970171e+00 -5.724269747734069824e-01 1.100000000000000000e+01
2.207714557647705078e+00 2.721441268920897993e+00 -5.550295114517211914e-01 1.100000000000000000e+01
2.723738193511962891e+00 3.355146884918212891e+00 -5.306191444396972656e-01 9.000000000000000000e+00
3.557025909423828125e+00 4.380042552947998047e+00 -4.936501383781433105e-01 6.000000000000000000e+00
5.140521526336669922e+00 6.325409889221191406e+00 -4.271660745143889826e-01 3.000000000000000000e+00
8.511435508728027344e+00 1.046585273742675959e+01 -2.354678660631180087e-01 2.000000000000000000e+00
1.413902759552001953e+00 1.733616113662719949e+00 -5.994248986244201660e-01 1.600000000000000000e+01
1.617862820625304954e+00 1.982282638549804910e+00 -5.907214879989624023e-01 1.500000000000000000e+01
1.854996323585510032e+00 2.272020339965819868e+00 -5.701372623443603516e-01 1.100000000000000000e+01
2.218450546264647993e+00 2.715247869491577148e+00 -5.553423762321472168e-01 1.000000000000000000e+01
2.742972135543822798e+00 3.354839563369750977e+00 -5.320815443992614746e-01 9.000000000000000000e+00
3.571032047271728960e+00 4.366057395935058594e+00 -4.934758245944976807e-01 8.000000000000000000e+00
5.156244754791259766e+00 6.299699783325195312e+00 -4.266427159309387207e-01 3.000000000000000000e+00
8.547916412353515625e+00 1.043607902526854936e+01 -2.354678660631180087e-01 2.000000000000000000e+00
1.412588357925415039e+00 1.719713211059570090e+00 -5.963190793991088867e-01 1.600000000000000000e+01
1.630959630012511985e+00 1.984150290489196999e+00 -5.929709672927856445e-01 1.400000000000000000e+01
1.872891306877136008e+00 2.277662754058837891e+00 -5.731902122497558594e-01 1.200000000000000000e+01
2.227915048599243164e+00 2.707487583160399947e+00 -5.553423762321472168e-01 1.000000000000000000e+01
2.762237310409545898e+00 3.354438781738280806e+00 -5.335440039634704590e-01 9.000000000000000000e+00
3.576116561889647993e+00 4.341262817382813388e+00 -4.920813143253325861e-01 8.000000000000000000e+00
5.187096118927001953e+00 6.292450904846191406e+00 -4.273754060268402100e-01 2.000000000000000000e+00
8.569023132324218750e+00 1.038766670227050959e+01 -2.350490093231200894e-01 2.000000000000000000e+00
1.423508286476135032e+00 1.720726013183593972e+00 -5.983896255493164062e-01 1.600000000000000000e+01
1.629176735877990945e+00 1.967937350273132102e+00 -5.898216366767883301e-01 1.600000000000000000e+01
1.880830407142638938e+00 2.271111249923706055e+00 -5.731902122497558594e-01 1.200000000000000000e+01
2.229789495468140093e+00 2.690568447113037109e+00 -5.534651279449462891e-01 1.000000000000000000e+01
2.768860816955565962e+00 3.338664293289185014e+00 -5.325690507888793945e-01 9.000000000000000000e+00
3.597609281539916992e+00 4.336420536041259766e+00 -4.929528832435607910e-01 9.000000000000000000e+00
5.201374530792236328e+00 6.265086174011229581e+00 -4.267473816871643066e-01 2.000000000000000000e+00
8.620565414428710938e+00 1.037614917755126953e+01 -2.354678660631180087e-01 2.000000000000000000e+00
1.436925649642943892e+00 1.724651813507080078e+00 -6.014954447746276855e-01 1.700000000000000000e+01
1.632292389869689941e+00 1.957748293876647949e+00 -5.884719491004943848e-01 1.400000000000000000e+01
1.892519116401671919e+00 2.269055128097534180e+00 -5.743350982666015625e-01 1.200000000000000000e+01
2.242965221405028853e+00 2.687318325042725053e+00 -5.544037222862243652e-01 9.000000000000000000e+00
2.785588264465332031e+00 3.335073232650756836e+00 -5.335440039634704590e-01 9.000000000000000000e+00
3.615279197692871094e+00 4.326893806457520419e+00 -4.933015108108521063e-01 9.000000000000000000e+00
5.220650196075438565e+00 6.243827342987061435e+00 -4.265380501747130793e-01 3.000000000000000000e+00
8.641333580017089844e+00 1.032759094238281072e+01 -2.350490093231200894e-01 2.000000000000000000e+00
1.437970042228698953e+00 1.713705897331238015e+00 -5.994248986244201660e-01 1.600000000000000000e+01
1.639116287231445090e+00 1.952038526535033958e+00 -5.884719491004943848e-01 1.400000000000000000e+01
1.900428056716918945e+00 2.262435197830200195e+00 -5.743350982666015625e-01 1.300000000000000000e+01
2.257416248321533203e+00 2.685521125793457031e+00 -5.556552410125732422e-01 9.000000000000000000e+00
2.792101383209228960e+00 3.319252967834473100e+00 -5.325690507888793945e-01 9.000000000000000000e+00
3.632926464080810991e+00 4.317296504974365234e+00 -4.936501383781433105e-01 9.000000000000000000e+00
5.233407974243164062e+00 6.214871406555175781e+00 -4.258053302764893133e-01 3.000000000000000000e+00
8.669599533081054688e+00 1.028818893432617010e+01 -2.348395884037018100e-01 2.000000000000000000e+00
1.446437001228332964e+00 1.711627125740051047e+00 -6.004601716995239258e-01 1.600000000000000000e+01
1.652211904525757058e+00 1.953745126724242942e+00 -5.907214879989624023e-01 1.300000000000000000e+01
1.900705933570862038e+00 2.246794462203979048e+00 -5.720453858375549316e-01 1.200000000000000000e+01
2.265500307083129883e+00 2.676117181777954102e+00 -5.553423762321472168e-01 9.000000000000000000e+00
2.798538208007812944e+00 3.303427934646606001e+00 -5.315940976142883301e-01 1.000000000000000000e+01
3.641533851623535156e+00 4.296988964080811435e+00 -4.927785694599152166e-01 9.000000000000000000e+00
5.243443489074707031e+00 6.182856559753417969e+00 -4.248632788658142090e-01 2.000000000000000000e+00
8.671816825866699219e+00 1.021822261810302912e+01 -2.339320629835129062e-01 2.000000000000000000e+00
1.444890499114990012e+00 1.697740554809570090e+00 -5.973543524742126465e-01 1.800000000000000000e+01
1.660285234451293945e+00 1.949449419975280984e+00 -5.911713838577270508e-01 1.300000000000000000e+01
1.905990719795227051e+00 2.237157106399536133e+00 -5.712821483612060547e-01 1.200000000000000000e+01
2.278672695159912109e+00 2.672702312469481978e+00 -5.562809705734252930e-01 9.000000000000000000e+00
2.815206050872803178e+00 3.299679517745972124e+00 -5.325690507888793945e-01 9.000000000000000000e+00
3.655217647552489790e+00 4.282736301422119141e+00 -4.926042556762694757e-01 9.000000000000000000e+00
5.270182132720947266e+00 6.170590877532958984e+00 -4.252819716930388849e-01 2.000000000000000000e+00
8.707432746887207031e+00 1.018789005279541016e+01 -2.339320629835129062e-01 2.000000000000000000e+00
1.457093954086303933e+00 1.700020670890808105e+00 -5.999425649642944336e-01 1.600000000000000000e+01
1.663273930549622026e+00 1.939204573631287065e+00 -5.898216366767883301e-01 1.200000000000000000e+01
1.921458721160888894e+00 2.239430189132689986e+00 -5.735718607902526855e-01 1.200000000000000000e+01
2.277693748474121094e+00 2.652742147445679155e+00 -5.537779927253723145e-01 9.000000000000000000e+00
2.839643716812133789e+00 3.304888963699340820e+00 -5.350064039230346680e-01 9.000000000000000000e+00
3.671443462371826172e+00 4.271461963653563565e+00 -4.927785694599152166e-01 8.000000000000000000e+00
5.281270503997802734e+00 6.140043258666992188e+00 -4.244446158409119207e-01 2.000000000000000000e+00
8.755987167358398438e+00 1.017258930206299006e+01 -2.342811077833175937e-01 2.000000000000000000e+00
1.467771649360656960e+00 1.701029896736145020e+00 -6.020131111145019531e-01 1.900000000000000000e+01
1.668421745300292969e+00 1.932203292846679910e+00 -5.893717408180236816e-01 1.300000000000000000e+01
1.932724475860595925e+00 2.237503290176392046e+00 -5.747166872024536133e-01 1.200000000000000000e+01
2.291645050048828125e+00 2.651152372360229048e+00 -5.550295114517211914e-01 9.000000000000000000e+00
2.842795372009276900e+00 3.286446094512939009e+00 -5.335440039634704590e-01 9.000000000000000000e+00
3.690802812576293945e+00 4.265290260314941406e+00 -4.934758245944976807e-01 8.000000000000000000e+00
5.309446811676025391e+00 6.131555080413818359e+00 -4.250726401805878241e-01 2.000000000000000000e+00
8.800148963928222656e+00 1.015558719635009943e+01 -2.345603406429291049e-01 2.000000000000000000e+00
1.471166014671325906e+00 1.692979693412780984e+00 -6.009778380393981934e-01 1.900000000000000000e+01
1.675156235694885032e+00 1.926367640495300071e+00 -5.893717408180236816e-01 1.100000000000000000e+01
1.931503295898437944e+00 2.220374584197998047e+00 -5.720453858375549316e-01 1.300000000000000000e+01
2.303479433059691939e+00 2.646116733551024947e+00 -5.556552410125732422e-01 9.000000000000000000e+00
2.849034309387207031e+00 3.270515680313109907e+00 -5.325690507888793945e-01 9.000000000000000000e+00
3.704360008239746094e+00 4.250878810882568359e+00 -4.933015108108521063e-01 8.000000000000000000e+00
5.322941780090332031e+00 6.103952884674072266e+00 -4.244446158409119207e-01 2.000000000000000000e+00
8.835544586181640625e+00 1.012480735778808949e+01 -2.345603406429291049e-01 2.000000000000000000e+00
1.475500106811522993e+00 1.686637759208678977e+00 -6.004601716995239258e-01 1.700000000000000000e+01
1.687953233718872070e+00 1.928133368492126021e+00 -5.916212797164916992e-01 9.000000000000000000e+00
1.938855648040771040e+00 2.213957309722899947e+00 -5.720453858375549316e-01 1.200000000000000000e+01
2.314845561981201172e+00 2.641434907913208008e+00 -5.562809705734252930e-01 9.000000000000000000e+00
2.862481832504272017e+00 3.264034986495972124e+00 -5.330564975738525391e-01 9.000000000000000000e+00
3.728947639465332031e+00 4.250553131103515625e+00 -4.946959912776947021e-01 8.000000000000000000e+00
5.356330394744873047e+00 6.101276874542236328e+00 -4.254913330078125000e-01 2.000000000000000000e+00
8.847954750061035156e+00 1.007141494750976918e+01 -2.340018600225448886e-01 2.000000000000000000e+00
1.472439289093018022e+00 1.671330213546752930e+00 -5.968367457389831543e-01 1.900000000000000000e+01
1.689518451690674050e+00 1.916382551193237083e+00 -5.898216366767883301e-01 7.000000000000000000e+00
1.949169158935547097e+00 2.210120677947998047e+00 -5.728086233139038086e-01 1.300000000000000000e+01
2.329280138015747070e+00 2.639262676239014116e+00 -5.575324296951293945e-01 9.000000000000000000e+00
2.880428314208983931e+00 3.261462688446044922e+00 -5.342751741409301758e-01 9.000000000000000000e+00
3.729251384735106978e+00 4.221086502075195312e+00 -4.927785694599152166e-01 8.000000000000000000e+00
5.377595424652099609e+00 6.082542896270751953e+00 -4.254913330078125000e-01 2.000000000000000000e+00
8.904256820678710938e+00 1.006443214416504084e+01 -2.345603406429291049e-01 2.000000000000000000e+00
1.487531542778014915e+00 1.676036238670348899e+00 -6.004601716995239258e-01 1.800000000000000000e+01
1.697825074195862038e+00 1.911634206771851030e+00 -5.902715921401977539e-01 7.000000000000000000e+00
1.961168527603148970e+00 2.207364797592163086e+00 -5.739534497261047363e-01 1.200000000000000000e+01
2.328437566757202148e+00 2.618897676467895952e+00 -5.550295114517211914e-01 9.000000000000000000e+00
2.896321296691894975e+00 3.255332708358765093e+00 -5.350064039230346680e-01 9.000000000000000000e+00
3.756618976593018022e+00 4.220784187316895419e+00 -4.943473637104033869e-01 8.000000000000000000e+00
5.415793418884277344e+00 6.080689430236816406e+00 -4.267473816871643066e-01 2.000000000000000000e+00
1.490798234939574973e+00 1.667952775955199973e+00 -5.994248986244201660e-01 1.700000000000000000e+01
1.694094300270081010e+00 1.894075989723206010e+00 -5.866723656654357910e-01 7.000000000000000000e+00
1.967552661895751953e+00 2.199042558670043945e+00 -5.735718607902526855e-01 1.300000000000000000e+01
2.334929704666138139e+00 2.607810497283935991e+00 -5.544037222862243652e-01 9.000000000000000000e+00
2.894420146942139116e+00 3.230418205261230025e+00 -5.325690507888793945e-01 9.000000000000000000e+00
3.767339944839477983e+00 4.203194618225097656e+00 -4.938244521617888849e-01 9.000000000000000000e+00
5.415648460388183594e+00 6.037958621978759766e+00 -4.250726401805878241e-01 2.000000000000000000e+00
8.994748115539550781e+00 1.002129173278808949e+01 -2.350490093231200894e-01 2.000000000000000000e+00
1.501780986785888894e+00 1.668482303619384988e+00 -6.014954447746276855e-01 1.700000000000000000e+01
1.705912470817565918e+00 1.893942832946776900e+00 -5.884719491004943848e-01 8.000000000000000000e+00
1.975216746330261008e+00 2.192161083221435991e+00 -5.735718607902526855e-01 1.300000000000000000e+01
2.353278160095214844e+00 2.609913587570189986e+00 -5.565938353538513184e-01 9.000000000000000000e+00
2.908338546752930132e+00 3.223242759704589844e+00 -5.330564975738525391e-01 9.000000000000000000e+00
3.785993814468383789e+00 4.194455146789550781e+00 -4.943473637104033869e-01 8.000000000000000000e+00
5.442047119140625000e+00 6.024946689605712891e+00 -4.254913330078125000e-01 2.000000000000000000e+00
9.010901451110839844e+00 9.969063758850097656e+00 -2.345603406429291049e-01 2.000000000000000000e+00
1.503703713417053001e+00 1.658935904502869096e+00 -5.999425649642944336e-01 1.600000000000000000e+01
1.716440916061400923e+00 1.892306804656981978e+00 -5.898216366767883301e-01 9.000000000000000000e+00
1.978899002075195090e+00 2.180891036987305132e+00 -5.724269747734069824e-01 1.200000000000000000e+01
2.366357803344727007e+00 2.606070518493651900e+00 -5.575324296951293945e-01 9.000000000000000000e+00
2.922241926193236861e+00 3.216009378433227983e+00 -5.335440039634704590e-01 9.000000000000000000e+00
3.793911457061768022e+00 4.173842430114746094e+00 -4.934758245944976807e-01 8.000000000000000000e+00
5.457669258117675781e+00 6.000003814697265625e+00 -4.250726401805878241e-01 2.000000000000000000e+00
9.021415710449218750e+00 9.910930633544921875e+00 -2.339320629835129062e-01 2.000000000000000000e+00
1.504275679588318093e+00 1.647969603538512962e+00 -5.978720188140869141e-01 1.600000000000000000e+01
1.732235908508301003e+00 1.896375536918639915e+00 -5.929709672927856445e-01 1.200000000000000000e+01
1.989148259162903054e+00 2.176868915557860884e+00 -5.731902122497558594e-01 1.200000000000000000e+01
2.370108366012572798e+00 2.591963291168212891e+00 -5.562809705734252930e-01 9.000000000000000000e+00
2.934790134429932085e+00 3.207253932952880859e+00 -5.337877273559570312e-01 1.000000000000000000e+01
3.816529512405395952e+00 4.169391632080078125e+00 -4.945216774940490723e-01 9.000000000000000000e+00
5.494768619537354404e+00 5.998589515686035156e+00 -4.263286888599395752e-01 2.000000000000000000e+00
9.058658599853515625e+00 9.882328033447265625e+00 -2.340018600225448886e-01 2.000000000000000000e+00
1.512633800506592019e+00 1.645553231239319070e+00 -5.989072918891906738e-01 1.900000000000000000e+01
1.730929136276244895e+00 1.881711959838866965e+00 -5.902715921401977539e-01 1.400000000000000000e+01
2.006040573120117188e+00 2.180024862289429155e+00 -5.758615732192993164e-01 1.300000000000000000e+01
