2.703266143798828125e+00 -2.254675626754761186e+00 -6.842410564422607422e-01 1.000000000000000000e+01
3.319717645645142046e+00 -2.770796060562133789e+00 -6.848700642585754395e-01 1.100000000000000000e+01
4.333004951477050781e+00 -3.619101285934447798e+00 -6.931928396224975586e-01 1.200000000000000000e+01
5.583680629730224609e+00 -4.665370941162109375e+00 -6.365855336189270020e-01 6.000000000000000000e+00
1.969725847244262917e+00 -1.652796268463134988e+00 -6.889762878417968750e-01 1.600000000000000000e+01
2.271408796310424805e+00 -1.907289743423461914e+00 -6.847510337829589844e-01 1.300000000000000000e+01
2.689366340637207031e+00 -2.259047031402587891e+00 -6.827145814895629883e-01 1.000000000000000000e+01
3.303977251052856001e+00 -2.777282953262329102e+00 -6.836186051368713379e-01 1.100000000000000000e+01
4.317307472229003906e+00 -3.631648540496826172e+00 -6.927053332328796387e-01 1.200000000000000000e+01
5.747248649597167969e+00 -4.836205005645751953e+00 -6.571543216705322266e-01 7.000000000000000000e+00
1.959517955780029075e+00 -1.655921101570128950e+00 -6.874234080314636230e-01 1.400000000000000000e+01
2.263249158859252930e+00 -1.913948535919189009e+00 -6.843010783195495605e-01 1.200000000000000000e+01
2.678466796875000000e+00 -2.265884876251221147e+00 -6.819513440132141113e-01 1.000000000000000000e+01
3.307831525802611861e+00 -2.800286054611206055e+00 -6.864344477653503418e-01 1.000000000000000000e+01
2.846579170227051137e+01 -2.410660171508789062e+01 4.580093860626220703e+00 1.900000000000000000e+01
4.310662746429443359e+00 -3.651829242706298828e+00 -6.936802864074707031e-01 1.200000000000000000e+01
5.695372581481933594e+00 -4.826610565185546875e+00 -6.531451344490051270e-01 7.000000000000000000e+00
1.946369886398314986e+00 -1.656490564346313032e+00 -6.848351955413818359e-01 1.500000000000000000e+01
2.266939640045166016e+00 -1.930681824684143066e+00 -6.874504089355468750e-01 1.300000000000000000e+01
2.679507493972777876e+00 -2.282860040664672852e+00 -6.842410564422607422e-01 1.000000000000000000e+01
3.298036575317382812e+00 -2.811815500259398970e+00 -6.864344477653503418e-01 1.100000000000000000e+01
4.316010951995849609e+00 -3.682315111160277876e+00 -6.966051459312438965e-01 1.200000000000000000e+01
5.351147174835205078e+00 -4.567081928253173828e+00 -6.154938340187072754e-01 7.000000000000000000e+00
1.943509340286255105e+00 -1.665789008140563965e+00 -6.858704686164855957e-01 1.600000000000000000e+01
2.260186672210692915e+00 -1.938583135604857954e+00 -6.874504089355468750e-01 1.300000000000000000e+01
2.667052745819091797e+00 -2.288363933563231978e+00 -6.830962300300598145e-01 1.100000000000000000e+01
3.279209136962891069e+00 -2.815589666366577148e+00 -6.845571994781494141e-01 1.000000000000000000e+01
4.309153556823729581e+00 -3.702533245086669922e+00 -6.975800991058349609e-01 1.200000000000000000e+01
5.478713035583496094e+00 -4.709110260009765625e+00 -6.320534348487854004e-01 6.000000000000000000e+00
1.939729452133178933e+00 -1.673148274421691895e+00 -6.863881349563598633e-01 1.600000000000000000e+01
2.239333391189575195e+00 -1.932940721511841042e+00 -6.829513907432556152e-01 1.100000000000000000e+01
2.680653572082519975e+00 -2.314694643020629883e+00 -6.884388327598571777e-01 1.100000000000000000e+01
3.273336887359619141e+00 -2.828460693359375000e+00 -6.851829290390014648e-01 1.000000000000000000e+01
4.297500610351563388e+00 -3.716052532196044922e+00 -6.975800991058349609e-01 1.200000000000000000e+01
5.411151409149169922e+00 -4.680677890777587891e+00 -6.259525418281555176e-01 6.000000000000000000e+00
1.941169381141663042e+00 -1.686243534088134988e+00 -6.889762878417968750e-01 1.500000000000000000e+01
2.241396903991699219e+00 -1.948416590690613015e+00 -6.856508255004882812e-01 1.300000000000000000e+01
2.663668870925902876e+00 -2.316308259963988814e+00 -6.861491203308105469e-01 1.100000000000000000e+01
3.278345346450806108e+00 -2.852837085723876953e+00 -6.883116364479064941e-01 1.000000000000000000e+01
4.278514862060546875e+00 -3.725816249847412109e+00 -6.966051459312438965e-01 1.200000000000000000e+01
5.632143974304199219e+00 -4.906312465667724609e+00 -6.534937620162963867e-01 9.000000000000000000e+00
1.929455399513245073e+00 -1.687921285629272017e+00 -6.869057416915893555e-01 1.500000000000000000e+01
2.237514495849608931e+00 -1.958795905113219993e+00 -6.865506172180175781e-01 1.300000000000000000e+01
2.649659395217895952e+00 -2.320418357849121094e+00 -6.846227049827575684e-01 1.100000000000000000e+01
3.268367052078247070e+00 -2.864263296127318892e+00 -6.883116364479064941e-01 1.100000000000000000e+01
4.277422904968261719e+00 -3.751199245452880859e+00 -6.985550522804260254e-01 1.200000000000000000e+01
5.635951995849609375e+00 -4.944337368011474609e+00 -6.559340953826904297e-01 1.000000000000000000e+01
1.916303992271422896e+00 -1.688260793685913086e+00 -6.843175292015075684e-01 1.400000000000000000e+01
2.240895748138428178e+00 -1.975615382194519043e+00 -6.896999478340148926e-01 1.300000000000000000e+01
2.631236314773560014e+00 -2.320563316345214844e+00 -6.819513440132141113e-01 1.000000000000000000e+01
3.264273166656494141e+00 -2.880882978439331055e+00 -6.895630955696105957e-01 1.000000000000000000e+01
4.274718284606933594e+00 -3.775305986404418945e+00 -7.002612352371215820e-01 1.000000000000000000e+01
5.576850891113281250e+00 -4.927044391632080078e+00 -6.510533690452575684e-01 8.000000000000000000e+00
1.912993073463439941e+00 -1.697837710380553977e+00 -6.853528022766113281e-01 1.500000000000000000e+01
2.232182741165161133e+00 -1.982521295547484907e+00 -6.892500519752502441e-01 1.400000000000000000e+01
2.631519317626953125e+00 -2.338015317916870117e+00 -6.842410564422607422e-01 1.100000000000000000e+01
3.241882324218750000e+00 -2.882327556610106978e+00 -6.870601773262023926e-01 1.000000000000000000e+01
2.835916519165039062e+01 -2.522273635864258168e+01 4.660039901733398438e+00 2.000000000000000000e+01
4.274199962615966797e+00 -3.802823781967163086e+00 -7.024549245834350586e-01 1.300000000000000000e+01
5.561731338500976562e+00 -4.950100421905517578e+00 -6.514019966125488281e-01 9.000000000000000000e+00
1.920018196105957031e+00 -1.716091513633728027e+00 -6.900115609169006348e-01 1.600000000000000000e+01
2.219438791275023970e+00 -1.985104441642761008e+00 -6.874504089355468750e-01 1.400000000000000000e+01
2.636510133743286133e+00 -2.358968496322631836e+00 -6.876755952835083008e-01 1.100000000000000000e+01
3.234744548797606978e+00 -2.896261692047119141e+00 -6.876859068870544434e-01 1.000000000000000000e+01
4.249072074890136719e+00 -3.807122945785522017e+00 -7.005049586296081543e-01 1.200000000000000000e+01
5.535516738891601562e+00 -4.961505413055419922e+00 -6.503561735153198242e-01 1.000000000000000000e+01
1.911144495010375977e+00 -1.720198392868041992e+00 -6.889762878417968750e-01 1.600000000000000000e+01
2.218287706375122070e+00 -1.998056411743164062e+00 -6.892500519752502441e-01 1.100000000000000000e+01
2.622425556182860884e+00 -2.362900733947753906e+00 -6.861491203308105469e-01 1.200000000000000000e+01
3.224615097045897993e+00 -2.907535314559936968e+00 -6.876859068870544434e-01 1.000000000000000000e+01
4.237230300903320312e+00 -3.823261499404906782e+00 -7.007487416267395020e-01 1.000000000000000000e+01
5.495978832244873047e+00 -4.960773468017578125e+00 -6.477414965629577637e-01 1.400000000000000000e+01
1.905128240585326926e+00 -1.726858973503113015e+00 -6.889762878417968750e-01 1.600000000000000000e+01
2.208412885665893999e+00 -2.003169059753417969e+00 -6.883502006530761719e-01 1.400000000000000000e+01
2.611253738403319868e+00 -2.369401693344116211e+00 -6.853858828544616699e-01 1.100000000000000000e+01
3.227608203887939009e+00 -2.930724859237670898e+00 -6.905017495155334473e-01 9.000000000000000000e+00
4.231204986572265625e+00 -3.844703912734984907e+00 -7.019674181938171387e-01 1.300000000000000000e+01
5.474205970764160156e+00 -4.975907325744628906e+00 -6.472185254096984863e-01 2.100000000000000000e+01
3.738411331176757812e+01 -3.402885437011718750e+01 -8.823936581611633301e-01 1.300000000000000000e+01
1.891954660415648970e+00 -1.726986646652221902e+00 -6.863881349563598633e-01 1.500000000000000000e+01
2.204284906387329102e+00 -2.013494253158568892e+00 -6.892500519752502441e-01 1.300000000000000000e+01
2.607315063476562944e+00 -2.382475137710570845e+00 -6.865307688713073730e-01 1.000000000000000000e+01
3.212985038757324219e+00 -2.937974452972412109e+00 -6.895630955696105957e-01 1.000000000000000000e+01
4.230938911437988281e+00 -3.871510982513428178e+00 -7.041610479354858398e-01 1.100000000000000000e+01
5.461212635040283203e+00 -4.999021053314208984e+00 -6.477414965629577637e-01 1.400000000000000000e+01
1.885914921760559082e+00 -1.733580231666564941e+00 -6.863881349563598633e-01 1.600000000000000000e+01
2.197242975234984907e+00 -2.021176338195800781e+00 -6.892500519752502441e-01 1.400000000000000000e+01
2.603316783905028853e+00 -2.395550012588500977e+00 -6.876755952835083008e-01 1.000000000000000000e+01
3.201256752014160156e+00 -2.947833776473999023e+00 -6.892502307891845703e-01 9.000000000000000000e+00
4.229077816009520596e+00 -3.897017478942871094e+00 -7.061109542846679688e-01 1.100000000000000000e+01
5.436404705047607422e+00 -5.011301994323729581e+00 -6.468698978424072266e-01 1.200000000000000000e+01
1.891193509101867898e+00 -1.750651359558105025e+00 -6.905292272567749023e-01 1.600000000000000000e+01
2.175878286361693892e+00 -2.015590906143188032e+00 -6.847510337829589844e-01 1.200000000000000000e+01
2.599258899688721147e+00 -2.408626079559326172e+00 -6.888204813003540039e-01 1.000000000000000000e+01
3.193844318389893022e+00 -2.961676836013793945e+00 -6.898760199546813965e-01 1.000000000000000000e+01
4.212538719177246094e+00 -3.909055471420288086e+00 -7.056235074996948242e-01 1.100000000000000000e+01
5.494810104370117188e+00 -5.100733757019042969e+00 -6.559340953826904297e-01 7.000000000000000000e+00
1.886484265327454057e+00 -1.758559465408324973e+00 -6.910468339920043945e-01 1.600000000000000000e+01
2.177379131317139116e+00 -2.031149387359619141e+00 -6.874504089355468750e-01 1.200000000000000000e+01
2.585093975067139116e+00 -2.412326812744141069e+00 -6.872940063476562500e-01 1.000000000000000000e+01
3.187818050384521040e+00 -2.976851940155028853e+00 -6.908146142959594727e-01 1.000000000000000000e+01
4.195966720581054688e+00 -3.921025514602661133e+00 -7.051360011100769043e-01 1.100000000000000000e+01
5.485704898834229404e+00 -5.128046989440917969e+00 -6.569799780845642090e-01 1.100000000000000000e+01
1.871087551116942915e+00 -1.755225419998168945e+00 -6.874234080314636230e-01 1.500000000000000000e+01
2.175249814987183061e+00 -2.041981220245360884e+00 -6.888001561164855957e-01 1.300000000000000000e+01
2.571778059005736861e+00 -2.415060281753540039e+00 -6.857675313949584961e-01 1.000000000000000000e+01
3.181329250335692915e+00 -2.989557504653931108e+00 -6.914403438568115234e-01 1.000000000000000000e+01
2.622970771789551137e+01 -2.465719223022460938e+01 4.420201301574707031e+00 1.800000000000000000e+01
4.185074329376220703e+00 -3.935548067092895952e+00 -7.053797841072082520e-01 1.100000000000000000e+01
5.431836128234863281e+00 -5.109761238098145419e+00 -6.524478793144226074e-01 1.000000000000000000e+01
1.871970891952515093e+00 -1.768379211425781028e+00 -6.900115609169006348e-01 1.500000000000000000e+01
2.175189256668090820e+00 -2.056255340576171875e+00 -6.910496354103088379e-01 1.600000000000000000e+01
2.570464611053466797e+00 -2.430767536163330078e+00 -6.876755952835083008e-01 9.000000000000000000e+00
3.179483175277709961e+00 -3.008790731430054155e+00 -6.933175325393676758e-01 1.000000000000000000e+01
4.178517818450927734e+00 -3.956957340240478960e+00 -7.065984606742858887e-01 1.100000000000000000e+01
2.766901779174805043e+01 -2.621106529235839844e+01 6.036493301391601562e+00 1.300000000000000000e+01
5.425538063049316406e+00 -5.139652729034423828e+00 -6.538423895835876465e-01 8.000000000000000000e+00
1.869985818862915039e+00 -1.778897285461426003e+00 -6.915645003318786621e-01 1.900000000000000000e+01
2.170821428298950195e+00 -2.066522836685181108e+00 -6.919494271278381348e-01 1.600000000000000000e+01
2.571916103363037109e+00 -2.449202537536621094e+00 -6.903469562530517578e-01 1.000000000000000000e+01
3.156090736389160156e+00 -3.007606029510498047e+00 -6.905017495155334473e-01 9.000000000000000000e+00
2.698799705505371094e+01 -2.572728157043457031e+01 4.578143596649169922e+00 1.900000000000000000e+01
4.163243293762207031e+00 -3.970149040222167969e+00 -7.063547372817993164e-01 9.000000000000000000e+00
2.711019134521484020e+01 -2.585280036926269887e+01 5.933246612548828125e+00 1.300000000000000000e+01
5.419097423553466797e+00 -5.169561862945556641e+00 -6.552368998527526855e-01 6.000000000000000000e+00
1.863764882087707964e+00 -1.785413980484009011e+00 -6.915645003318786621e-01 1.900000000000000000e+01
2.156560897827147993e+00 -2.067345142364501953e+00 -6.896999478340148926e-01 1.800000000000000000e+01
2.570436000823975053e+00 -2.464959621429442915e+00 -6.922550201416015625e-01 1.100000000000000000e+01
3.145573139190673828e+00 -3.018604516983031782e+00 -6.905017495155334473e-01 9.000000000000000000e+00
4.155086994171142578e+00 -3.990157127380371094e+00 -7.073296904563903809e-01 9.000000000000000000e+00
5.441250324249267578e+00 -5.227094173431395596e+00 -6.601175665855407715e-01 7.000000000000000000e+00
1.863082766532897949e+00 -1.797273755073546919e+00 -6.936350464820861816e-01 1.600000000000000000e+01
2.147929191589355025e+00 -2.073506832122803178e+00 -6.892500519752502441e-01 1.900000000000000000e+01
2.824567794799805043e+01 -2.727653503417969105e+01 2.057849884033203125e+00 2.200000000000000000e+01
2.553342580795288086e+00 -2.465734243392943892e+00 -6.899653077125549316e-01 1.100000000000000000e+01
3.153483390808105025e+00 -3.047411441802978960e+00 -6.945690512657165527e-01 1.000000000000000000e+01
4.132571220397949219e+00 -3.996356964111328125e+00 -7.058672308921813965e-01 9.000000000000000000e+00
5.375715255737304688e+00 -5.200341701507568359e+00 -6.543653011322021484e-01 7.000000000000000000e+00
1.858183383941649947e+00 -1.805112361907958984e+00 -6.941526532173156738e-01 1.600000000000000000e+01
2.150459527969359907e+00 -2.090500354766846147e+00 -6.923993229866027832e-01 2.100000000000000000e+01
2.546127557754517046e+00 -2.476000785827637163e+00 -6.903469562530517578e-01 1.200000000000000000e+01
3.142826557159423828e+00 -3.058400630950928178e+00 -6.945690512657165527e-01 1.100000000000000000e+01
2.776399993896484020e+01 -2.702760887145996094e+01 4.757535457611083984e+00 2.000000000000000000e+01
4.132817745208740234e+00 -4.024607181549072266e+00 -7.083046436309814453e-01 1.100000000000000000e+01
5.313288211822509766e+00 -5.175976276397705078e+00 -6.489616632461547852e-01 1.100000000000000000e+01
1.842204332351685014e+00 -1.802131175994873047e+00 -6.905292272567749023e-01 1.600000000000000000e+01
2.144541740417480025e+00 -2.099357366561890093e+00 -6.928492188453674316e-01 2.000000000000000000e+01
2.537469148635863814e+00 -2.484873294830321822e+00 -6.903469562530517578e-01 1.200000000000000000e+01
3.137775182723999023e+00 -3.074882984161376953e+00 -6.958205103874206543e-01 1.100000000000000000e+01
2.674806785583496094e+01 -2.622109413146973012e+01 4.599105358123779297e+00 1.900000000000000000e+01
4.113074779510498047e+00 -4.033449649810791016e+00 -7.073296904563903809e-01 9.000000000000000000e+00
5.278120994567871094e+00 -5.177748680114746094e+00 -6.468698978424072266e-01 7.000000000000000000e+00
2.771459007263183949e+01 -2.722554588317871094e+01 -6.781306862831115723e-01 9.000000000000000000e+00
1.840031147003174050e+00 -1.812617897987365945e+00 -6.920821070671081543e-01 1.800000000000000000e+01
2.718324661254883168e+01 -2.678761291503905895e+01 6.661583781242370605e-01 3.100000000000000000e+01
2.134424924850463867e+00 -2.104094266891479048e+00 -6.919494271278381348e-01 2.000000000000000000e+01
2.535769224166870117e+00 -2.500608205795288086e+00 -6.922550201416015625e-01 1.100000000000000000e+01
3.115774393081665039e+00 -3.074717044830321822e+00 -6.933175325393676758e-01 1.000000000000000000e+01
2.695586967468262074e+01 -2.660995292663573863e+01 4.650777816772460938e+00 1.900000000000000000e+01
4.120157241821289062e+00 -4.068704605102539062e+00 -7.109857201576232910e-01 1.100000000000000000e+01
2.799014282226562855e+01 -2.764060020446776988e+01 6.230472087860107422e+00 1.400000000000000000e+01
5.288363456726074219e+00 -5.224145412445068359e+00 -6.503561735153198242e-01 7.000000000000000000e+00
2.699784660339355113e+01 -2.669794845581055043e+01 8.765892982482910156e+00 1.100000000000000000e+01
2.757105064392089844e+01 -2.727430725097655895e+01 -6.769439578056335449e-01 8.000000000000000000e+00
1.841602802276611106e+00 -1.827514410018920898e+00 -6.951879262924194336e-01 1.600000000000000000e+01
2.118402004241942915e+00 -2.103664159774779829e+00 -6.892500519752502441e-01 2.000000000000000000e+01
2.729047584533691051e+01 -2.711007499694823863e+01 2.015980958938599077e+00 2.200000000000000000e+01
2.530765533447266069e+00 -2.514036178588867188e+00 -6.933999061584472656e-01 1.200000000000000000e+01
3.104484081268310991e+00 -3.086116075515747070e+00 -6.933175325393676758e-01 1.000000000000000000e+01
2.692009353637694957e+01 -2.677016067504883168e+01 4.661502361297607422e+00 2.000000000000000000e+01
4.099587917327880859e+00 -4.078178405761718750e+00 -7.100107669830322266e-01 1.100000000000000000e+01
5.133602619171142578e+00 -5.108575820922851562e+00 -6.336222290992736816e-01 7.000000000000000000e+00
1.829746365547179954e+00 -1.828469395637511985e+00 -6.931173801422119141e-01 1.600000000000000000e+01
2.113801956176757812e+00 -2.113801956176757812e+00 -6.901498436927795410e-01 2.000000000000000000e+01
2.516422510147095171e+00 -2.517301082611083984e+00 -6.918734312057495117e-01 1.200000000000000000e+01
3.096484899520874023e+00 -3.099729061126708984e+00 -6.939432621002197266e-01 1.000000000000000000e+01
2.653752899169921875e+01 -2.657460784912109020e+01 4.611292362213134766e+00 1.900000000000000000e+01
4.082522392272949219e+00 -4.089653968811035156e+00 -7.095233201980590820e-01 1.100000000000000000e+01
5.096035957336425781e+00 -5.106720447540283203e+00 -6.311818957328796387e-01 1.100000000000000000e+01
1.822630882263184038e+00 -1.832838892936706987e+00 -6.925997734069824219e-01 1.500000000000000000e+01
2.112645387649536133e+00 -2.125961303710937944e+00 -6.919494271278381348e-01 1.900000000000000000e+01
2.512652635574340820e+00 -2.529372692108153853e+00 -6.930182576179504395e-01 1.100000000000000000e+01
3.093689918518065962e+00 -3.116451263427733931e+00 -6.955076456069946289e-01 1.100000000000000000e+01
2.652382469177246094e+01 -2.672830009460448863e+01 4.623479366302490234e+00 1.900000000000000000e+01
4.078042507171630859e+00 -4.110915184020996094e+00 -7.109857201576232910e-01 1.100000000000000000e+01
2.623867607116698863e+01 -2.645941734313964844e+01 5.901959419250488281e+00 1.300000000000000000e+01
5.119249343872070312e+00 -5.162316799163818359e+00 -6.360626220703125000e-01 9.000000000000000000e+00
1.814864516258239968e+00 -1.837815284729003906e+00 -6.920821070671081543e-01 1.700000000000000000e+01
2.114793062210083008e+00 -2.143032550811768022e+00 -6.950987577438354492e-01 2.200000000000000000e+01
2.501050710678101030e+00 -2.535332679748535156e+00 -6.922550201416015625e-01 1.100000000000000000e+01
3.092499971389770952e+00 -3.137078523635863814e+00 -6.976976990699768066e-01 1.100000000000000000e+01
2.636069679260253906e+01 -2.675002670288085938e+01 4.611292362213134766e+00 1.900000000000000000e+01
4.066453933715820312e+00 -4.127953529357910156e+00 -7.114732265472412109e-01 1.100000000000000000e+01
5.070442676544188565e+00 -5.148923397064208984e+00 -6.322277784347534180e-01 1.300000000000000000e+01
1.807085633277893066e+00 -1.842759847640990989e+00 -6.915645003318786621e-01 1.600000000000000000e+01
2.097751855850220171e+00 -2.140658378601074219e+00 -6.919494271278381348e-01 2.300000000000000000e+01
2.492185592651367188e+00 -2.544047594070435014e+00 -6.922550201416015625e-01 1.100000000000000000e+01
3.069093942642211914e+00 -3.135149955749512163e+00 -6.948819160461425781e-01 1.000000000000000000e+01
4.065901756286621094e+00 -4.156313419342041016e+00 -7.139106392860412598e-01 1.100000000000000000e+01
5.045474052429199219e+00 -5.159468650817871094e+00 -6.313561797142028809e-01 1.600000000000000000e+01
1.808728933334351030e+00 -1.857360720634460005e+00 -6.946703195571899414e-01 1.600000000000000000e+01
2.088907718658446822e+00 -2.146571397781372070e+00 -6.914995312690734863e-01 2.200000000000000000e+01
2.496979475021361861e+00 -2.566803932189940962e+00 -6.960712075233459473e-01 1.100000000000000000e+01
3.060885429382324219e+00 -3.148676872253417969e+00 -6.955076456069946289e-01 1.100000000000000000e+01
4.043069362640380859e+00 -4.161937236785888672e+00 -7.124481797218322754e-01 1.300000000000000000e+01
2.589134979248046875e+01 -2.666187667846680043e+01 5.886315822601318359e+00 1.300000000000000000e+01
5.042701721191406250e+00 -5.192771911621093750e+00 -6.332736015319824219e-01 9.000000000000000000e+00
1.800891637802124023e+00 -1.862274289131164995e+00 -6.941526532173156738e-01 1.800000000000000000e+01
2.089527368545531782e+00 -2.162257909774779829e+00 -6.941989660263061523e-01 2.200000000000000000e+01
2.728639221191405895e+01 -2.823615455627441051e+01 2.057849884033203125e+00 2.200000000000000000e+01
2.485276460647583008e+00 -2.572680234909058061e+00 -6.953079700469970703e-01 1.200000000000000000e+01
3.062223434448242188e+00 -3.172132968902587891e+00 -6.983234286308288574e-01 1.100000000000000000e+01
2.688415336608887074e+01 -2.785881042480469105e+01 4.753635406494140625e+00 2.000000000000000000e+01
4.029895305633544922e+00 -4.177453517913818359e+00 -7.126919031143188477e-01 1.300000000000000000e+01
5.143485069274902344e+00 -5.333681583404541016e+00 -6.482644081115722656e-01 1.100000000000000000e+01
1.797056317329406960e+00 -1.871335983276366965e+00 -6.951879262924194336e-01 1.900000000000000000e+01
2.081966876983643022e+00 -2.169538497924805132e+00 -6.941989660263061523e-01 2.200000000000000000e+01
2.468126296997069868e+00 -2.572839260101317915e+00 -6.930182576179504395e-01 1.100000000000000000e+01
3.059334039688109907e+00 -3.191358804702758789e+00 -7.002006769180297852e-01 1.100000000000000000e+01
4.012542247772216797e+00 -4.188628196716308594e+00 -7.122044563293457031e-01 1.300000000000000000e+01
5.083495140075683594e+00 -5.308433532714843750e+00 -6.430350542068481445e-01 1.300000000000000000e+01
1.783520579338073953e+00 -1.870918512344359907e+00 -6.925997734069824219e-01 1.600000000000000000e+01
2.075345277786254883e+00 -2.178565740585327148e+00 -6.946488618850708008e-01 1.900000000000000000e+01
2.461387634277344194e+00 -2.584711551666260210e+00 -6.937814950942993164e-01 1.200000000000000000e+01
3.050339937210083008e+00 -3.205412387847899947e+00 -7.008264064788818359e-01 1.100000000000000000e+01
4.006738662719726562e+00 -4.213376522064208984e+00 -7.139106392860412598e-01 1.500000000000000000e+01
5.050277709960938388e+00 -5.312589168548583984e+00 -6.412919759750366211e-01 7.000000000000000000e+00
1.778307080268860085e+00 -1.878535747528075950e+00 -6.931173801422119141e-01 1.900000000000000000e+01
2.069067239761352983e+00 -2.187212467193603960e+00 -6.950987577438354492e-01 2.200000000000000000e+01
2.460443973541260210e+00 -2.601846456527709961e+00 -6.960712075233459473e-01 1.100000000000000000e+01
3.030992031097412109e+00 -3.207426071166992188e+00 -6.989492177963256836e-01 1.100000000000000000e+01
2.660784721374512074e+01 -2.816653633117676137e+01 4.757535457611083984e+00 2.000000000000000000e+01
4.001547336578369141e+00 -4.237439632415770596e+00 -7.156167626380920410e-01 1.300000000000000000e+01
5.039908409118652344e+00 -5.338878631591796875e+00 -6.423377990722656250e-01 1.000000000000000000e+01
1.777031540870666948e+00 -1.890362024307250977e+00 -6.951879262924194336e-01 1.800000000000000000e+01
2.053414344787598100e+00 -2.185899496078491211e+00 -6.923993229866027832e-01 2.200000000000000000e+01
2.450002908706665039e+00 -2.608988046646118164e+00 -6.956896185874938965e-01 1.200000000000000000e+01
3.023832559585570845e+00 -3.222307920455933061e+00 -6.998878121376037598e-01 1.000000000000000000e+01
3.981300115585327148e+00 -4.245589733123779297e+00 -7.146418094635009766e-01 1.500000000000000000e+01
5.036230087280273438e+00 -5.372427940368652344e+00 -6.442552208900451660e-01 7.000000000000000000e+00
1.778331756591797097e+00 -1.905026555061340110e+00 -6.982938051223754883e-01 1.900000000000000000e+01
2.051088809967041016e+00 -2.198753833770751953e+00 -6.941989660263061523e-01 2.100000000000000000e+01
2.442219734191894975e+00 -2.618960142135620117e+00 -6.960712075233459473e-01 1.200000000000000000e+01
3.015259742736815962e+00 -3.235733985900878906e+00 -7.005135416984558105e-01 1.100000000000000000e+01
2.641056060791015980e+01 -2.835160636901855113e+01 4.757535457611083984e+00 2.000000000000000000e+01
3.967808723449707031e+00 -4.260913848876953125e+00 -7.148855924606323242e-01 1.500000000000000000e+01
5.014731407165527344e+00 -5.387058258056640625e+00 -6.439066529273986816e-01 7.000000000000000000e+00
1.765104532241821067e+00 -1.904138565063477007e+00 -6.957055926322937012e-01 1.600000000000000000e+01
2.048698425292969194e+00 -2.211618661880493164e+00 -6.959985494613647461e-01 1.900000000000000000e+01
2.426393508911132812e+00 -2.620266437530518022e+00 -6.941631436347961426e-01 1.200000000000000000e+01
3.017363071441649947e+00 -3.260737895965576172e+00 -7.036422491073608398e-01 1.000000000000000000e+01
3.954258918762207031e+00 -4.276195526123046875e+00 -7.151293158531188965e-01 1.500000000000000000e+01
4.989134311676025391e+00 -5.397214889526367188e+00 -6.430350542068481445e-01 1.000000000000000000e+01
1.749288439750670943e+00 -1.900338888168334961e+00 -6.920821070671081543e-01 1.800000000000000000e+01
2.046243190765380859e+00 -2.224493265151977983e+00 -6.977981925010681152e-01 1.800000000000000000e+01
2.422547817230225053e+00 -2.634500741958618164e+00 -6.956896185874938965e-01 1.200000000000000000e+01
3.003289222717285156e+00 -3.268341541290283203e+00 -7.030164599418640137e-01 1.100000000000000000e+01
3.948706626892089844e+00 -4.300207614898681641e+00 -7.168354988098144531e-01 1.500000000000000000e+01
4.981042385101318359e+00 -5.426339626312255859e+00 -6.444295644760131836e-01 1.000000000000000000e+01
1.752102613449096902e+00 -1.916109085083008035e+00 -6.957055926322937012e-01 1.600000000000000000e+01
2.033596992492675781e+00 -2.225512266159058061e+00 -6.959985494613647461e-01 1.500000000000000000e+01
2.423066616058350053e+00 -2.652666568756103960e+00 -6.983609199523925781e-01 1.200000000000000000e+01
2.987107515335083008e+00 -3.272447109222412109e+00 -7.017650008201599121e-01 1.000000000000000000e+01
3.938438415527344194e+00 -4.317678451538085938e+00 -7.175666689872741699e-01 1.300000000000000000e+01
4.948254108428955078e+00 -5.426632881164550781e+00 -6.425121426582336426e-01 7.000000000000000000e+00
1.748000860214232954e+00 -1.925073862075806108e+00 -6.967408657073974609e-01 1.900000000000000000e+01
2.021887540817261186e+00 -2.228267908096313032e+00 -6.946488618850708008e-01 1.400000000000000000e+01
2.420387268066405806e+00 -2.668379306793212891e+00 -7.002689838409423828e-01 1.300000000000000000e+01
2.982299566268920898e+00 -3.290172100067139116e+00 -7.033293843269348145e-01 1.100000000000000000e+01
3.927340745925902876e+00 -4.335813522338867188e+00 -7.182978987693786621e-01 1.500000000000000000e+01
4.891837120056152344e+00 -5.402519226074218750e+00 -6.376314163208007812e-01 9.000000000000000000e+00
1.746445059776305930e+00 -1.936902761459351030e+00 -6.988114118576049805e-01 1.600000000000000000e+01
2.020619630813599077e+00 -2.242550611495972124e+00 -6.968983411788940430e-01 1.500000000000000000e+01
2.401860713958739790e+00 -2.666600465774536133e+00 -6.975976824760437012e-01 1.200000000000000000e+01
2.972118139266968218e+00 -3.302030563354492188e+00 -7.036422491073608398e-01 1.100000000000000000e+01
3.908199548721313032e+00 -4.345068454742431641e+00 -7.175666689872741699e-01 1.300000000000000000e+01
4.824992179870604581e+00 -5.366225719451904297e+00 -6.313561797142028809e-01 7.000000000000000000e+00
1.731941461563109907e+00 -1.934351682662964089e+00 -6.957055926322937012e-01 1.600000000000000000e+01
2.006282329559326172e+00 -2.242328882217406782e+00 -6.946488618850708008e-01 1.400000000000000000e+01
2.397773265838623047e+00 -2.680821657180786133e+00 -6.991241574287414551e-01 1.200000000000000000e+01
2.965839385986328125e+00 -3.318276166915893999e+00 -7.048937082290649414e-01 1.000000000000000000e+01
3.885074377059936968e+00 -4.349801063537597656e+00 -7.161042690277099609e-01 1.300000000000000000e+01
4.852674484252929688e+00 -5.435052394866943359e+00 -6.374570727348327637e-01 9.000000000000000000e+00
1.721328020095824973e+00 -1.936054229736327903e+00 -6.941526532173156738e-01 1.400000000000000000e+01
2.011386156082152876e+00 -2.263886451721190962e+00 -6.991478800773620605e-01 1.400000000000000000e+01
2.384489774703979048e+00 -2.684771537780762163e+00 -6.979793310165405273e-01 1.200000000000000000e+01
2.955549716949462891e+00 -3.330086231231689009e+00 -7.052065730094909668e-01 1.100000000000000000e+01
3.876452922821044922e+00 -4.370761394500732422e+00 -7.173229455947875977e-01 1.600000000000000000e+01
4.797985553741455078e+00 -5.411705970764160156e+00 -6.327506899833679199e-01 7.000000000000000000e+00
1.714559435844420943e+00 -1.942051053047179954e+00 -6.941526532173156738e-01 1.500000000000000000e+01
1.995736002922058105e+00 -2.262125730514525923e+00 -6.964484453201293945e-01 1.400000000000000000e+01
2.380297899246215820e+00 -2.698968172073363814e+00 -6.995058059692382812e-01 1.200000000000000000e+01
2.941295385360718218e+00 -3.337418794631958008e+00 -7.045808434486389160e-01 1.100000000000000000e+01
3.863796472549438032e+00 -4.387245655059813565e+00 -7.178104519844055176e-01 1.500000000000000000e+01
4.789597988128662109e+00 -5.440384864807128906e+00 -6.341452002525329590e-01 7.000000000000000000e+00
2.226070594787598012e+01 -2.532099914550780895e+01 -5.884951353073120117e-01 6.000000000000000000e+00
1.711931109428405984e+00 -1.952083349227905051e+00 -6.957055926322937012e-01 1.300000000000000000e+01
1.980517268180846946e+00 -2.259938001632689986e+00 -6.937490701675415039e-01 1.200000000000000000e+01
2.371334791183472124e+00 -2.706846714019774947e+00 -6.995058059692382812e-01 1.200000000000000000e+01
2.932814121246337891e+00 -3.350126743316649947e+00 -7.052065730094909668e-01 1.100000000000000000e+01
3.832235097885131836e+00 -4.380611419677734375e+00 -7.146418094635009766e-01 2.000000000000000000e+01
4.716444492340087891e+00 -5.393246173858642578e+00 -6.268240809440612793e-01 7.000000000000000000e+00
2.201877593994140980e+01 -2.521393394470214844e+01 -5.843065381050109863e-01 6.000000000000000000e+00
1.712718725204467995e+00 -1.966788530349731001e+00 -6.988114118576049805e-01 1.400000000000000000e+01
1.977733612060547097e+00 -2.272717714309691939e+00 -6.955486536026000977e-01 1.400000000000000000e+01
2.361871719360352007e+00 -2.715107679367064986e+00 -6.995058059692382812e-01 1.200000000000000000e+01
2.927582025527954102e+00 -3.367797851562500000e+00 -7.067708969116210938e-01 1.100000000000000000e+01
3.818222522735596147e+00 -4.395460128784179688e+00 -7.148855924606323242e-01 2.000000000000000000e+01
4.714572429656982422e+00 -5.429233551025390625e+00 -6.290901303291320801e-01 1.000000000000000000e+01
2.184678459167480113e+01 -2.519395065307616832e+01 -5.820726752281188965e-01 6.000000000000000000e+00
1.702052235603332964e+00 -1.968371152877808061e+00 -6.972585320472717285e-01 1.500000000000000000e+01
1.973610639572143999e+00 -2.284031152725220171e+00 -6.968983411788940430e-01 1.300000000000000000e+01
2.343396186828612837e+00 -2.712935686111450195e+00 -6.968344449996948242e-01 1.100000000000000000e+01
2.911936044692993164e+00 -3.373510360717772993e+00 -7.058323025703430176e-01 1.100000000000000000e+01
3.786000728607178178e+00 -4.389220714569091797e+00 -7.117169499397277832e-01 3.500000000000000000e+01
4.564183235168457031e+00 -5.293257713317871094e+00 -6.114847064018249512e-01 8.000000000000000000e+00
2.184743309020996094e+01 -2.537310028076171875e+01 -5.844461917877197266e-01 6.000000000000000000e+00
1.693912506103516069e+00 -1.972834706306457964e+00 -6.967408657073974609e-01 1.500000000000000000e+01
1.966894745826720969e+00 -2.292385339736938032e+00 -6.973482966423034668e-01 1.200000000000000000e+01
2.342859268188477007e+00 -2.731530427932738814e+00 -6.995058059692382812e-01 1.200000000000000000e+01
2.905284643173218218e+00 -3.389653921127318892e+00 -7.070837616920471191e-01 1.100000000000000000e+01
3.774530410766602007e+00 -4.406932353973388672e+00 -7.124481797218322754e-01 4.100000000000000000e+01
4.603989601135253906e+00 -5.377262115478515625e+00 -6.193287372589111328e-01 8.000000000000000000e+00
2.165997123718262074e+01 -2.533369445800780895e+01 -5.817934274673461914e-01 6.000000000000000000e+00
1.684164047241210938e+00 -1.976089358329772949e+00 -6.957055926322937012e-01 1.500000000000000000e+01
1.962270140647887962e+00 -2.304029703140258789e+00 -6.986979842185974121e-01 1.300000000000000000e+01
2.336649894714355025e+00 -2.744583606719971147e+00 -7.006506323814392090e-01 1.200000000000000000e+01
2.889001369476317915e+00 -3.395765781402587891e+00 -7.061451673507690430e-01 1.000000000000000000e+01
3.730065584182738814e+00 -4.387464523315429688e+00 -7.070859074592590332e-01 3.900000000000000000e+01
4.619086742401123047e+00 -5.435091495513916016e+00 -6.240351200103759766e-01 7.000000000000000000e+00
1.683495759963989036e+00 -1.989329457283020020e+00 -6.982938051223754883e-01 1.600000000000000000e+01
1.946665525436400923e+00 -2.301937341690063032e+00 -6.959985494613647461e-01 1.300000000000000000e+01
2.327055215835570845e+00 -2.752723455429077148e+00 -7.006506323814392090e-01 1.200000000000000000e+01
2.882229566574097124e+00 -3.411865711212158203e+00 -7.073966264724731445e-01 1.000000000000000000e+01
3.704483747482299805e+00 -4.388323307037354404e+00 -7.051360011100769043e-01 2.800000000000000000e+01
4.580812454223632812e+00 -5.428341865539550781e+00 -6.214204430580139160e-01 8.000000000000000000e+00
1.680269837379456010e+00 -1.999630928039551003e+00 -6.998466849327087402e-01 1.400000000000000000e+01
1.943631052970886008e+00 -2.314687967300415039e+00 -6.977981925010681152e-01 1.200000000000000000e+01
2.326267957687377930e+00 -2.771355628967285156e+00 -7.033219337463378906e-01 1.200000000000000000e+01
2.875380277633666992e+00 -3.427959442138671875e+00 -7.086481451988220215e-01 1.000000000000000000e+01
3.704445362091064009e+00 -4.419483661651611328e+00 -7.080608606338500977e-01 2.400000000000000000e+01
4.629655838012695312e+00 -5.525238037109375000e+00 -6.306589841842651367e-01 7.000000000000000000e+00
1.673279643058777078e+00 -2.005483865737915039e+00 -6.998466849327087402e-01 1.600000000000000000e+01
1.936787366867064986e+00 -2.322955131530762163e+00 -6.982480883598327637e-01 1.400000000000000000e+01
2.306524276733397993e+00 -2.767394065856934038e+00 -7.002689838409423828e-01 1.000000000000000000e+01
2.867189407348632812e+00 -3.442529201507567915e+00 -7.095867395401000977e-01 1.100000000000000000e+01
3.675027370452880859e+00 -4.415604114532470703e+00 -7.053797841072082520e-01 2.200000000000000000e+01
4.582306861877441406e+00 -5.507669448852539062e+00 -6.268240809440612793e-01 7.000000000000000000e+00
1.738952064514160156e+01 -2.091604995727539062e+01 -1.425526738166809082e+00 1.300000000000000000e+01
1.657641887664794922e+00 -2.000899076461791992e+00 -6.962232589721679688e-01 1.500000000000000000e+01
1.932394981384276900e+00 -2.334204912185668945e+00 -6.995977759361267090e-01 1.200000000000000000e+01
2.303108453750609907e+00 -2.782990932464600053e+00 -7.021771073341369629e-01 1.100000000000000000e+01
2.851378679275513139e+00 -3.447949886322021040e+00 -7.086481451988220215e-01 1.000000000000000000e+01
3.653268814086914062e+00 -4.420754432678222656e+00 -7.041610479354858398e-01 2.400000000000000000e+01
4.602389812469482422e+00 -5.571248531341552734e+00 -6.322277784347534180e-01 7.000000000000000000e+00
1.731640243530273082e+01 -2.097662353515625000e+01 -1.425526738166809082e+00 1.300000000000000000e+01
1.653101801872252974e+00 -2.009656906127930132e+00 -6.972585320472717285e-01 1.300000000000000000e+01
1.929185152053833008e+00 -2.346957683563231978e+00 -7.013973593711853027e-01 1.300000000000000000e+01
2.297119379043579102e+00 -2.795563936233520952e+00 -7.033219337463378906e-01 1.100000000000000000e+01
2.844339847564696822e+00 -3.463988542556763139e+00 -7.098996043205261230e-01 1.100000000000000000e+01
3.629000902175902876e+00 -4.422737121582031250e+00 -7.024549245834350586e-01 2.200000000000000000e+01
4.598077297210693359e+00 -5.605765342712402344e+00 -6.343194842338562012e-01 1.000000000000000000e+01
1.721015739440917969e+01 -2.099677848815917969e+01 -1.422805309295654075e+00 1.300000000000000000e+01
1.652186870574950950e+00 -2.022896289825439009e+00 -6.998466849327087402e-01 1.400000000000000000e+01
1.912355661392211914e+00 -2.343109369277954102e+00 -6.982480883598327637e-01 1.100000000000000000e+01
2.293552398681641069e+00 -2.811171293258666992e+00 -7.052300572395324707e-01 1.100000000000000000e+01
2.830982923507689986e+00 -3.472365140914916992e+00 -7.095867395401000977e-01 1.100000000000000000e+01
3.616048097610474077e+00 -4.438456058502197266e+00 -7.029423713684082031e-01 1.600000000000000000e+01
4.487893104553222656e+00 -5.510550975799561435e+00 -6.217690706253051758e-01 1.200000000000000000e+01
1.709389495849609020e+01 -2.100405693054198863e+01 -1.419246435165405051e+00 1.300000000000000000e+01
1.647549152374268022e+00 -2.031651973724364790e+00 -7.008819580078125000e-01 1.500000000000000000e+01
1.905391931533813032e+00 -2.351284503936768022e+00 -6.986979842185974121e-01 1.300000000000000000e+01
2.277546644210814986e+00 -2.811532497406005859e+00 -7.033219337463378906e-01 1.000000000000000000e+01
2.818844795227050781e+00 -3.482225894927978960e+00 -7.095867395401000977e-01 1.100000000000000000e+01
3.604278326034545898e+00 -4.455681324005126953e+00 -7.036736011505126953e-01 1.800000000000000000e+01
4.350870132446289062e+00 -5.380553245544433594e+00 -6.053838133811950684e-01 1.300000000000000000e+01
1.697779464721680043e+01 -2.101077842712401988e+01 -1.415687561035156028e+00 1.200000000000000000e+01
1.634389519691467063e+00 -2.029867172241210938e+00 -6.982938051223754883e-01 1.600000000000000000e+01
1.903280973434448020e+00 -2.365512609481811968e+00 -7.009474635124206543e-01 1.200000000000000000e+01
2.267718791961669922e+00 -2.819465398788452148e+00 -7.033219337463378906e-01 1.200000000000000000e+01
2.812859773635863814e+00 -3.499742746353148970e+00 -7.111510634422302246e-01 1.100000000000000000e+01
3.588703155517578125e+00 -4.468235492706298828e+00 -7.036736011505126953e-01 1.500000000000000000e+01
4.440581798553466797e+00 -5.530872344970703125e+00 -6.205489039421081543e-01 8.000000000000000000e+00
1.688685035705566051e+01 -2.104810523986816051e+01 -1.414222240447998047e+00 1.200000000000000000e+01
1.627294063568115012e+00 -2.035559892654418945e+00 -6.982938051223754883e-01 1.300000000000000000e+01
1.893795847892761008e+00 -2.370619535446166992e+00 -7.004975676536560059e-01 1.300000000000000000e+01
2.257863283157349077e+00 -2.827364206314086914e+00 -7.033219337463378906e-01 1.200000000000000000e+01
2.796930074691772017e+00 -3.504908084869385210e+00 -7.102124691009521484e-01 1.100000000000000000e+01
3.561945438385010210e+00 -4.466766834259033203e+00 -7.014799118041992188e-01 1.800000000000000000e+01
4.413796901702880859e+00 -5.536991596221923828e+00 -6.195030212402343750e-01 8.000000000000000000e+00
1.678341102600098012e+01 -2.106942939758301137e+01 -1.411710143089293990e+00 1.200000000000000000e+01
1.623781800270081010e+00 -2.045767068862915039e+00 -6.998466849327087402e-01 1.400000000000000000e+01
1.887931227684020996e+00 -2.380269050598144975e+00 -7.013973593711853027e-01 1.300000000000000000e+01
2.249199867248535156e+00 -2.836766719818114790e+00 -7.037035822868347168e-01 1.100000000000000000e+01
2.787132024765015093e+00 -3.517746448516846147e+00 -7.108381986618041992e-01 1.100000000000000000e+01
3.551260709762572798e+00 -4.485398769378662109e+00 -7.024549245834350586e-01 3.300000000000000000e+01
4.453793525695800781e+00 -5.627354621887207031e+00 -6.278699636459350586e-01 7.000000000000000000e+00
1.666515922546387074e+01 -2.107149124145508168e+01 -1.407941937446594016e+00 1.200000000000000000e+01
1.619022250175476074e+00 -2.054457426071166992e+00 -7.008819580078125000e-01 1.500000000000000000e+01
1.874788522720336914e+00 -2.380720615386962891e+00 -6.995977759361267090e-01 1.300000000000000000e+01
2.250213146209716797e+00 -2.858484268188477007e+00 -7.071381211280822754e-01 1.200000000000000000e+01
2.772393226623535156e+00 -3.524348735809326172e+00 -7.102124691009521484e-01 1.100000000000000000e+01
3.525767803192139116e+00 -4.485282421112061435e+00 -7.005049586296081543e-01 3.100000000000000000e+01
4.472284317016601562e+00 -5.691431522369384766e+00 -6.332736015319824219e-01 7.000000000000000000e+00
1.654463386535644887e+01 -2.106984329223633168e+01 -1.403964400291443093e+00 2.500000000000000000e+01
1.613391280174254927e+00 -2.061336278915404829e+00 -7.013996243476867676e-01 1.600000000000000000e+01
1.870485067367553933e+00 -2.391529560089110884e+00 -7.009474635124206543e-01 1.300000000000000000e+01
2.233466386795043945e+00 -2.856650590896606001e+00 -7.048484086990356445e-01 1.200000000000000000e+01
2.765555381774901900e+00 -3.539749383926392046e+00 -7.114639282226562500e-01 1.100000000000000000e+01
3.497437238693236861e+00 -4.479737758636474609e+00 -6.978238821029663086e-01 2.600000000000000000e+01
4.472999572753906250e+00 -5.731361389160156250e+00 -6.360626220703125000e-01 1.000000000000000000e+01
1.643291091918944957e+01 -2.107104301452637074e+01 -1.400405526161194070e+00 1.200000000000000000e+01
1.610927581787108931e+00 -2.073057174682617188e+00 -7.034701704978942871e-01 1.500000000000000000e+01
1.868101716041564941e+00 -2.405740261077880859e+00 -7.031970024108886719e-01 1.300000000000000000e+01
2.222277402877808061e+00 -2.862878561019897017e+00 -7.044668197631835938e-01 1.100000000000000000e+01
2.756814718246459961e+00 -3.554064035415648970e+00 -7.124025821685791016e-01 1.000000000000000000e+01
3.478130340576171875e+00 -4.487212181091308594e+00 -6.970926523208618164e-01 3.300000000000000000e+01
4.495677471160888672e+00 -5.802062988281250000e+00 -6.421635150909423828e-01 7.000000000000000000e+00
1.627366638183594105e+01 -2.101773071289062855e+01 -1.393078446388245073e+00 1.200000000000000000e+01
1.595060110092163086e+00 -2.068239212036132812e+00 -6.998466849327087402e-01 1.600000000000000000e+01
1.854513525962830034e+00 -2.406396865844727007e+00 -7.013973593711853027e-01 1.300000000000000000e+01
2.218958377838135210e+00 -2.880336046218872070e+00 -7.067565321922302246e-01 1.200000000000000000e+01
2.746179819107056108e+00 -3.567275047302246094e+00 -7.130283117294311523e-01 1.000000000000000000e+01
3.464081287384033203e+00 -4.503076553344726562e+00 -6.975800991058349609e-01 3.300000000000000000e+01
4.465879917144775391e+00 -5.807445526123046875e+00 -6.409433484077453613e-01 1.000000000000000000e+01
1.616731643676758168e+01 -2.103922843933105113e+01 -1.390566349029541016e+00 1.200000000000000000e+01
1.586656451225280984e+00 -2.072260618209838867e+00 -6.993290781974792480e-01 1.600000000000000000e+01
1.849654793739319070e+00 -2.417498588562012163e+00 -7.027471065521240234e-01 1.300000000000000000e+01
2.206505060195922852e+00 -2.884945154190063032e+00 -7.059932947158813477e-01 1.200000000000000000e+01
2.728912830352783203e+00 -3.570561408996582031e+00 -7.117767930030822754e-01 1.000000000000000000e+01
3.508584976196289062e+00 -4.594021797180175781e+00 -7.097670435905456543e-01 1.800000000000000000e+01
4.464925289154052734e+00 -5.848337173461914062e+00 -6.437323093414306641e-01 1.000000000000000000e+01
1.611073684692383168e+01 -2.111776542663573863e+01 -1.392031788825988992e+00 1.200000000000000000e+01
1.589130640029907005e+00 -2.089812755584716797e+00 -7.034701704978942871e-01 1.500000000000000000e+01
1.838090896606445090e+00 -2.418964147567749023e+00 -7.013973593711853027e-01 1.300000000000000000e+01
2.198113679885863814e+00 -2.893809795379639116e+00 -7.063748836517333984e-01 1.200000000000000000e+01
2.724223375320435014e+00 -3.589031696319580078e+00 -7.136540412902832031e-01 1.000000000000000000e+01
3.495730638504027876e+00 -4.608794689178466797e+00 -7.102545499801635742e-01 2.200000000000000000e+01
4.459951877593994141e+00 -5.882162570953369141e+00 -6.458240747451782227e-01 7.000000000000000000e+00
1.584154009819030984e+00 -2.098430871963500977e+00 -7.045054435729980469e-01 1.600000000000000000e+01
1.830809473991394043e+00 -2.426921367645264116e+00 -7.018473148345947266e-01 1.200000000000000000e+01
2.185634851455688032e+00 -2.898329973220825195e+00 -7.056116461753845215e-01 1.200000000000000000e+01
2.714056253433227983e+00 -3.601674318313599077e+00 -7.142797708511352539e-01 1.000000000000000000e+01
3.473651170730590820e+00 -4.613039970397949219e+00 -7.090358138084411621e-01 1.600000000000000000e+01
4.431005001068115234e+00 -5.886552333831787109e+00 -6.446038484573364258e-01 7.000000000000000000e+00
1.575660943984984907e+00 -2.102401971817017046e+00 -7.039877772331237793e-01 1.600000000000000000e+01
1.822326779365539995e+00 -2.433297157287598100e+00 -7.018473148345947266e-01 1.100000000000000000e+01
2.173151254653931108e+00 -2.902798414230347124e+00 -7.048484086990356445e-01 1.300000000000000000e+01
2.707384109497069868e+00 -3.619035005569458008e+00 -7.158440947532653809e-01 1.100000000000000000e+01
3.431379079818726030e+00 -4.590158462524414062e+00 -7.036736011505126953e-01 1.600000000000000000e+01
4.430705070495604581e+00 -5.929115295410156250e+00 -6.475671529769897461e-01 7.000000000000000000e+00
1.557934045791625977e+00 -2.093940019607543945e+00 -6.993290781974792480e-01 1.500000000000000000e+01
1.821960806846619096e+00 -2.450590610504149947e+00 -7.049965858459472656e-01 1.300000000000000000e+01
2.167689800262451172e+00 -2.916669130325316939e+00 -7.063748836517333984e-01 1.400000000000000000e+01
2.690023660659790039e+00 -3.622120141983031782e+00 -7.145926356315612793e-01 1.100000000000000000e+01
3.327793121337891069e+00 -4.484146595001220703e+00 -6.856369376182556152e-01 1.900000000000000000e+01
4.402859210968017578e+00 -5.934944629669188565e+00 -6.465212702751159668e-01 7.000000000000000000e+00
1.551763057708740012e+00 -2.100919246673583984e+00 -6.998466849327087402e-01 1.600000000000000000e+01
1.811081051826477051e+00 -2.453799724578856978e+00 -7.040967941284179688e-01 1.200000000000000000e+01
2.158661127090454102e+00 -2.925797939300537109e+00 -7.067565321922302246e-01 1.700000000000000000e+01
2.676191568374633789e+00 -3.629897832870482954e+00 -7.142797708511352539e-01 1.000000000000000000e+01
3.297991037368773970e+00 -4.476557254791259766e+00 -6.827120780944824219e-01 2.100000000000000000e+01
4.370300769805908203e+00 -5.934234142303466797e+00 -6.447781920433044434e-01 1.200000000000000000e+01
1.552416324615478960e+00 -2.117228746414185014e+00 -7.034701704978942871e-01 1.600000000000000000e+01
1.796745896339416948e+00 -2.452246904373168945e+00 -7.018473148345947266e-01 1.200000000000000000e+01
2.156555414199829102e+00 -2.944402217864989790e+00 -7.094278335571289062e-01 1.700000000000000000e+01
2.663504600524901900e+00 -3.639217376708983931e+00 -7.142797708511352539e-01 1.000000000000000000e+01
3.269454717636107954e+00 -4.470416545867919922e+00 -6.800309419631958008e-01 2.100000000000000000e+01
4.351911544799804688e+00 -5.952670097351074219e+00 -6.451268196105957031e-01 1.100000000000000000e+01
1.544645905494689941e+00 -2.122904300689696822e+00 -7.034701704978942871e-01 1.400000000000000000e+01
