-6.837939739227294922e+00 2.754380941390991211e+00 -6.449524760246276855e-01 3.000000000000000000e+00
-1.153086757659911932e+01 4.649411678314208984e+00 -6.515826582908630371e-01 3.000000000000000000e+00
-3.291094589233397727e+01 1.328352355957031072e+01 -6.194906234741210938e-01 1.400000000000000000e+01
-2.266675233840941939e+00 9.185585975646972656e-01 -6.553298234939575195e-01 1.900000000000000000e+01
-6.082284927368164062e+01 2.466050910949707031e+01 1.145610809326172097e+00 4.600000000000000000e+01
-2.627467155456542969e+00 1.065835475921631081e+00 -6.546075940132141113e-01 1.400000000000000000e+01
-3.088900089263916016e+00 1.253644347190856934e+00 -6.479873657226562500e-01 1.100000000000000000e+01
-3.791994810104370117e+00 1.540540456771851030e+00 -6.482644081115722656e-01 9.000000000000000000e+00
-4.917094230651854581e+00 1.999624729156493919e+00 -6.517572402954101562e-01 9.000000000000000000e+00
-6.817210674285888672e+00 2.773727893829346147e+00 -6.439066529273986816e-01 2.000000000000000000e+00
-1.146647548675536932e+01 4.670046329498291016e+00 -6.488611698150634766e-01 3.000000000000000000e+00
-3.288659667968750000e+01 1.340738201141357067e+01 -6.199094653129577637e-01 1.400000000000000000e+01
-2.267030954360961914e+00 9.279287457466125488e-01 -6.563650965690612793e-01 1.800000000000000000e+01
-6.082892608642578125e+01 2.491056060791015980e+01 1.147356152534485085e+00 4.600000000000000000e+01
-2.616517543792725053e+00 1.072045326232909934e+00 -6.528079509735107422e-01 1.300000000000000000e+01
-3.082688808441162109e+00 1.263674259185791016e+00 -6.476057171821594238e-01 1.000000000000000000e+01
-3.782939195632935014e+00 1.552267789840698020e+00 -6.476386785507202148e-01 9.000000000000000000e+00
-4.917429447174072266e+00 2.019793272018433061e+00 -6.527321934700012207e-01 9.000000000000000000e+00
-6.779844284057617188e+00 2.786147832870482954e+00 -6.412919759750366211e-01 3.000000000000000000e+00
-1.143163299560547053e+01 4.702445030212402344e+00 -6.478144526481628418e-01 3.000000000000000000e+00
-3.288397216796875000e+01 1.354036903381348012e+01 -6.207472085952758789e-01 1.400000000000000000e+01
-2.269134044647216797e+00 9.380506277084350586e-01 -6.579180359840393066e-01 1.900000000000000000e+01
-2.598354339599608931e+00 1.075211167335510032e+00 -6.492087244987487793e-01 1.400000000000000000e+01
-3.087328672409058061e+00 1.278182148933411089e+00 -6.495138406753540039e-01 1.200000000000000000e+01
-3.770198106765747070e+00 1.562438249588012917e+00 -6.463872194290161133e-01 9.000000000000000000e+00
-4.899347305297851562e+00 2.032382249832152876e+00 -6.512697935104370117e-01 9.000000000000000000e+00
-6.794000148773193359e+00 2.819725513458251953e+00 -6.435580253601074219e-01 3.000000000000000000e+00
-3.288451385498046875e+01 1.367503643035889027e+01 -6.216546893119812012e-01 1.400000000000000000e+01
-2.269411087036132812e+00 9.474542140960693359e-01 -6.589533090591430664e-01 1.900000000000000000e+01
-6.083805465698242188e+01 2.541168975830078125e+01 1.150846600532531960e+00 4.500000000000000000e+01
-2.607171535491942915e+00 1.089534401893615945e+00 -6.523580551147460938e-01 1.500000000000000000e+01
-3.075603008270264116e+00 1.285921931266784890e+00 -6.479873657226562500e-01 1.100000000000000000e+01
-3.764721393585205078e+00 1.575589179992676003e+00 -6.463872194290161133e-01 9.000000000000000000e+00
-4.875744819641113281e+00 2.042568683624268022e+00 -6.490761041641235352e-01 1.100000000000000000e+01
-6.798816204071044922e+00 2.849585056304932085e+00 -6.449524760246276855e-01 2.000000000000000000e+00
-1.128065395355224965e+01 4.732686042785645419e+00 -6.411154866218566895e-01 3.000000000000000000e+00
-3.283657836914063211e+01 1.378974151611327947e+01 -6.216546893119812012e-01 1.400000000000000000e+01
-2.255575418472290039e+00 9.504736065864562988e-01 -6.558474898338317871e-01 1.900000000000000000e+01
-6.084558486938477273e+01 2.565213775634765980e+01 1.152591824531554954e+00 4.500000000000000000e+01
-2.603544235229492188e+00 1.098174095153809038e+00 -6.523580551147460938e-01 1.500000000000000000e+01
-3.056851387023925781e+00 1.290007352828979048e+00 -6.449344158172607422e-01 1.100000000000000000e+01
-3.763115167617797852e+00 1.589602112770081010e+00 -6.470129489898681641e-01 9.000000000000000000e+00
-4.872601509094238281e+00 2.060272216796875000e+00 -6.495636105537414551e-01 1.100000000000000000e+01
-6.752630233764648438e+00 2.856590032577515093e+00 -6.414662599563598633e-01 2.000000000000000000e+00
-1.126489734649658025e+01 4.770068168640136719e+00 -6.411154866218566895e-01 3.000000000000000000e+00
-3.283117675781250000e+01 1.391572380065917969e+01 -6.224226355552673340e-01 1.400000000000000000e+01
-2.243355751037598100e+00 9.545592665672302246e-01 -6.532592773437500000e-01 1.700000000000000000e+01
-6.084766769409179688e+01 2.590353584289551137e+01 1.154337048530579057e+00 4.400000000000000000e+01
-2.601487874984741211e+00 1.108018994331360085e+00 -6.528079509735107422e-01 1.400000000000000000e+01
-3.061360359191894975e+00 1.304517984390259011e+00 -6.468424797058105469e-01 1.200000000000000000e+01
-3.750275373458861861e+00 1.599628090858459029e+00 -6.457614898681640625e-01 9.000000000000000000e+00
-4.865380287170410156e+00 2.077268123626708984e+00 -6.495636105537414551e-01 1.100000000000000000e+01
-6.742617607116699219e+00 2.880143880844116211e+00 -6.414662599563598633e-01 2.000000000000000000e+00
-1.124817848205566051e+01 4.809360980987548828e+00 -6.411154866218566895e-01 3.000000000000000000e+00
-3.280446243286132812e+01 1.403968334197998047e+01 -6.228414773941040039e-01 7.000000000000000000e+00
-2.241785049438477007e+00 9.631468653678894043e-01 -6.537768840789794922e-01 1.900000000000000000e+01
-2.590443611145019975e+00 1.114013671875000000e+00 -6.510083675384521484e-01 1.300000000000000000e+01
-3.058591604232788086e+00 1.315972089767456055e+00 -6.472241282463073730e-01 1.100000000000000000e+01
-3.730154752731322798e+00 1.606458425521851030e+00 -6.432585120201110840e-01 9.000000000000000000e+00
-4.859922409057617188e+00 2.095024585723876953e+00 -6.498073339462280273e-01 1.100000000000000000e+01
-6.714228153228759766e+00 2.895771980285644975e+00 -6.397231221199035645e-01 3.000000000000000000e+00
-1.123132228851318004e+01 4.848595142364501953e+00 -6.411154866218566895e-01 3.000000000000000000e+00
-3.280298233032227273e+01 1.417473030090332031e+01 -6.237490177154541016e-01 7.000000000000000000e+00
-2.243726253509521040e+00 9.732726216316223145e-01 -6.553298234939575195e-01 1.800000000000000000e+01
-2.575814008712768999e+00 1.118392467498779075e+00 -6.483089327812194824e-01 1.400000000000000000e+01
-3.053979396820067915e+00 1.326640605926513894e+00 -6.472241282463073730e-01 1.100000000000000000e+01
-3.735393524169921875e+00 1.624195337295532005e+00 -6.451357603073120117e-01 9.000000000000000000e+00
-6.098950958251953125e+01 2.653165245056151988e+01 8.166464805603027344e+00 6.300000000000000000e+01
-4.834378242492675781e+00 2.104054212570189986e+00 -6.473699808120727539e-01 9.000000000000000000e+00
-6.696772098541259766e+00 2.916009664535522017e+00 -6.390259265899658203e-01 2.000000000000000000e+00
-1.121432876586914062e+01 4.887770175933837891e+00 -6.411154866218566895e-01 3.000000000000000000e+00
-3.275330352783203125e+01 1.428914737701416016e+01 -6.237490177154541016e-01 7.000000000000000000e+00
-2.240315198898314986e+00 9.810987114906311035e-01 -6.553298234939575195e-01 1.800000000000000000e+01
-6.093939590454102273e+01 2.669979858398437855e+01 1.161318063735961914e+00 4.300000000000000000e+01
-2.577248811721802202e+00 1.129724025726317915e+00 -6.496586203575134277e-01 1.500000000000000000e+01
-3.051127910614014116e+00 1.338081359863281028e+00 -6.476057171821594238e-01 1.100000000000000000e+01
-3.729701280593872070e+00 1.637224435806273970e+00 -6.451357603073120117e-01 9.000000000000000000e+00
-6.095105361938477273e+01 2.676832962036133168e+01 8.173776626586914062e+00 6.300000000000000000e+01
-4.808830261230468750e+00 2.112931251525878906e+00 -6.449325680732727051e-01 1.100000000000000000e+01
-6.704792022705078125e+00 2.947386026382445845e+00 -6.407690048217773438e-01 2.000000000000000000e+00
-1.119719886779784979e+01 4.926885604858398438e+00 -6.411154866218566895e-01 3.000000000000000000e+00
-3.268492507934570312e+01 1.439533042907715021e+01 -6.233999729156494141e-01 7.000000000000000000e+00
-2.235110044479370117e+00 9.881317615509033203e-01 -6.548121571540832520e-01 1.900000000000000000e+01
-2.571507453918457031e+00 1.137924790382385032e+00 -6.492087244987487793e-01 1.400000000000000000e+01
-6.090110397338867188e+01 2.696222496032714844e+01 3.490494251251221147e+00 4.300000000000000000e+01
-3.035667419433594194e+00 1.343955039978026900e+00 -6.453160047531127930e-01 1.200000000000000000e+01
-3.727575540542602983e+00 1.651834130287169966e+00 -6.457614898681640625e-01 9.000000000000000000e+00
-6.098427200317382812e+01 2.703724479675292969e+01 8.190838813781738281e+00 6.300000000000000000e+01
-4.815942287445068359e+00 2.136143207550048828e+00 -6.468824744224548340e-01 9.000000000000000000e+00
-6.683536052703857422e+00 2.965923070907593218e+00 -6.397231221199035645e-01 2.000000000000000000e+00
-1.117993259429931996e+01 4.965940952301025391e+00 -6.411154866218566895e-01 3.000000000000000000e+00
-3.276238250732421875e+01 1.456620216369629084e+01 -6.258432865142822266e-01 1.400000000000000000e+01
-2.229882955551147017e+00 9.951404333114624023e-01 -6.542945504188537598e-01 1.900000000000000000e+01
-2.576416254043579102e+00 1.150868177413939986e+00 -6.514582633972167969e-01 1.500000000000000000e+01
-3.029165029525756836e+00 1.353742241859436035e+00 -6.449344158172607422e-01 1.200000000000000000e+01
-3.718180656433105025e+00 1.663222551345824973e+00 -6.451357603073120117e-01 9.000000000000000000e+00
-4.803020954132080078e+00 2.150507450103760210e+00 -6.461512446403503418e-01 1.100000000000000000e+01
-6.627685070037841797e+00 2.968872308731079102e+00 -6.353653669357299805e-01 3.000000000000000000e+00
-1.109692192077637074e+01 4.975519180297851562e+00 -6.373472809791564941e-01 3.000000000000000000e+00
-3.276606750488281250e+01 1.470503807067870916e+01 -6.268904209136962891e-01 7.000000000000000000e+00
-2.217588663101195845e+00 9.989508986473083496e-01 -6.517063379287719727e-01 1.900000000000000000e+01
-6.083876800537108664e+01 2.741864204406737926e+01 1.164808511734009011e+00 4.200000000000000000e+01
-2.568830251693726030e+00 1.158252477645874023e+00 -6.505584716796875000e-01 1.500000000000000000e+01
-3.029789924621582031e+00 1.366729617118835005e+00 -6.460792422294616699e-01 1.100000000000000000e+01
-3.701550006866455078e+00 1.671313881874084029e+00 -6.432585120201110840e-01 9.000000000000000000e+00
-4.791867256164550781e+00 2.165625095367432085e+00 -6.456637978553771973e-01 1.100000000000000000e+01
-6.637250900268554688e+00 3.001018524169921875e+00 -6.372827887535095215e-01 2.000000000000000000e+00
-1.099942493438721058e+01 4.977991104125976562e+00 -6.327416896820068359e-01 3.000000000000000000e+00
-3.270360946655272727e+01 1.481437301635742010e+01 -6.266810297966003418e-01 7.000000000000000000e+00
-2.223233938217163086e+00 1.009907603263854980e+00 -6.542945504188537598e-01 2.000000000000000000e+01
-2.552760839462279829e+00 1.160670876502990945e+00 -6.474091410636901855e-01 1.400000000000000000e+01
-3.023694276809691939e+00 1.375428318977355957e+00 -6.456976532936096191e-01 1.100000000000000000e+01
-3.692685604095458984e+00 1.681297302246093972e+00 -6.426327824592590332e-01 9.000000000000000000e+00
-4.779621124267578125e+00 2.178198814392089844e+00 -6.449325680732727051e-01 9.000000000000000000e+00
-6.616913318634033203e+00 3.016896009445189986e+00 -6.362369060516357422e-01 2.000000000000000000e+00
-1.099826717376708984e+01 5.019155502319335938e+00 -6.335790753364562988e-01 3.000000000000000000e+00
-3.274421691894531250e+01 1.495692157745360973e+01 -6.283564567565917969e-01 7.000000000000000000e+00
-2.223207473754882812e+00 1.019272208213805930e+00 -6.553298234939575195e-01 1.800000000000000000e+01
-6.083734512329102273e+01 2.790490341186523082e+01 1.168298959732056108e+00 4.200000000000000000e+01
-2.545151710510253906e+00 1.167949080467223899e+00 -6.465093493461608887e-01 1.400000000000000000e+01
-3.015306472778319868e+00 1.384336352348328081e+00 -6.449344158172607422e-01 1.100000000000000000e+01
-3.686794281005858931e+00 1.694176912307739036e+00 -6.426327824592590332e-01 9.000000000000000000e+00
-4.759364128112792969e+00 2.189062833786011186e+00 -6.432263851165771484e-01 1.100000000000000000e+01
-6.620821475982666016e+00 3.046637773513793945e+00 -6.376314163208007812e-01 3.000000000000000000e+00
-1.092988586425781072e+01 5.034121036529541016e+00 -6.306482553482055664e-01 3.000000000000000000e+00
-3.279713439941406250e+01 1.511968612670898082e+01 -6.303809285163879395e-01 7.000000000000000000e+00
-2.214018344879149947e+00 1.025365591049193892e+00 -6.537768840789794922e-01 1.900000000000000000e+01
-2.547720432281494141e+00 1.180991411209106001e+00 -6.483089327812194824e-01 1.400000000000000000e+01
-3.004625558853148970e+00 1.393426179885864036e+00 -6.437895298004150391e-01 1.200000000000000000e+01
-3.680261850357056108e+00 1.708320736885071023e+00 -6.426327824592590332e-01 9.000000000000000000e+00
-4.750923633575438565e+00 2.207321405410767046e+00 -6.432263851165771484e-01 1.100000000000000000e+01
-6.580166816711425781e+00 3.058600425720214844e+00 -6.348424553871154785e-01 3.000000000000000000e+00
-1.091047573089599965e+01 5.076051712036132812e+00 -6.306482553482055664e-01 3.000000000000000000e+00
-3.273883819580078125e+01 1.524550628662109020e+01 -6.303809285163879395e-01 7.000000000000000000e+00
-2.206925392150878906e+00 1.031451821327209029e+00 -6.527416110038757324e-01 1.900000000000000000e+01
-6.081230545043945312e+01 2.843481254577637074e+01 1.171789526939392090e+00 4.100000000000000000e+01
-2.554173231124877930e+00 1.194831728935241921e+00 -6.510083675384521484e-01 1.400000000000000000e+01
-2.994408845901488814e+00 1.401409149169922097e+00 -6.426447033882141113e-01 1.200000000000000000e+01
-3.659965515136719194e+00 1.714453220367432085e+00 -6.401298046112060547e-01 9.000000000000000000e+00
-4.736000537872313565e+00 2.220520973205565962e+00 -6.422514319419860840e-01 1.100000000000000000e+01
-6.547804355621337891e+00 3.071397542953491211e+00 -6.327506899833679199e-01 2.000000000000000000e+00
-2.193188667297362837e+00 1.033439278602600098e+00 -6.496357917785644531e-01 1.600000000000000000e+01
-2.538069248199462891e+00 1.197031140327454057e+00 -6.478590369224548340e-01 1.500000000000000000e+01
-2.988215923309326172e+00 1.409971714019774947e+00 -6.422630548477172852e-01 1.100000000000000000e+01
-3.647416591644287109e+00 1.722568511962891069e+00 -6.388783454895019531e-01 9.000000000000000000e+00
-4.732590675354003906e+00 2.237085342407227007e+00 -6.427389383316040039e-01 1.100000000000000000e+01
-6.538123130798339844e+00 3.091952800750731978e+00 -6.327506899833679199e-01 2.000000000000000000e+00
-1.087657070159911932e+01 5.148300647735595703e+00 -6.306482553482055664e-01 3.000000000000000000e+00
-3.263700866699218750e+01 1.546230220794677912e+01 -6.303809285163879395e-01 7.000000000000000000e+00
-2.196546554565430132e+00 1.044406771659851074e+00 -6.517063379287719727e-01 1.900000000000000000e+01
-2.532115697860718218e+00 1.205045938491821067e+00 -6.474091410636901855e-01 1.400000000000000000e+01
-2.992138862609862837e+00 1.424613714218140093e+00 -6.441711783409118652e-01 1.100000000000000000e+01
-3.652081012725830078e+00 1.740388631820678933e+00 -6.407555937767028809e-01 9.000000000000000000e+00
-4.708627223968505859e+00 2.245899915695189986e+00 -6.405452489852905273e-01 9.000000000000000000e+00
-6.512905120849609375e+00 3.107891798019409180e+00 -6.313561797142028809e-01 2.000000000000000000e+00
-1.079365253448485973e+01 5.155247211456298828e+00 -6.268801093101501465e-01 3.000000000000000000e+00
-2.194629430770874023e+00 1.052903413772583008e+00 -6.522240042686462402e-01 1.700000000000000000e+01
-2.520867109298706055e+00 1.210503101348876953e+00 -6.456094980239868164e-01 1.400000000000000000e+01
-2.983608484268188032e+00 1.433349251747130904e+00 -6.434079408645629883e-01 1.200000000000000000e+01
-3.635302066802978960e+00 1.747990131378174050e+00 -6.388783454895019531e-01 9.000000000000000000e+00
-4.691815376281738281e+00 2.258018255233765093e+00 -6.393265724182128906e-01 1.000000000000000000e+01
-6.502017021179199219e+00 3.130607128143310991e+00 -6.313561797142028809e-01 3.000000000000000000e+00
-1.066044044494629084e+01 5.137400150299072266e+00 -6.201810836791992188e-01 3.000000000000000000e+00
-2.187463045120238814e+00 1.058874368667602983e+00 -6.511887311935424805e-01 1.800000000000000000e+01
-2.530656099319458008e+00 1.226092696189879927e+00 -6.492087244987487793e-01 1.400000000000000000e+01
-2.964453697204589844e+00 1.436904788017272949e+00 -6.403549909591674805e-01 1.200000000000000000e+01
-3.639841794967650923e+00 1.765842437744141069e+00 -6.407555937767028809e-01 9.000000000000000000e+00
-4.687476158142089844e+00 2.276116132736206055e+00 -6.398140788078308105e-01 1.000000000000000000e+01
-6.480296611785888672e+00 3.148060798645019975e+00 -6.303103566169738770e-01 2.000000000000000000e+00
-1.064244270324707031e+01 5.174580574035645419e+00 -6.201810836791992188e-01 3.000000000000000000e+00
-2.171602249145507812e+00 1.060569047927856001e+00 -6.475652456283569336e-01 1.900000000000000000e+01
-6.085609054565429688e+01 2.973410797119140980e+01 1.182260870933532937e+00 3.900000000000000000e+01
-2.526360988616942915e+00 1.234918832778931108e+00 -6.492087244987487793e-01 1.400000000000000000e+01
-2.970001935958861861e+00 1.452418804168700950e+00 -6.426447033882141113e-01 1.100000000000000000e+01
-3.621236085891724077e+00 1.772458076477051003e+00 -6.385654807090759277e-01 1.000000000000000000e+01
-4.665241241455078125e+00 2.285478115081787109e+00 -6.378641724586486816e-01 1.000000000000000000e+01
-6.462112426757813388e+00 3.167154788970946822e+00 -6.296131014823913574e-01 3.000000000000000000e+00
-1.066017818450927912e+01 5.229290485382080078e+00 -6.222745180130004883e-01 3.000000000000000000e+00
-2.174818754196166992e+00 1.071558237075806108e+00 -6.496357917785644531e-01 1.900000000000000000e+01
-2.516791582107543945e+00 1.241144180297852007e+00 -6.478590369224548340e-01 1.200000000000000000e+01
-2.966674566268920898e+00 1.463645815849303977e+00 -6.430262923240661621e-01 1.200000000000000000e+01
-3.602628469467163086e+00 1.778965473175049050e+00 -6.363754272460937500e-01 9.000000000000000000e+00
-4.659014701843261719e+00 2.302628517150878906e+00 -6.381078958511352539e-01 9.000000000000000000e+00
-6.474235534667968750e+00 3.201172590255736861e+00 -6.318791508674621582e-01 3.000000000000000000e+00
-1.060605812072754084e+01 5.248752117156982422e+00 -6.201810836791992188e-01 3.000000000000000000e+00
-2.174524784088135210e+00 1.080862998962401900e+00 -6.506710648536682129e-01 1.900000000000000000e+01
-2.503720045089722124e+00 1.245581865310668945e+00 -6.456094980239868164e-01 1.400000000000000000e+01
-2.965062618255614790e+00 1.475741982460021973e+00 -6.437895298004150391e-01 1.100000000000000000e+01
-3.601701259613037109e+00 1.794172525405884011e+00 -6.373140215873718262e-01 1.000000000000000000e+01
-4.638512611389160156e+00 2.312677145004272017e+00 -6.364017128944396973e-01 1.000000000000000000e+01
-6.438061237335205078e+00 3.211302042007445845e+00 -6.294387578964233398e-01 3.000000000000000000e+00
-1.052691555023193004e+01 5.255410671234130859e+00 -6.166222095489501953e-01 3.000000000000000000e+00
-2.174192428588867188e+00 1.090178728103637917e+00 -6.517063379287719727e-01 1.900000000000000000e+01
-6.089886474609375000e+01 3.054907608032226918e+01 1.189241886138916016e+00 3.800000000000000000e+01
-2.494131803512572798e+00 1.251691699028014915e+00 -6.442598104476928711e-01 1.200000000000000000e+01
-2.952875137329102007e+00 1.482559442520142046e+00 -6.422630548477172852e-01 1.200000000000000000e+01
-3.602476596832274947e+00 1.810281753540039062e+00 -6.385654807090759277e-01 1.000000000000000000e+01
-4.617997646331787109e+00 2.322610855102539062e+00 -6.346955299377441406e-01 9.000000000000000000e+00
-6.435711383819580078e+00 3.238233089447021040e+00 -6.303103566169738770e-01 3.000000000000000000e+00
-1.051564216613770064e+01 5.295717716217041016e+00 -6.170409321784973145e-01 3.000000000000000000e+00
-2.165393352508544922e+00 1.094767808914185014e+00 -6.501534581184387207e-01 1.800000000000000000e+01
-2.496922492980957031e+00 1.263475060462952104e+00 -6.460594534873962402e-01 1.500000000000000000e+01
-2.942687749862670898e+00 1.489683270454406960e+00 -6.411182284355163574e-01 1.200000000000000000e+01
-3.594691753387451172e+00 1.821325182914734109e+00 -6.382526159286499023e-01 1.000000000000000000e+01
-4.615581989288330078e+00 2.340605497360229048e+00 -6.354267597198486328e-01 7.000000000000000000e+00
-6.435598373413085938e+00 3.264965295791625977e+00 -6.313561797142028809e-01 3.000000000000000000e+00
-1.044816017150879084e+01 5.305240631103515625e+00 -6.141101121902465820e-01 3.000000000000000000e+00
-2.152953624725341797e+00 1.097931504249572976e+00 -6.475652456283569336e-01 1.900000000000000000e+01
-2.501175642013549805e+00 1.276612877845763938e+00 -6.483089327812194824e-01 1.400000000000000000e+01
-2.930475950241088867e+00 1.496374726295470969e+00 -6.395917534828186035e-01 1.200000000000000000e+01
-3.574240446090697798e+00 1.826670289039612038e+00 -6.357496380805969238e-01 9.000000000000000000e+00
-4.607383251190186435e+00 2.356702566146851030e+00 -6.354267597198486328e-01 7.000000000000000000e+00
-6.399331092834472656e+00 3.274703264236450195e+00 -6.289158463478088379e-01 2.000000000000000000e+00
-1.042957782745360973e+01 5.341679096221923828e+00 -6.141101121902465820e-01 3.000000000000000000e+00
-2.154068470001221147e+00 1.108466982841491921e+00 -6.491181850433349609e-01 1.700000000000000000e+01
-6.093120956420897727e+01 3.136817932128905895e+01 1.196222901344299094e+00 3.700000000000000000e+01
-2.487817525863647017e+00 1.281310200691222922e+00 -6.460594534873962402e-01 1.500000000000000000e+01
-2.926717042922974077e+00 1.508004665374756081e+00 -6.399733424186706543e-01 1.200000000000000000e+01
-3.560498476028441939e+00 1.836136698722838911e+00 -6.344981789588928223e-01 9.000000000000000000e+00
-4.593422889709472656e+00 2.370842218399047852e+00 -6.346955299377441406e-01 6.000000000000000000e+00
-6.383745193481445312e+00 3.296307802200316939e+00 -6.285672187805175781e-01 2.000000000000000000e+00
-1.037444305419922053e+01 5.361530303955078125e+00 -6.120166778564453125e-01 3.000000000000000000e+00
-2.151900768280028853e+00 1.116869211196898970e+00 -6.496357917785644531e-01 1.900000000000000000e+01
-2.474683046340941939e+00 1.285494923591613992e+00 -6.438099145889282227e-01 1.400000000000000000e+01
-2.931887626647949219e+00 1.523643493652343972e+00 -6.422630548477172852e-01 1.300000000000000000e+01
-3.548810005187987837e+00 1.845819473266602007e+00 -6.335595846176147461e-01 6.000000000000000000e+00
-4.581597328186035156e+00 2.385028600692749023e+00 -6.342080831527709961e-01 7.000000000000000000e+00
-6.375734329223632812e+00 3.320411682128905806e+00 -6.289158463478088379e-01 2.000000000000000000e+00
-1.032024192810058949e+01 5.379248142242431641e+00 -6.099232435226440430e-01 3.000000000000000000e+00
-2.151412010192871094e+00 1.126165747642517090e+00 -6.506710648536682129e-01 1.900000000000000000e+01
-2.477085351943970171e+00 1.297742724418639915e+00 -6.456094980239868164e-01 1.400000000000000000e+01
-2.919595718383789062e+00 1.530222892761230025e+00 -6.407365798950195312e-01 1.300000000000000000e+01
-3.540596008300780806e+00 1.857278227806091087e+00 -6.332467198371887207e-01 4.000000000000000000e+00
-6.099916839599608664e+01 3.201169967651367188e+01 8.458463668823242188e+00 6.300000000000000000e+01
-4.562698841094970703e+00 2.395470380783081055e+00 -6.327456235885620117e-01 9.000000000000000000e+00
-6.364105224609375000e+00 3.342646837234497070e+00 -6.289158463478088379e-01 2.000000000000000000e+00
-2.144051074981689009e+00 1.131865024566649947e+00 -6.496357917785644531e-01 1.900000000000000000e+01
-2.463925361633300781e+00 1.301829576492310014e+00 -6.433600187301635742e-01 1.500000000000000000e+01
-2.900350809097290039e+00 1.533065199851989968e+00 -6.376836895942687988e-01 1.300000000000000000e+01
-3.570759296417235884e+00 1.889024138450623003e+00 -6.398169398307800293e-01 6.000000000000000000e+00
-6.097478103637695312e+01 3.227085876464843750e+01 8.470650672912597656e+00 6.300000000000000000e+01
-4.566589355468750000e+00 2.417884826660155806e+00 -6.344518065452575684e-01 1.000000000000000000e+01
-6.341834545135498047e+00 3.359245777130126953e+00 -6.278699636459350586e-01 2.000000000000000000e+00
-1.028243732452392933e+01 5.451165199279785156e+00 -6.099232435226440430e-01 3.000000000000000000e+00
-2.133464336395264116e+00 1.135338544845581055e+00 -6.475652456283569336e-01 1.900000000000000000e+01
-2.469914674758911133e+00 1.315489530563354048e+00 -6.460594534873962402e-01 1.500000000000000000e+01
-6.089661788940429688e+01 3.243386077880858664e+01 3.615891218185424805e+00 3.500000000000000000e+01
-2.890053033828734907e+00 1.539905071258544922e+00 -6.365388035774230957e-01 1.300000000000000000e+01
-3.547045230865478960e+00 1.891559720039367898e+00 -6.366882920265197754e-01 8.000000000000000000e+00
-4.555044174194335938e+00 2.431145429611206055e+00 -6.339643001556396484e-01 1.000000000000000000e+01
-6.330659866333007812e+00 3.380257606506348100e+00 -6.278699636459350586e-01 2.000000000000000000e+00
-2.134594917297362837e+00 1.145519256591797097e+00 -6.491181850433349609e-01 2.000000000000000000e+01
-2.460157394409180132e+00 1.321336865425110085e+00 -6.447097063064575195e-01 1.400000000000000000e+01
-2.896766185760498047e+00 1.556488513946532981e+00 -6.392101049423217773e-01 1.400000000000000000e+01
-3.523023128509521040e+00 1.894573807716370073e+00 -6.335595846176147461e-01 1.000000000000000000e+01
-4.546529769897460938e+00 2.447030544281005859e+00 -6.339643001556396484e-01 1.000000000000000000e+01
-6.280228614807128906e+00 3.381554603576660156e+00 -6.240351200103759766e-01 2.000000000000000000e+00
-1.024509429931640980e+01 5.521028518676757812e+00 -6.099232435226440430e-01 3.000000000000000000e+00
-2.130180597305297852e+00 1.153707027435302956e+00 -6.491181850433349609e-01 1.900000000000000000e+01
-2.446499347686768022e+00 1.326130151748657005e+00 -6.424602270126342773e-01 1.300000000000000000e+01
-2.892494201660155806e+00 1.568535685539246050e+00 -6.395917534828186035e-01 1.300000000000000000e+01
-3.520931005477904829e+00 1.910913944244384988e+00 -6.344981789588928223e-01 9.000000000000000000e+00
-4.533611774444580078e+00 2.462574958801269975e+00 -6.334768533706665039e-01 1.000000000000000000e+01
-6.281202793121337891e+00 3.413254261016846147e+00 -6.254296302795410156e-01 2.000000000000000000e+00
-1.016065502166748047e+01 5.525973796844482422e+00 -6.061550378799438477e-01 3.000000000000000000e+00
-2.119358539581298828e+00 1.157431960105895996e+00 -6.470476388931274414e-01 1.700000000000000000e+01
-2.443565368652344194e+00 1.335596561431884988e+00 -6.429101228713989258e-01 1.400000000000000000e+01
-2.878388404846190962e+00 1.573913335800170898e+00 -6.376836895942687988e-01 1.400000000000000000e+01
-3.517704963684082031e+00 1.925089359283447044e+00 -6.351239085197448730e-01 9.000000000000000000e+00
-4.518023967742919922e+00 2.474570751190185991e+00 -6.325019001960754395e-01 1.000000000000000000e+01
-6.283228397369384766e+00 3.442818164825439009e+00 -6.268240809440612793e-01 3.000000000000000000e+00
-2.119096994400023970e+00 1.165946960449218972e+00 -6.480829119682312012e-01 1.900000000000000000e+01
-2.441064596176147017e+00 1.344206690788269043e+00 -6.433600187301635742e-01 1.500000000000000000e+01
-2.859673023223876953e+00 1.575369834899901900e+00 -6.346307396888732910e-01 1.700000000000000000e+01
-3.502990484237670898e+00 1.931362271308898926e+00 -6.335595846176147461e-01 8.000000000000000000e+00
-4.517179965972900391e+00 2.492588758468627930e+00 -6.334768533706665039e-01 1.000000000000000000e+01
-6.251450061798095703e+00 3.450985908508300781e+00 -6.247323751449584961e-01 2.000000000000000000e+00
-2.106567621231079102e+00 1.168650984764098899e+00 -6.454946994781494141e-01 1.900000000000000000e+01
-2.438061237335205078e+00 1.353665351867676003e+00 -6.438099145889282227e-01 1.300000000000000000e+01
-2.862737894058227983e+00 1.590108871459960938e+00 -6.365388035774230957e-01 1.600000000000000000e+01
-3.504860162734984907e+00 1.948377132415771040e+00 -6.351239085197448730e-01 9.000000000000000000e+00
-4.499778270721436435e+00 2.503515720367432085e+00 -6.322581768035888672e-01 1.000000000000000000e+01
-6.228920459747313565e+00 3.466972827911376953e+00 -6.236864924430847168e-01 3.000000000000000000e+00
-2.105847597122191939e+00 1.177883267402648926e+00 -6.465299725532531738e-01 2.100000000000000000e+01
-2.424818992614746094e+00 1.357408046722412109e+00 -6.415604352951049805e-01 1.500000000000000000e+01
-2.865734577178955078e+00 1.604888439178467019e+00 -6.384469270706176758e-01 1.300000000000000000e+01
-3.477359533309936968e+00 1.949009776115417036e+00 -6.313694715499877930e-01 9.000000000000000000e+00
-4.485817909240722656e+00 2.516294240951538086e+00 -6.315269470214843750e-01 1.000000000000000000e+01
-6.190718173980712891e+00 3.474068880081177202e+00 -6.210718154907226562e-01 3.000000000000000000e+00
-1.003572845458984020e+01 5.636395454406738281e+00 -6.032242178916931152e-01 3.000000000000000000e+00
-2.106771230697631836e+00 1.188073754310607910e+00 -6.480829119682312012e-01 1.900000000000000000e+01
-2.409883499145507812e+00 1.360116958618164062e+00 -6.388610005378723145e-01 1.200000000000000000e+01
-2.851567029953002930e+00 1.610055685043334961e+00 -6.365388035774230957e-01 1.200000000000000000e+01
-3.480853796005249023e+00 1.966967105865478960e+00 -6.332467198371887207e-01 9.000000000000000000e+00
-4.487374305725097656e+00 2.537800550460814986e+00 -6.329893469810485840e-01 1.000000000000000000e+01
-6.176819324493408203e+00 3.494676351547241211e+00 -6.208975315093994141e-01 3.000000000000000000e+00
-9.953425407409667969e+00 5.635964393615722656e+00 -5.994560718536376953e-01 3.000000000000000000e+00
-2.109328985214232954e+00 1.199239730834960938e+00 -6.501534581184387207e-01 1.800000000000000000e+01
-2.413589715957642046e+00 1.373339533805846946e+00 -6.411104798316955566e-01 1.100000000000000000e+01
-2.844223499298096147e+00 1.619028449058532937e+00 -6.361572146415710449e-01 1.200000000000000000e+01
-3.475682973861693892e+00 1.980083346366882102e+00 -6.335595846176147461e-01 1.000000000000000000e+01
-4.447447776794433594e+00 2.535750865936278853e+00 -6.286020874977111816e-01 1.000000000000000000e+01
-6.171505928039550781e+00 3.520164728164672852e+00 -6.215947866439819336e-01 2.000000000000000000e+00
-9.933691024780273438e+00 5.670673847198486328e+00 -5.994560718536376953e-01 3.000000000000000000e+00
-2.096749782562255859e+00 1.201792001724242942e+00 -6.475652456283569336e-01 1.900000000000000000e+01
-2.407090902328491211e+00 1.380786538124084029e+00 -6.406605839729309082e-01 1.300000000000000000e+01
-2.828337907791138139e+00 1.623083710670470969e+00 -6.338675022125244141e-01 1.200000000000000000e+01
-3.472175836563109907e+00 1.994171261787414995e+00 -6.341853141784667969e-01 1.000000000000000000e+01
-4.452337741851806641e+00 2.559173822402954102e+00 -6.305519938468933105e-01 1.000000000000000000e+01
-6.131545543670654297e+00 3.525794982910155806e+00 -6.188057661056518555e-01 2.000000000000000000e+00
-9.913836479187011719e+00 5.705314636230468750e+00 -5.994560718536376953e-01 3.000000000000000000e+00
-2.077487707138061968e+00 1.200405120849608931e+00 -6.429064869880676270e-01 1.700000000000000000e+01
-2.412378311157227007e+00 1.395033717155456987e+00 -6.433600187301635742e-01 1.500000000000000000e+01
-2.827753067016602007e+00 1.635895967483520952e+00 -6.350123286247253418e-01 1.200000000000000000e+01
-3.453227281570435014e+00 1.999350905418395996e+00 -6.319952607154846191e-01 1.200000000000000000e+01
-4.429636478424072266e+00 2.566737651824951172e+00 -6.286020874977111816e-01 1.000000000000000000e+01
-6.119200706481933594e+00 3.547176599502563032e+00 -6.188057661056518555e-01 3.000000000000000000e+00
-9.893860816955566406e+00 5.739885807037354404e+00 -5.994560718536376953e-01 3.000000000000000000e+00
-2.084969997406005859e+00 1.214455962181091087e+00 -6.465299725532531738e-01 1.900000000000000000e+01
-6.093634796142578125e+01 3.550852966308593750e+01 1.231057882308959961e+00 3.100000000000000000e+01
-2.399076223373413086e+00 1.398538827896117942e+00 -6.411104798316955566e-01 1.400000000000000000e+01
-2.818633794784545898e+00 1.643778562545775923e+00 -6.342490911483764648e-01 1.100000000000000000e+01
-3.429166555404663086e+00 2.001435279846190962e+00 -6.288665533065795898e-01 1.100000000000000000e+01
-3.620022583007813211e+01 2.113675689697265980e+01 5.147029876708984375e+00 2.800000000000000000e+01
-4.417222023010253906e+00 2.580181837081909180e+00 -6.281145811080932617e-01 1.000000000000000000e+01
-6.093019962310791016e+00 3.560473203659058061e+00 -6.174112558364868164e-01 3.000000000000000000e+00
-9.811697959899902344e+00 5.738088607788085938e+00 -5.956878662109375000e-01 3.000000000000000000e+00
-2.075720310211182085e+00 1.218791961669922097e+00 -6.449770331382751465e-01 1.800000000000000000e+01
-2.382418870925902876e+00 1.399993538856505904e+00 -6.379612088203430176e-01 1.200000000000000000e+01
-2.817955970764160156e+00 1.656592249870300071e+00 -6.353939771652221680e-01 1.200000000000000000e+01
-3.418754339218140093e+00 2.011389732360839844e+00 -6.282408237457275391e-01 1.100000000000000000e+01
-3.601673507690429688e+01 2.119854736328125000e+01 5.131430625915527344e+00 2.700000000000000000e+01
-4.401346206665039062e+00 2.591556310653686968e+00 -6.271396279335021973e-01 1.000000000000000000e+01
-6.073687553405761719e+00 3.577675342559814009e+00 -6.167140603065490723e-01 2.000000000000000000e+00
-9.722786903381347656e+00 5.731731414794921875e+00 -5.915009975433349609e-01 3.000000000000000000e+00
-2.078103065490723100e+00 1.229966044425963911e+00 -6.470476388931274414e-01 1.900000000000000000e+01
-2.382547378540039062e+00 1.411280632019042969e+00 -6.393108963966369629e-01 1.200000000000000000e+01
-2.807089328765869141e+00 1.663416147232056108e+00 -6.342490911483764648e-01 1.200000000000000000e+01
-3.416809558868408203e+00 2.026334047317504883e+00 -6.291794180870056152e-01 1.100000000000000000e+01
-4.385444641113281250e+00 2.602851390838623047e+00 -6.261646747589111328e-01 1.000000000000000000e+01
-6.054309368133544922e+00 3.594785928726195845e+00 -6.160168051719665527e-01 3.000000000000000000e+00
-9.695852279663085938e+00 5.761554241180419922e+00 -5.910822749137878418e-01 3.000000000000000000e+00
-2.074012994766234907e+00 1.236850619316101074e+00 -6.470476388931274414e-01 2.000000000000000000e+01
-2.381201028823852983e+00 1.421171188354491965e+00 -6.402106881141662598e-01 1.300000000000000000e+01
-2.793129682540893999e+00 1.667683362960814986e+00 -6.323410272598266602e-01 1.200000000000000000e+01
-3.411767005920410156e+00 2.038666725158690962e+00 -6.294922828674316406e-01 1.000000000000000000e+01
-4.363159656524658203e+00 2.609229087829589844e+00 -6.242147684097290039e-01 1.000000000000000000e+01
-6.035516262054443359e+00 3.610751390457152876e+00 -6.153195500373840332e-01 2.000000000000000000e+00
-9.642420768737792969e+00 5.773155689239501953e+00 -5.889888405799865723e-01 3.000000000000000000e+00
-2.059748411178588867e+00 1.238111138343811035e+00 -6.439417600631713867e-01 2.000000000000000000e+01
-2.376225709915161133e+00 1.429474472999572976e+00 -6.402106881141662598e-01 1.200000000000000000e+01
-2.794019699096680132e+00 1.681472420692444070e+00 -6.338675022125244141e-01 1.200000000000000000e+01
-3.402937650680541992e+00 2.049544334411621094e+00 -6.291794180870056152e-01 1.000000000000000000e+01
-4.367626190185546875e+00 2.632641792297362837e+00 -6.261646747589111328e-01 1.000000000000000000e+01
-6.012638568878173828e+00 3.625624179840087891e+00 -6.142736673355102539e-01 3.000000000000000000e+00
-9.646150588989257812e+00 5.821226119995117188e+00 -5.904542803764343262e-01 3.000000000000000000e+00
-2.053761959075928178e+00 1.244292378425597922e+00 -6.434241533279418945e-01 1.900000000000000000e+01
-2.369555234909058061e+00 1.436749935150146040e+00 -6.397607922554016113e-01 1.300000000000000000e+01
-2.788133382797241211e+00 1.691215157508850098e+00 -6.338675022125244141e-01 1.300000000000000000e+01
-3.394074201583861861e+00 2.060385227203369141e+00 -6.288665533065795898e-01 1.100000000000000000e+01
-3.340331649780272727e+01 2.028558540344237926e+01 4.798483371734619141e+00 2.000000000000000000e+01
-4.358409881591796875e+00 2.647871494293212891e+00 -6.261646747589111328e-01 1.000000000000000000e+01
-5.984622478485107422e+00 3.637277126312255859e+00 -6.127048730850219727e-01 3.000000000000000000e+00
-9.533626556396484375e+00 5.798814773559570312e+00 -5.848019719123840332e-01 3.000000000000000000e+00
-2.060947179794311968e+00 1.258501410484313965e+00 -6.470476388931274414e-01 2.000000000000000000e+01
-2.354548692703247070e+00 1.438915371894835982e+00 -6.370613574981689453e-01 1.300000000000000000e+01
-2.787237882614136186e+00 1.704009294509887917e+00 -6.350123286247253418e-01 1.100000000000000000e+01
-3.386861324310303178e+00 2.072220325469971147e+00 -6.288665533065795898e-01 1.100000000000000000e+01
-3.338648223876953125e+01 2.043522453308105113e+01 4.806282997131347656e+00 2.000000000000000000e+01
-4.332211494445800781e+00 2.652702808380126953e+00 -6.237273216247558594e-01 1.000000000000000000e+01
-3.480442810058593750e+01 2.131982612609862926e+01 6.464498043060302734e+00 1.400000000000000000e+01
-5.980384349822998047e+00 3.663348674774169922e+00 -6.135764122009277344e-01 3.000000000000000000e+00
-9.523543357849121094e+00 5.838321208953857422e+00 -5.854300260543823242e-01 3.000000000000000000e+00
-2.053251266479492188e+00 1.263662695884705034e+00 -6.460123658180236816e-01 2.000000000000000000e+01
-2.354489326477050781e+00 1.450191497802733931e+00 -6.384111046791076660e-01 1.300000000000000000e+01
-2.766229867935181108e+00 1.704459309577941895e+00 -6.315777897834777832e-01 1.200000000000000000e+01
-3.371200323104857954e+00 2.078845977783203125e+00 -6.273022294044494629e-01 1.000000000000000000e+01
-3.401101303100585938e+01 2.098103713989258168e+01 4.906703472137451172e+00 2.100000000000000000e+01
-4.311100006103515625e+00 2.660511255264281782e+00 -6.220211386680603027e-01 9.000000000000000000e+00
-5.977732658386229581e+00 3.690481901168822798e+00 -6.146222949028015137e-01 2.000000000000000000e+00
-9.441937446594238281e+00 5.833736419677734375e+00 -5.816618204116821289e-01 3.000000000000000000e+00
-2.045544385910034180e+00 1.268785595893860085e+00 -6.449770331382751465e-01 2.000000000000000000e+01
-2.352724313735961914e+00 1.460456848144531028e+00 -6.393108963966369629e-01 1.200000000000000000e+01
-2.768602609634398970e+00 1.719283342361449973e+00 -6.334858536720275879e-01 1.200000000000000000e+01
-3.370634317398070845e+00 2.094771623611450195e+00 -6.285536885261535645e-01 1.000000000000000000e+01
-4.300101280212402344e+00 2.674495220184326172e+00 -6.217774152755737305e-01 1.000000000000000000e+01
-5.964814186096191406e+00 3.711325407028197798e+00 -6.146222949028015137e-01 3.000000000000000000e+00
-9.455425262451171875e+00 5.887773990631104404e+00 -5.837552547454833984e-01 3.000000000000000000e+00
-2.029414653778076172e+00 1.269104242324829102e+00 -6.413536071777343750e-01 1.900000000000000000e+01
-2.344051837921143022e+00 1.467002511024475098e+00 -6.384111046791076660e-01 1.100000000000000000e+01
-2.757290363311768022e+00 1.726293802261352983e+00 -6.323410272598266602e-01 1.200000000000000000e+01
-3.354564428329468218e+00 2.101867437362670898e+00 -6.269893646240234375e-01 1.100000000000000000e+01
-4.303724288940429688e+00 2.698674678802489790e+00 -6.237273216247558594e-01 1.000000000000000000e+01
-3.443533706665039062e+01 2.159287261962890980e+01 6.437591075897216797e+00 1.400000000000000000e+01
-5.930917739868164062e+00 3.720457553863524947e+00 -6.125305891036987305e-01 3.000000000000000000e+00
-9.410099983215332031e+00 5.907523155212402344e+00 -5.822898745536804199e-01 3.000000000000000000e+00
-3.298080825805664062e+01 2.071289253234862926e+01 8.991293907165527344e+00 1.200000000000000000e+01
-2.026606798171997070e+00 1.277210474014282005e+00 -6.418712139129638672e-01 1.900000000000000000e+01
-2.338916778564453125e+00 1.475175857543945090e+00 -6.384111046791076660e-01 1.200000000000000000e+01
-2.751247644424438032e+00 1.735908031463623047e+00 -6.323410272598266602e-01 1.200000000000000000e+01
-3.335515260696411133e+00 2.106181621551514116e+00 -6.247992515563964844e-01 1.100000000000000000e+01
-4.294278144836425781e+00 2.713680982589722124e+00 -6.237273216247558594e-01 1.000000000000000000e+01
-3.449955749511718750e+01 2.180971527099609020e+01 6.464498043060302734e+00 1.400000000000000000e+01
-5.929683208465576172e+00 3.748590230941772017e+00 -6.137507557868957520e-01 3.000000000000000000e+00
-9.379294395446777344e+00 5.933927536010742188e+00 -5.816618204116821289e-01 3.000000000000000000e+00
-3.278645324707031250e+01 2.075077056884765980e+01 8.958001136779785156e+00 1.200000000000000000e+01
-2.025622129440308061e+00 1.285994768142699973e+00 -6.429064869880676270e-01 2.000000000000000000e+01
-2.322498083114624023e+00 1.475608587265015093e+00 -6.352617740631103516e-01 1.200000000000000000e+01
-2.752103805541992188e+00 1.749234437942505105e+00 -6.338675022125244141e-01 1.200000000000000000e+01
-3.328512430191040039e+00 2.117230892181396040e+00 -6.247992515563964844e-01 1.000000000000000000e+01
-4.268509864807128906e+00 2.717246294021606001e+00 -6.212899088859558105e-01 1.000000000000000000e+01
-3.455418395996093750e+01 2.199649047851562855e+01 6.487649917602539062e+00 1.400000000000000000e+01
-5.910497665405273438e+00 3.763952255249022993e+00 -6.130535006523132324e-01 3.000000000000000000e+00
-9.309037208557128906e+00 5.932795047760009766e+00 -5.785216689109802246e-01 3.000000000000000000e+00
-3.283905410766602273e+01 2.093690490722655895e+01 8.991293907165527344e+00 1.200000000000000000e+01
-2.021120786666870117e+00 1.293057680130005105e+00 -6.429064869880676270e-01 1.800000000000000000e+01
-2.322256803512572798e+00 1.486858963966370073e+00 -6.366114616394042969e-01 1.200000000000000000e+01
-2.739368200302124023e+00 1.754594802856445090e+00 -6.323410272598266602e-01 1.300000000000000000e+01
-3.326090812683105025e+00 2.132034778594971147e+00 -6.257378458976745605e-01 1.100000000000000000e+01
-3.453533935546875000e+01 2.214576721191405895e+01 5.037347316741943359e+00 2.500000000000000000e+01
-4.255657196044921875e+00 2.729985952377318892e+00 -6.208024621009826660e-01 1.000000000000000000e+01
-3.435415267944335938e+01 2.203804397583008168e+01 6.464498043060302734e+00 1.400000000000000000e+01
-5.882231712341308594e+00 3.774876117706298828e+00 -6.114847064018249512e-01 3.000000000000000000e+00
-9.288270950317382812e+00 5.965253353118895596e+00 -5.785216689109802246e-01 3.000000000000000000e+00
-3.269363403320313211e+01 2.100505828857421875e+01 8.971497535705566406e+00 1.200000000000000000e+01
-2.019842147827147993e+00 1.302198410034179910e+00 -6.439417600631713867e-01 1.800000000000000000e+01
-2.321964979171752930e+00 1.498125553131103960e+00 -6.379612088203430176e-01 1.300000000000000000e+01
-2.734876394271851030e+00 1.765210986137389915e+00 -6.327226161956787109e-01 1.300000000000000000e+01
-3.316968917846680132e+00 2.142560243606566939e+00 -6.254249811172485352e-01 1.000000000000000000e+01
-4.236099243164063388e+00 2.738358259201049805e+00 -6.193400025367736816e-01 1.000000000000000000e+01
-5.862327098846436435e+00 3.791058301925659180e+00 -6.107874512672424316e-01 3.000000000000000000e+00
-9.267392158508300781e+00 5.997639179229736328e+00 -5.785216689109802246e-01 3.000000000000000000e+00
-3.271826171875000000e+01 2.118259811401366832e+01 8.998492240905761719e+00 1.200000000000000000e+01
-2.005564212799071822e+00 1.302926421165466087e+00 -6.408359408378601074e-01 1.700000000000000000e+01
-2.315087556838988814e+00 1.505159378051758035e+00 -6.375113129615783691e-01 1.300000000000000000e+01
-3.308925247192382812e+01 2.151305198669433949e+01 2.068421602249145952e+00 2.200000000000000000e+01
-2.727052211761475053e+00 1.773676276206969993e+00 -6.323410272598266602e-01 1.200000000000000000e+01
-3.316092252731322798e+00 2.158435821533203125e+00 -6.266764402389526367e-01 1.000000000000000000e+01
-3.479577255249022727e+01 2.265712547302246094e+01 5.098282337188720703e+00 2.600000000000000000e+01
-4.223187923431395596e+00 2.750961542129517046e+00 -6.188524961471557617e-01 1.000000000000000000e+01
-5.829027175903320312e+00 3.798445463180541992e+00 -6.086956858634948730e-01 2.000000000000000000e+00
-3.295888519287108664e+01 2.148562622070312855e+01 7.647624492645263672e+00 6.300000000000000000e+01
-9.246399879455566406e+00 6.029952049255371094e+00 -5.785216689109802246e-01 3.000000000000000000e+00
-3.261800765991210938e+01 2.127964019775390980e+01 8.991293907165527344e+00 1.200000000000000000e+01
-2.000775337219237837e+00 1.310268402099608931e+00 -6.408359408378601074e-01 1.800000000000000000e+01
-2.298146009445189986e+00 1.506157159805298074e+00 -6.343619823455810547e-01 1.300000000000000000e+01
-2.723816633224486861e+00 1.785812377929687944e+00 -6.331042647361755371e-01 1.200000000000000000e+01
-3.281733274459838867e+00 2.153236865997314009e+00 -6.216705441474914551e-01 1.000000000000000000e+01
-3.471249389648438211e+01 2.278450584411621094e+01 5.098282337188720703e+00 2.600000000000000000e+01
-4.213077068328857422e+00 2.766421794891356978e+00 -6.188524961471557617e-01 1.000000000000000000e+01
-5.841710090637207031e+00 3.837286233901977983e+00 -6.114847064018249512e-01 2.000000000000000000e+00
-9.224236488342285156e+00 6.063801288604736328e+00 -5.785216689109802246e-01 3.000000000000000000e+00
-3.249420547485352273e+01 2.136906623840332031e+01 8.978696823120117188e+00 1.200000000000000000e+01
-2.002639293670653853e+00 1.321500420570373979e+00 -6.429064869880676270e-01 2.000000000000000000e+01
-2.291248559951781782e+00 1.513096094131469949e+00 -6.339120864868164062e-01 1.300000000000000000e+01
-2.720842599868773970e+00 1.797473788261414018e+00 -6.338675022125244141e-01 1.200000000000000000e+01
-3.275844812393188032e+00 2.165768623352050781e+00 -6.219834089279174805e-01 9.000000000000000000e+00
-4.210016727447509766e+00 2.785492658615111861e+00 -6.198275089263916016e-01 1.000000000000000000e+01
-5.824956893920898438e+00 3.855454921722412109e+00 -6.111360788345336914e-01 2.000000000000000000e+00
-9.203014373779296875e+00 6.095963001251220703e+00 -5.785216689109802246e-01 3.000000000000000000e+00
-3.230245590209960938e+01 2.140485954284667969e+01 8.946303367614746094e+00 1.200000000000000000e+01
-2.009508132934569868e+00 1.335619688034058061e+00 -6.465299725532531738e-01 1.900000000000000000e+01
-2.289463520050048828e+00 1.522844433784485085e+00 -6.348118782043457031e-01 1.400000000000000000e+01
-2.701791048049927202e+00 1.797785758972167969e+00 -6.308145523071289062e-01 1.200000000000000000e+01
-3.268644809722899947e+00 2.176619768142700195e+00 -6.219834089279174805e-01 1.000000000000000000e+01
-4.187541484832763672e+00 2.790631532669066939e+00 -6.178775429725646973e-01 1.000000000000000000e+01
-3.396430587768554688e+01 2.263425064086914062e+01 6.464498043060302734e+00 1.400000000000000000e+01
-5.808824062347412109e+00 3.872539520263671875e+00 -6.107874512672424316e-01 3.000000000000000000e+00
-9.182748794555664062e+00 6.126447677612304688e+00 -5.785216689109802246e-01 3.000000000000000000e+00
-1.998413205146789995e+00 1.338326215744018999e+00 -6.444594264030456543e-01 2.100000000000000000e+01
-2.293846607208251953e+00 1.537336349487304910e+00 -6.375113129615783691e-01 1.400000000000000000e+01
