-9.603088498115539551e-01 2.430419206619263139e+00 -6.033187508583068848e-01 1.100000000000000000e+01
-1.121355414390563965e+00 2.839457511901855025e+00 -5.934159755706787109e-01 1.100000000000000000e+01
-1.342589259147644043e+00 3.403134822845458984e+00 -5.794332623481750488e-01 9.000000000000000000e+00
-1.673352718353271040e+00 4.245880126953125000e+00 -5.603552460670471191e-01 1.000000000000000000e+01
-2.187718629837036133e+00 5.553847312927246094e+00 -5.222371816635131836e-01 1.100000000000000000e+01
-3.205503463745117188e+00 8.145981788635253906e+00 -4.587769806385039728e-01 3.000000000000000000e+00
-6.048800468444824219e+00 1.538726806640625000e+01 -2.885929942131041925e-01 2.000000000000000000e+00
-8.317309617996215820e-01 2.124510049819945845e+00 -6.113305687904357910e-01 2.000000000000000000e+01
-9.518192410469055176e-01 2.433756589889525923e+00 -6.033187508583068848e-01 1.100000000000000000e+01
-1.111437082290648970e+00 2.843354463577270952e+00 -5.934159755706787109e-01 1.000000000000000000e+01
-1.330701947212219016e+00 3.407800674438477007e+00 -5.794332623481750488e-01 9.000000000000000000e+00
-1.655635952949523926e+00 4.244297504425048828e+00 -5.593802928924560547e-01 1.000000000000000000e+01
-2.165423870086669922e+00 5.554024696350097656e+00 -5.215399861335754395e-01 1.100000000000000000e+01
-3.187197208404541016e+00 8.183176994323730469e+00 -4.602423906326293945e-01 1.000000000000000000e+00
-5.995051860809326172e+00 1.540828895568848012e+01 -2.885929942131041925e-01 2.000000000000000000e+00
-8.218880891799926758e-01 2.120051383972167969e+00 -6.092600226402282715e-01 2.000000000000000000e+01
-9.451509118080139160e-01 2.440533876419066939e+00 -6.042185425758361816e-01 1.100000000000000000e+01
-1.102710723876952903e+00 2.848855495452880859e+00 -5.937975645065307617e-01 1.100000000000000000e+01
-1.317969083786010964e+00 3.408509731292725053e+00 -5.788075327873229980e-01 1.000000000000000000e+01
-1.647274494171143022e+00 4.264578819274902344e+00 -5.613301992416381836e-01 1.000000000000000000e+01
-2.146276473999022993e+00 5.559316635131835938e+00 -5.213656425476074219e-01 1.100000000000000000e+01
-3.151419162750244141e+00 8.171339035034179688e+00 -4.589863419532775879e-01 1.000000000000000000e+00
-5.907978057861328125e+00 1.533478450775145951e+01 -2.868477404117584229e-01 2.000000000000000000e+00
-8.151747584342956543e-01 2.124711036682128906e+00 -6.097776889801025391e-01 1.900000000000000000e+01
-9.359287023544311523e-01 2.441998481750487837e+00 -6.037686467170715332e-01 1.200000000000000000e+01
-1.088545918464661089e+00 2.841687202453612837e+00 -5.915079116821289062e-01 1.100000000000000000e+01
-1.306063175201416016e+00 3.413089752197266069e+00 -5.788075327873229980e-01 1.000000000000000000e+01
-1.633795857429503950e+00 4.274011135101318359e+00 -5.618176460266113281e-01 1.000000000000000000e+01
-2.123302459716796875e+00 5.557468414306640625e+00 -5.204941034317016602e-01 1.100000000000000000e+01
-3.114330530166625977e+00 8.159898757934570312e+00 -4.577302634716033936e-01 1.000000000000000000e+00
-5.847289562225341797e+00 1.533662891387938920e+01 -2.864986956119536798e-01 2.000000000000000000e+00
-8.101825118064880371e-01 2.132820606231689009e+00 -6.113305687904357910e-01 1.900000000000000000e+01
-9.216032028198242188e-01 2.428690910339355025e+00 -5.997195243835449219e-01 1.100000000000000000e+01
-1.082597613334655984e+00 2.854459762573242188e+00 -5.934159755706787109e-01 1.200000000000000000e+01
-1.293338060379028098e+00 3.413707494735718218e+00 -5.781818032264709473e-01 9.000000000000000000e+00
-1.613992571830749956e+00 4.264553070068359375e+00 -5.598677396774291992e-01 1.000000000000000000e+01
-2.114025354385375977e+00 5.588705062866210938e+00 -5.227601528167724609e-01 1.100000000000000000e+01
-3.095726013183594194e+00 8.192601203918457031e+00 -4.589863419532775879e-01 1.000000000000000000e+00
-5.793574810028076172e+00 1.534845161437987926e+01 -2.863590717315673828e-01 2.000000000000000000e+00
-8.034123182296752930e-01 2.137443780899047852e+00 -6.118482351303100586e-01 2.100000000000000000e+01
-9.172299504280090332e-01 2.442839384078979048e+00 -6.024188995361328125e-01 1.400000000000000000e+01
-1.069867849349976030e+00 2.850868940353393999e+00 -5.918895006179809570e-01 1.000000000000000000e+01
-1.283494353294373003e+00 3.423750162124633789e+00 -5.791203975677490234e-01 1.000000000000000000e+01
-1.594919681549072044e+00 4.259006977081298828e+00 -5.584053397178649902e-01 1.000000000000000000e+01
-2.088917016983031782e+00 5.581122398376464844e+00 -5.213656425476074219e-01 1.100000000000000000e+01
-3.057317256927489790e+00 8.177165985107421875e+00 -4.575209319591522217e-01 1.000000000000000000e+00
-5.724570751190186435e+00 1.532736873626708984e+01 -2.855911850929260254e-01 2.000000000000000000e+00
-7.945995926856994629e-01 2.136613845825194868e+00 -6.108129620552062988e-01 2.100000000000000000e+01
-9.086972475051879883e-01 2.446026325225830078e+00 -6.024188995361328125e-01 1.100000000000000000e+01
-1.062643527984618919e+00 2.861948013305664062e+00 -5.934159755706787109e-01 1.000000000000000000e+01
-1.273596286773682085e+00 3.433765888214110884e+00 -5.800589919090270996e-01 9.000000000000000000e+00
-1.582801938056946023e+00 4.271994113922119141e+00 -5.593802928924560547e-01 1.000000000000000000e+01
-2.068038702011107954e+00 5.584643363952636719e+00 -5.210170149803161621e-01 9.000000000000000000e+00
-3.038455963134766069e+00 8.214013099670410156e+00 -4.589863419532775879e-01 1.000000000000000000e+00
-5.680737018585205078e+00 1.537351799011229936e+01 -2.860798537731171209e-01 2.000000000000000000e+00
-7.838012576103210449e-01 2.130309343338013139e+00 -6.082247495651245117e-01 2.000000000000000000e+01
-9.014980196952819824e-01 2.452841520309447798e+00 -6.033187508583068848e-01 1.100000000000000000e+01
-1.049262285232543945e+00 2.856425523757935014e+00 -5.915079116821289062e-01 1.100000000000000000e+01
-1.261602401733397993e+00 3.438190698623656782e+00 -5.800589919090270996e-01 9.000000000000000000e+00
-1.566513895988463911e+00 4.273765087127686435e+00 -5.588927865028381348e-01 1.000000000000000000e+01
-2.038937091827393022e+00 5.565636634826660156e+00 -5.185766816139221191e-01 9.000000000000000000e+00
-3.013883352279663086e+00 8.235823631286621094e+00 -4.596143662929534912e-01 1.000000000000000000e+00
-5.607815265655517578e+00 1.534066581726074041e+01 -2.851025164127349854e-01 2.000000000000000000e+00
-7.776817679405212402e-01 2.136663198471068892e+00 -6.092600226402282715e-01 2.000000000000000000e+01
-8.922646045684814453e-01 2.454142093658446822e+00 -6.028688549995422363e-01 1.200000000000000000e+01
-1.041967034339905007e+00 2.867451667785644975e+00 -5.930343866348266602e-01 1.100000000000000000e+01
-1.244875192642211914e+00 3.429575681686400923e+00 -5.778689384460449219e-01 1.000000000000000000e+01
-1.554292798042296919e+00 4.286672115325927734e+00 -5.598677396774291992e-01 1.000000000000000000e+01
-2.024248838424683061e+00 5.585832595825195312e+00 -5.197968482971191406e-01 9.000000000000000000e+00
-2.981037616729735884e+00 8.235025405883789062e+00 -4.589863419532775879e-01 1.000000000000000000e+00
-5.554232120513916016e+00 1.536014747619629084e+01 -2.851025164127349854e-01 2.000000000000000000e+00
-7.721818685531616211e-01 2.144817590713500977e+00 -6.108129620552062988e-01 2.100000000000000000e+01
-8.797358274459838867e-01 2.446238994598389116e+00 -6.001694202423095703e-01 1.200000000000000000e+01
-1.030623316764831987e+00 2.867376327514647993e+00 -5.922711491584777832e-01 1.100000000000000000e+01
-1.235566258430480957e+00 3.441336870193481001e+00 -5.791203975677490234e-01 1.000000000000000000e+01
-1.539319992065429910e+00 4.292071342468261719e+00 -5.598677396774291992e-01 1.000000000000000000e+01
-2.003393650054932085e+00 5.589113235473632812e+00 -5.194482207298278809e-01 9.000000000000000000e+00
-2.942848205566405806e+00 8.219056129455566406e+00 -4.575209319591522217e-01 1.000000000000000000e+00
-5.487112522125244141e+00 1.534178352355957031e+01 -2.844044268131256104e-01 2.000000000000000000e+00
-7.653384208679199219e-01 2.149319887161254883e+00 -6.113305687904357910e-01 2.000000000000000000e+01
-8.718445301055908203e-01 2.451131105422974077e+00 -6.006193161010742188e-01 1.100000000000000000e+01
-1.019292831420897993e+00 2.867256641387939009e+00 -5.915079116821289062e-01 1.100000000000000000e+01
-1.223546147346497026e+00 3.445628881454468218e+00 -5.791203975677490234e-01 1.000000000000000000e+01
-1.521674036979675071e+00 4.289935111999511719e+00 -5.588927865028381348e-01 1.000000000000000000e+01
-1.990529060363769975e+00 5.614850997924804688e+00 -5.211913585662841797e-01 9.000000000000000000e+00
-2.908806800842285156e+00 8.214217185974121094e+00 -4.566835463047028143e-01 1.000000000000000000e+00
-5.420189380645751953e+00 1.532313919067382990e+01 -2.837063074111937921e-01 2.000000000000000000e+00
-7.552644610404968262e-01 2.144689559936522993e+00 -6.092600226402282715e-01 1.900000000000000000e+01
-8.652231693267822266e-01 2.459674358367919922e+00 -6.019690036773681641e-01 1.200000000000000000e+01
-1.007975697517395020e+00 2.867092847824097124e+00 -5.907446742057800293e-01 1.100000000000000000e+01
-1.212165713310241921e+00 3.451742649078369141e+00 -5.794332623481750488e-01 9.000000000000000000e+00
-1.509975552558898926e+00 4.304586410522460938e+00 -5.601115226745605469e-01 8.000000000000000000e+00
-1.966962456703186035e+00 5.610484123229979581e+00 -5.201454758644104004e-01 9.000000000000000000e+00
-2.878795862197875977e+00 8.220550537109375000e+00 -4.564742147922515869e-01 1.000000000000000000e+00
-5.360065937042236328e+00 1.532309055328368963e+01 -2.833572626113892157e-01 2.000000000000000000e+00
-7.458675503730773926e-01 2.141839742660522017e+00 -6.077071428298950195e-01 2.200000000000000000e+01
-8.585526943206787109e-01 2.468201398849486861e+00 -6.033187508583068848e-01 1.100000000000000000e+01
-9.960275292396545410e-01 2.865030765533446822e+00 -5.895997881889343262e-01 1.100000000000000000e+01
-1.200109481811522993e+00 3.455952882766724077e+00 -5.794332623481750488e-01 9.000000000000000000e+00
-1.492338299751281960e+00 4.302329063415527344e+00 -5.591365694999694824e-01 8.000000000000000000e+00
-1.936924576759337935e+00 5.587196350097656250e+00 -5.173565149307250977e-01 8.000000000000000000e+00
-2.846162080764770952e+00 8.219224929809570312e+00 -4.558461904525756836e-01 1.000000000000000000e+00
-5.300008773803710938e+00 1.532280826568604049e+01 -2.830082178115844727e-01 2.000000000000000000e+00
-7.390155196189880371e-01 2.146256923675537109e+00 -6.082247495651245117e-01 1.900000000000000000e+01
-8.473966121673583984e-01 2.463812112808227983e+00 -6.015191078186035156e-01 1.400000000000000000e+01
-9.866588115692138672e-01 2.870346784591674805e+00 -5.899814367294311523e-01 1.200000000000000000e+01
-1.184189796447753906e+00 3.448911190032958984e+00 -5.775560736656188965e-01 9.000000000000000000e+00
-1.481175303459167036e+00 4.318778514862061435e+00 -5.605989694595336914e-01 1.000000000000000000e+01
-1.925162196159363015e+00 5.616540431976318359e+00 -5.194482207298278809e-01 9.000000000000000000e+00
-2.810984611511230025e+00 8.210214614868164062e+00 -4.547994732856749933e-01 1.000000000000000000e+00
-5.220607280731201172e+00 1.526553153991699041e+01 -2.816120386123657227e-01 2.000000000000000000e+00
-7.335156202316284180e-01 2.152225017547606978e+00 -6.092600226402282715e-01 1.900000000000000000e+01
-8.365120887756347656e-01 2.457238197326660156e+00 -5.992696285247802734e-01 1.500000000000000000e+01
-9.839601516723632812e-01 2.892018556594849077e+00 -5.937975645065307617e-01 1.100000000000000000e+01
-1.172077655792236106e+00 3.448873758316040039e+00 -5.769302845001220703e-01 9.000000000000000000e+00
-1.463771581649780051e+00 4.312131881713867188e+00 -5.591365694999694824e-01 8.000000000000000000e+00
-1.901106715202331987e+00 5.603693008422851562e+00 -5.177050828933715820e-01 8.000000000000000000e+00
-2.791587829589844194e+00 8.237920761108398438e+00 -4.558461904525756836e-01 1.000000000000000000e+00
-5.185445785522460938e+00 1.531974029541015980e+01 -2.823101282119750977e-01 2.000000000000000000e+00
-7.278489470481872559e-01 2.160264730453491211e+00 -6.108129620552062988e-01 1.900000000000000000e+01
-8.291727900505065918e-01 2.463837146759033203e+00 -6.001694202423095703e-01 1.500000000000000000e+01
-9.688521623611450195e-01 2.880548954010010210e+00 -5.907446742057800293e-01 1.200000000000000000e+01
-1.160660743713378906e+00 3.454816579818726030e+00 -5.772431492805480957e-01 1.000000000000000000e+01
-1.445552945137023926e+00 4.307805538177490234e+00 -5.579178333282470703e-01 1.000000000000000000e+01
-1.887869834899901900e+00 5.629184722900390625e+00 -5.194482207298278809e-01 6.000000000000000000e+00
-2.760277509689331055e+00 8.240039825439453125e+00 -4.554274976253510077e-01 1.000000000000000000e+00
-5.129400253295898438e+00 1.533016204833984020e+01 -2.821705043315886896e-01 2.000000000000000000e+00
-7.190829515457153320e-01 2.159126520156859907e+00 -6.097776889801025391e-01 1.900000000000000000e+01
-8.211824297904968262e-01 2.468565464019774947e+00 -6.006193161010742188e-01 1.400000000000000000e+01
-9.563137888908386230e-01 2.876461267471313032e+00 -5.892181992530822754e-01 1.100000000000000000e+01
-1.147971510887145996e+00 3.456972122192382812e+00 -5.769302845001220703e-01 9.000000000000000000e+00
-1.429257154464721902e+00 4.309056758880615234e+00 -5.574303865432739258e-01 1.000000000000000000e+01
-1.868208765983581987e+00 5.635740280151367188e+00 -5.194482207298278809e-01 9.000000000000000000e+00
-2.732753038406372070e+00 8.253417015075683594e+00 -4.556368291378021240e-01 1.000000000000000000e+00
-5.078368186950683594e+00 1.535556697845458984e+01 -2.823101282119750977e-01 2.000000000000000000e+00
-7.073135972023010254e-01 2.148778438568114790e+00 -6.061542034149169922e-01 1.700000000000000000e+01
-8.156038522720336914e-01 2.480673313140869141e+00 -6.028688549995422363e-01 1.300000000000000000e+01
-9.462672472000122070e-01 2.879781961441040039e+00 -5.892181992530822754e-01 1.200000000000000000e+01
-1.138361454010009988e+00 3.468465805053710938e+00 -5.781818032264709473e-01 9.000000000000000000e+00
-1.416680574417114036e+00 4.321565151214599609e+00 -5.584053397178649902e-01 1.000000000000000000e+01
-1.838600039482116921e+00 5.611933231353759766e+00 -5.166592597961425781e-01 9.000000000000000000e+00
-2.693988084793090820e+00 8.232534408569335938e+00 -4.539620876312255859e-01 1.000000000000000000e+00
-5.007341384887695312e+00 1.531997966766357067e+01 -2.813327908515930176e-01 2.000000000000000000e+00
-6.998086571693420410e-01 2.151234388351439986e+00 -6.061542034149169922e-01 1.700000000000000000e+01
-8.039287328720092773e-01 2.474238157272338867e+00 -6.006193161010742188e-01 1.100000000000000000e+01
-9.374218583106994629e-01 2.886801958084106001e+00 -5.899814367294311523e-01 1.100000000000000000e+01
-1.120152950286865012e+00 3.453628063201903853e+00 -5.750530958175659180e-01 1.000000000000000000e+01
-1.402810335159301980e+00 4.330260753631591797e+00 -5.588927865028381348e-01 1.000000000000000000e+01
-1.825136423110961914e+00 5.637272357940673828e+00 -5.184023380279541016e-01 9.000000000000000000e+00
-2.665234804153441939e+00 8.241888046264648438e+00 -4.539620876312255859e-01 1.000000000000000000e+00
-4.946458816528320312e+00 1.531453037261963068e+01 -2.809139192104340155e-01 2.000000000000000000e+00
-6.958423852920532227e-01 2.164698839187622070e+00 -6.092600226402282715e-01 1.800000000000000000e+01
-7.929042577743530273e-01 2.469607591629027876e+00 -5.988197326660156250e-01 1.100000000000000000e+01
-9.297386407852172852e-01 2.897534132003784180e+00 -5.915079116821289062e-01 1.200000000000000000e+01
-1.109296441078186035e+00 3.461279392242432085e+00 -5.756788253784179688e-01 9.000000000000000000e+00
-1.385265707969665971e+00 4.327568531036376953e+00 -5.579178333282470703e-01 1.000000000000000000e+01
-1.807268857955933061e+00 5.649302005767822266e+00 -5.189253091812133789e-01 9.000000000000000000e+00
-2.637664794921875000e+00 8.254945755004882812e+00 -4.541714191436768133e-01 1.000000000000000000e+00
-4.905130386352539062e+00 1.536980438232422053e+01 -2.816120386123657227e-01 2.000000000000000000e+00
-6.882819533348083496e-01 2.167114734649658203e+00 -6.092600226402282715e-01 1.700000000000000000e+01
-7.860466241836547852e-01 2.477932929992675781e+00 -6.001694202423095703e-01 1.300000000000000000e+01
-9.148722887039184570e-01 2.885790348052978960e+00 -5.884549617767333984e-01 1.100000000000000000e+01
-1.099592804908751997e+00 3.472663402557373047e+00 -5.769302845001220703e-01 9.000000000000000000e+00
-1.370151162147521973e+00 4.332377910614013672e+00 -5.579178333282470703e-01 1.000000000000000000e+01
-1.792942166328429954e+00 5.672673702239990234e+00 -5.204941034317016602e-01 9.000000000000000000e+00
-2.606428623199462891e+00 8.256484985351562500e+00 -4.537527263164520264e-01 1.000000000000000000e+00
-4.835815429687500000e+00 1.533724689483642933e+01 -2.807044982910156250e-01 2.000000000000000000e+00
-6.818698048591613770e-01 2.173190593719481978e+00 -6.102952957153320312e-01 1.800000000000000000e+01
-7.768094539642333984e-01 2.478801965713500977e+00 -5.997195243835449219e-01 1.100000000000000000e+01
-9.036198854446411133e-01 2.885219097137451172e+00 -5.876917243003845215e-01 1.100000000000000000e+01
-1.089823126792907937e+00 3.484021663665771040e+00 -5.781818032264709473e-01 9.000000000000000000e+00
-1.356203913688659890e+00 4.340923786163330078e+00 -5.584053397178649902e-01 1.000000000000000000e+01
-1.766597867012023926e+00 5.657977581024169922e+00 -5.185766816139221191e-01 8.000000000000000000e+00
-2.572835445404053178e+00 8.250278472900390625e+00 -4.529153704643250067e-01 1.000000000000000000e+00
-4.776302337646484375e+00 1.533494186401367010e+01 -2.803554534912108820e-01 2.000000000000000000e+00
-6.689372062683105469e-01 2.156988143920897993e+00 -6.051189303398132324e-01 1.800000000000000000e+01
-7.697383761405944824e-01 2.485087394714355025e+00 -6.006193161010742188e-01 1.100000000000000000e+01
-8.952082991600036621e-01 2.891950607299805132e+00 -5.884549617767333984e-01 1.200000000000000000e+01
-1.077096819877624956e+00 3.483842134475708008e+00 -5.775560736656188965e-01 9.000000000000000000e+00
-1.340630054473876953e+00 4.341603755950927734e+00 -5.579178333282470703e-01 1.000000000000000000e+01
-1.740188121795654075e+00 5.639055252075195312e+00 -5.163106322288513184e-01 9.000000000000000000e+00
-2.541932582855225053e+00 8.247313499450683594e+00 -4.522873461246489923e-01 1.000000000000000000e+00
-4.704244136810302734e+00 1.528189277648925959e+01 -2.790988981723784845e-01 2.000000000000000000e+00
-6.636669635772705078e-01 2.166698694229125977e+00 -6.071894764900207520e-01 1.800000000000000000e+01
-7.599189281463623047e-01 2.484032154083251953e+00 -5.997195243835449219e-01 1.400000000000000000e+01
-8.885520696640014648e-01 2.906322717666625977e+00 -5.907446742057800293e-01 1.100000000000000000e+01
-1.057429790496825950e+00 3.463020086288452148e+00 -5.734887719154357910e-01 1.000000000000000000e+01
-1.328941226005553977e+00 4.357649326324462891e+00 -5.593802928924560547e-01 1.000000000000000000e+01
-1.725721240043639915e+00 5.662247657775878906e+00 -5.178794264793395996e-01 9.000000000000000000e+00
-2.516618251800537109e+00 8.267600059509277344e+00 -4.529153704643250067e-01 1.000000000000000000e+00
-4.653198242187500000e+00 1.530587387084960938e+01 -2.792384922504425049e-01 2.000000000000000000e+00
-6.572183966636657715e-01 2.172700405120850053e+00 -6.082247495651245117e-01 1.800000000000000000e+01
-7.478619813919067383e-01 2.475476741790771040e+00 -5.970200896263122559e-01 1.100000000000000000e+01
-8.766993284225463867e-01 2.903768301010131836e+00 -5.895997881889343262e-01 1.100000000000000000e+01
-1.049327254295348899e+00 3.479928970336914062e+00 -5.756788253784179688e-01 1.000000000000000000e+01
-1.309142708778380904e+00 4.347055435180664062e+00 -5.574303865432739258e-01 1.100000000000000000e+01
-1.706519961357116921e+00 5.670145034790039062e+00 -5.180537104606628418e-01 8.000000000000000000e+00
-2.472795248031616211e+00 8.226603507995605469e+00 -4.501938819885253906e-01 1.000000000000000000e+00
-4.593992710113525391e+00 1.530287075042724965e+01 -2.788894474506378174e-01 2.000000000000000000e+00
-6.501831412315368652e-01 2.176832199096680132e+00 -6.087424159049987793e-01 1.900000000000000000e+01
-7.414446473121643066e-01 2.485542058944702148e+00 -5.988197326660156250e-01 1.100000000000000000e+01
-8.648753166198730469e-01 2.901166677474976030e+00 -5.884549617767333984e-01 1.200000000000000000e+01
-1.037173628807068093e+00 3.483570814132689986e+00 -5.756788253784179688e-01 9.000000000000000000e+00
-1.288868546485901101e+00 4.334474086761474609e+00 -5.552367568016052246e-01 1.100000000000000000e+01
-1.687852144241333008e+00 5.679887294769287109e+00 -5.184023380279541016e-01 8.000000000000000000e+00
-2.455429077148437944e+00 8.273479461669921875e+00 -4.522873461246489923e-01 1.000000000000000000e+00
-4.529181957244873047e+00 1.528046894073485973e+01 -2.781913578510283869e-01 2.000000000000000000e+00
-6.409413814544677734e-01 2.173529624938964844e+00 -6.071894764900207520e-01 1.800000000000000000e+01
-7.327639460563659668e-01 2.488114833831787109e+00 -5.988197326660156250e-01 1.200000000000000000e+01
-8.525258302688598633e-01 2.896634340286254883e+00 -5.869284868240356445e-01 1.100000000000000000e+01
-1.027235627174376997e+00 3.494750738143920898e+00 -5.769302845001220703e-01 9.000000000000000000e+00
-1.276526331901550071e+00 4.348470211029052734e+00 -5.564554333686828613e-01 1.000000000000000000e+01
-1.668015360832213911e+00 5.685744285583496094e+00 -5.184023380279541016e-01 6.000000000000000000e+00
-2.429903745651245117e+00 8.293500900268554688e+00 -4.529153704643250067e-01 1.000000000000000000e+00
-4.475815773010253906e+00 1.529618549346924006e+01 -2.781913578510283869e-01 2.000000000000000000e+00
-6.328105330467224121e-01 2.173898935317993164e+00 -6.066718697547912598e-01 1.600000000000000000e+01
-7.251623868942260742e-01 2.494400024414062944e+00 -5.997195243835449219e-01 1.100000000000000000e+01
-8.413140773773193359e-01 2.895822048187255859e+00 -5.861652493476867676e-01 1.100000000000000000e+01
-1.013929486274719016e+00 3.494520902633666992e+00 -5.763045549392700195e-01 1.000000000000000000e+01
-1.258577108383178933e+00 4.343366622924804688e+00 -5.552367568016052246e-01 1.100000000000000000e+01
-1.642616391181946023e+00 5.672394275665283203e+00 -5.166592597961425781e-01 8.000000000000000000e+00
-2.389841794967650923e+00 8.263559341430664062e+00 -4.508219361305236816e-01 1.000000000000000000e+00
-4.404638767242431641e+00 1.525023841857909979e+01 -2.770743966102600098e-01 2.000000000000000000e+00
-6.248385310173034668e-01 2.176203489303588867e+00 -6.066718697547912598e-01 1.600000000000000000e+01
-7.170893549919128418e-01 2.500787734985352007e+00 -6.006193161010742188e-01 1.200000000000000000e+01
-8.350211977958679199e-01 2.913984537124633789e+00 -5.892181992530822754e-01 1.100000000000000000e+01
-9.967666864395141602e-01 3.483020544052124023e+00 -5.738016366958618164e-01 1.000000000000000000e+01
-1.243194937705994096e+00 4.349858760833740234e+00 -5.554804801940917969e-01 1.000000000000000000e+01
-1.619079113006592019e+00 5.668797969818115234e+00 -5.157876610755920410e-01 8.000000000000000000e+00
-2.362825393676757812e+00 8.283786773681640625e+00 -4.514499604701995850e-01 1.000000000000000000e+00
-4.344331264495849609e+00 1.525089359283447088e+01 -2.767951786518096924e-01 2.000000000000000000e+00
-6.198716163635253906e-01 2.187664747238159180e+00 -6.092600226402282715e-01 1.700000000000000000e+01
-7.030495405197143555e-01 2.484524488449097124e+00 -5.961202979087829590e-01 1.100000000000000000e+01
-8.259128928184509277e-01 2.920659780502318892e+00 -5.899814367294311523e-01 1.100000000000000000e+01
-9.846026301383972168e-01 3.486478567123413086e+00 -5.738016366958618164e-01 9.000000000000000000e+00
-1.228003501892090066e+00 4.354171752929688388e+00 -5.554804801940917969e-01 1.000000000000000000e+01
-1.599821925163269043e+00 5.676332473754882812e+00 -5.159620046615600586e-01 6.000000000000000000e+00
-2.328483819961547852e+00 8.272758483886718750e+00 -4.504032433032990057e-01 1.000000000000000000e+00
-4.280247211456298828e+00 1.522746372222900035e+01 -2.760970592498778742e-01 2.000000000000000000e+00
-6.137919425964355469e-01 2.195396661758422852e+00 -6.108129620552062988e-01 1.600000000000000000e+01
-6.954208016395568848e-01 2.490717411041260210e+00 -5.970200896263122559e-01 1.300000000000000000e+01
-8.136023283004760742e-01 2.915961027145386186e+00 -5.884549617767333984e-01 1.200000000000000000e+01
-9.713661074638366699e-01 3.486088514328002930e+00 -5.731759071350097656e-01 9.000000000000000000e+00
-1.206411123275757058e+00 4.335482597351074219e+00 -5.525556206703186035e-01 1.000000000000000000e+01
-1.581599473953247070e+00 5.687641143798828125e+00 -5.164849162101745605e-01 8.000000000000000000e+00
-2.301729917526245117e+00 8.288534164428710938e+00 -4.508219361305236816e-01 1.000000000000000000e+00
-4.227066993713378906e+00 1.524231147766112926e+01 -2.760970592498778742e-01 2.000000000000000000e+00
-6.025291681289672852e-01 2.184489727020264116e+00 -6.071894764900207520e-01 1.600000000000000000e+01
-6.877573132514953613e-01 2.496887207031250000e+00 -5.979198813438415527e-01 1.100000000000000000e+01
-8.013346791267395020e-01 2.911211729049683061e+00 -5.869284868240356445e-01 1.100000000000000000e+01
-9.623329043388366699e-01 3.500886440277100053e+00 -5.750530958175659180e-01 1.000000000000000000e+01
-1.193372130393981934e+00 4.347324371337890625e+00 -5.535305738449096680e-01 1.000000000000000000e+01
-1.559627890586853027e+00 5.685441970825195312e+00 -5.157876610755920410e-01 8.000000000000000000e+00
-2.270672798156737837e+00 8.288812637329101562e+00 -4.504032433032990057e-01 1.000000000000000000e+00
-4.172780513763427734e+00 1.525311660766601918e+01 -2.760272622108458918e-01 2.000000000000000000e+00
-5.941399931907653809e-01 2.180780172348022017e+00 -6.056365370750427246e-01 1.900000000000000000e+01
-6.809329390525817871e-01 2.502796411514281782e+00 -5.988197326660156250e-01 1.100000000000000000e+01
-7.901245951652526855e-01 2.906136989593505859e+00 -5.854020118713378906e-01 1.100000000000000000e+01
-9.487418532371520996e-01 3.494360446929932085e+00 -5.734887719154357910e-01 1.000000000000000000e+01
-1.182825446128844993e+00 4.362547874450683594e+00 -5.549929738044738770e-01 1.000000000000000000e+01
-1.539153695106505904e+00 5.680697917938232422e+00 -5.149161219596862793e-01 8.000000000000000000e+00
-2.240448474884033203e+00 8.280482292175292969e+00 -4.495658576488494873e-01 1.000000000000000000e+00
-4.136316299438476562e+00 1.530862045288085938e+01 -2.767951786518096924e-01 2.000000000000000000e+00
-5.865240693092346191e-01 2.182840824127196822e+00 -6.056365370750427246e-01 1.600000000000000000e+01
-6.711823344230651855e-01 2.501393556594849077e+00 -5.979198813438415527e-01 1.200000000000000000e+01
-7.825177907943725586e-01 2.918358564376831055e+00 -5.873100757598876953e-01 1.300000000000000000e+01
-9.334729313850402832e-01 3.486202001571654829e+00 -5.716115236282348633e-01 1.100000000000000000e+01
-1.166564583778380904e+00 4.362814426422119141e+00 -5.545055270195007324e-01 1.000000000000000000e+01
-1.520857930183411089e+00 5.691810607910156250e+00 -5.154390335083007812e-01 8.000000000000000000e+00
-2.204321861267089844e+00 8.261236190795898438e+00 -4.481004476547241211e-01 2.000000000000000000e+00
-4.065348625183104581e+00 1.525726890563965021e+01 -2.756083905696868896e-01 2.000000000000000000e+00
-5.814863443374633789e-01 2.196180820465087891e+00 -6.087424159049987793e-01 1.600000000000000000e+01
-6.605153679847717285e-01 2.498184919357299805e+00 -5.965701937675476074e-01 1.200000000000000000e+01
-7.728192210197448730e-01 2.925003290176392046e+00 -5.880733132362365723e-01 1.000000000000000000e+01
-9.201851487159729004e-01 3.487689971923828125e+00 -5.712986588478088379e-01 9.000000000000000000e+00
-1.147531747817992942e+00 4.355543613433837891e+00 -5.530430674552917480e-01 1.000000000000000000e+01
-1.495420813560486062e+00 5.680006027221679688e+00 -5.138702392578125000e-01 8.000000000000000000e+00
-2.169965267181396040e+00 8.253806114196777344e+00 -4.472630918025969904e-01 2.000000000000000000e+00
-3.996198415756226030e+00 1.522177791595458984e+01 -2.747008800506591797e-01 2.000000000000000000e+00
-5.747926235198974609e-01 2.201935768127440962e+00 -6.097776889801025391e-01 1.900000000000000000e+01
-6.512995362281799316e-01 2.498589515686035156e+00 -5.961202979087829590e-01 1.100000000000000000e+01
-7.630991935729980469e-01 2.929583072662353960e+00 -5.884549617767333984e-01 1.100000000000000000e+01
-9.085024595260620117e-01 3.492792606353760210e+00 -5.716115236282348633e-01 1.000000000000000000e+01
-1.127330660820007102e+00 4.340309143066406250e+00 -5.506057143211364746e-01 1.000000000000000000e+01
-1.480089664459228960e+00 5.702548027038574219e+00 -5.154390335083007812e-01 9.000000000000000000e+00
-2.140639781951903853e+00 8.259397506713867188e+00 -4.471583962440490723e-01 4.000000000000000000e+00
-3.943040132522583008e+00 1.523563480377197088e+01 -2.747008800506591797e-01 2.000000000000000000e+00
-5.666214823722839355e-01 2.202057838439940962e+00 -6.092600226402282715e-01 1.800000000000000000e+01
-6.445136666297912598e-01 2.508397579193114790e+00 -5.979198813438415527e-01 1.100000000000000000e+01
-7.494506835937500000e-01 2.918917894363402876e+00 -5.857836008071899414e-01 1.000000000000000000e+01
-8.972859978675842285e-01 3.499769449234008789e+00 -5.722372531890869141e-01 1.100000000000000000e+01
-1.119065999984740989e+00 4.371140956878662109e+00 -5.540180206298828125e-01 1.000000000000000000e+01
-1.454249382019042969e+00 5.684516906738281250e+00 -5.133473277091979980e-01 6.000000000000000000e+00
-2.112290620803833008e+00 8.268754005432128906e+00 -4.472630918025969904e-01 2.000000000000000000e+00
-3.889833927154541016e+00 1.524930572509765980e+01 -2.747008800506591797e-01 2.000000000000000000e+00
-5.565570592880249023e-01 2.194659233093262163e+00 -6.066718697547912598e-01 1.600000000000000000e+01
-6.371889114379882812e-01 2.516299247741699219e+00 -5.992696285247802734e-01 1.100000000000000000e+01
-7.392572164535522461e-01 2.921516180038452148e+00 -5.857836008071899414e-01 1.100000000000000000e+01
-8.860318660736083984e-01 3.506710529327393022e+00 -5.728629827499389648e-01 1.000000000000000000e+01
-1.101858615875243919e+00 4.367321491241455078e+00 -5.530430674552917480e-01 1.000000000000000000e+01
-1.296884632110596058e+01 5.144110870361328125e+01 8.402407646179199219e+00 2.200000000000000000e+01
-1.434397816658020020e+00 5.689558506011962891e+00 -5.133473277091979980e-01 9.000000000000000000e+00
-2.088289976119995117e+00 8.295445442199707031e+00 -4.483098089694976807e-01 1.000000000000000000e+00
-3.820980310440063032e+00 1.520073127746582031e+01 -2.735839188098906916e-01 2.000000000000000000e+00
-5.502135753631591797e-01 2.200241088867187944e+00 -6.077071428298950195e-01 1.600000000000000000e+01
-6.250642538070678711e-01 2.503273010253905806e+00 -5.956704020500183105e-01 1.100000000000000000e+01
-7.309909462928771973e-01 2.929666042327880859e+00 -5.869284868240356445e-01 1.100000000000000000e+01
-8.724881410598754883e-01 3.501962423324584961e+00 -5.716115236282348633e-01 1.000000000000000000e+01
-1.088328361511230025e+00 4.374804019927979404e+00 -5.535305738449096680e-01 1.000000000000000000e+01
-1.418887257575988992e+00 5.707818984985351562e+00 -5.145674943923950195e-01 6.000000000000000000e+00
-2.050184488296508789e+00 8.259679794311523438e+00 -4.460070133209229071e-01 1.000000000000000000e+00
-3.756120204925537109e+00 1.515508937835693004e+01 -2.725367844104766846e-01 2.000000000000000000e+00
-1.352624320983887074e+01 5.457531356811522727e+01 1.506585693359375000e+01 1.900000000000000000e+01
-5.429920554161071777e-01 2.204024076461791992e+00 -6.082247495651245117e-01 1.800000000000000000e+01
-6.144604086875915527e-01 2.497870206832886186e+00 -5.938707590103149414e-01 1.100000000000000000e+01
-7.207600474357604980e-01 2.932199954986571822e+00 -5.869284868240356445e-01 1.100000000000000000e+01
-8.593169450759887695e-01 3.501149654388428178e+00 -5.709857940673828125e-01 1.000000000000000000e+01
-1.068325877189636008e+00 4.359295845031738281e+00 -5.510931611061096191e-01 1.000000000000000000e+01
-1.398954629898071067e+00 5.712736606597900391e+00 -5.145674943923950195e-01 6.000000000000000000e+00
-2.026084184646606001e+00 8.286186218261718750e+00 -4.470537304878234863e-01 1.000000000000000000e+00
-3.694658994674683061e+00 1.513314151763916016e+01 -2.719084918498992920e-01 2.000000000000000000e+00
-5.366619825363159180e-01 2.211538076400756836e+00 -6.097776889801025391e-01 1.600000000000000000e+01
-6.066552400588989258e-01 2.503787755966186968e+00 -5.947706103324890137e-01 1.200000000000000000e+01
-7.105203270912170410e-01 2.934697866439818892e+00 -5.869284868240356445e-01 1.100000000000000000e+01
-8.466262817382812500e-01 3.502207994461060014e+00 -5.706729292869567871e-01 1.000000000000000000e+01
-1.051705241203308105e+00 4.357209205627441406e+00 -5.503619313240051270e-01 1.100000000000000000e+01
-1.380406379699707031e+00 5.723395824432373047e+00 -5.150904655456542969e-01 8.000000000000000000e+00
-1.997147679328918013e+00 8.293208122253417969e+00 -4.470537304878234863e-01 1.000000000000000000e+00
-3.643682003021239790e+00 1.515372276306151988e+01 -2.720481157302855890e-01 2.000000000000000000e+00
-5.266939401626586914e-01 2.204003334045410156e+00 -6.071894764900207520e-01 1.700000000000000000e+01
-5.988162755966186523e-01 2.509681224822998047e+00 -5.956704020500183105e-01 1.100000000000000000e+01
-6.970848441123962402e-01 2.923792123794556108e+00 -5.842571258544921875e-01 1.100000000000000000e+01
-8.375983238220214844e-01 3.518593549728393999e+00 -5.728629827499389648e-01 1.000000000000000000e+01
-1.037407398223876953e+00 4.364716529846191406e+00 -5.508494377136230469e-01 1.100000000000000000e+01
-1.353974223136902078e+00 5.701040744781494141e+00 -5.126500725746154785e-01 8.000000000000000000e+00
-1.959891915321350098e+00 8.265149116516113281e+00 -4.451696574687957764e-01 2.000000000000000000e+00
-3.585234880447388139e+00 1.514299869537354049e+01 -2.716292440891265869e-01 2.000000000000000000e+00
-5.184967517852783203e-01 2.201976776123046875e+00 -6.061542034149169922e-01 1.800000000000000000e+01
-5.913825035095214844e-01 2.515447139739989790e+00 -5.965701937675476074e-01 1.100000000000000000e+01
-6.887322664260864258e-01 2.931821346282958984e+00 -5.854020118713378906e-01 1.100000000000000000e+01
-8.250234723091125488e-01 3.517505407333374023e+00 -5.722372531890869141e-01 1.000000000000000000e+01
-1.022475123405456987e+00 4.366199970245361328e+00 -5.506057143211364746e-01 1.100000000000000000e+01
-1.335061430931091087e+00 5.705499649047851562e+00 -5.126500725746154785e-01 9.000000000000000000e+00
-1.943378090858459029e+00 8.318280220031738281e+00 -4.476817548274993896e-01 1.000000000000000000e+00
-3.529548168182373047e+00 1.513143539428710938e+01 -2.712104022502899170e-01 2.000000000000000000e+00
-1.268472290039063033e+01 5.438035202026367188e+01 1.496232891082764027e+01 1.900000000000000000e+01
-5.116796493530273438e-01 2.207537174224853960e+00 -6.071894764900207520e-01 1.900000000000000000e+01
-5.830377340316772461e-01 2.519394874572753906e+00 -5.970200896263122559e-01 1.300000000000000000e+01
-6.793787479400634766e-01 2.938033103942871094e+00 -5.861652493476867676e-01 1.100000000000000000e+01
-8.078520298004150391e-01 3.499191761016846147e+00 -5.687957406044006348e-01 9.000000000000000000e+00
-1.009011507034301980e+00 4.377480030059813565e+00 -5.515806674957275391e-01 1.100000000000000000e+01
-1.314243078231811968e+00 5.706242084503173828e+00 -5.123014450073242188e-01 6.000000000000000000e+00
-1.914330005645751953e+00 8.325013160705566406e+00 -4.476817548274993896e-01 1.000000000000000000e+00
-3.469548940658568892e+00 1.511248016357422053e+01 -2.706519067287445068e-01 2.000000000000000000e+00
-5.048301219940185547e-01 2.213076829910277876e+00 -6.082247495651245117e-01 1.800000000000000000e+01
-5.712107419967651367e-01 2.508114099502563032e+00 -5.938707590103149414e-01 1.100000000000000000e+01
-6.704258322715759277e-01 2.946129798889160156e+00 -5.873100757598876953e-01 1.200000000000000000e+01
-7.986961603164672852e-01 3.515474319458007812e+00 -5.709857940673828125e-01 1.000000000000000000e+01
-9.910904169082641602e-01 4.369359970092773438e+00 -5.501182079315185547e-01 1.100000000000000000e+01
-1.296518564224242942e+00 5.720510005950927734e+00 -5.131729841232299805e-01 8.000000000000000000e+00
-1.876442790031433105e+00 8.292684555053710938e+00 -4.455883204936981201e-01 1.000000000000000000e+00
-3.429994821548461914e+00 1.518301486968993963e+01 -2.716990709304810125e-01 2.000000000000000000e+00
-4.979480803012847900e-01 2.218595504760742188e+00 -6.092600226402282715e-01 1.700000000000000000e+01
-5.616000890731811523e-01 2.506289482116699219e+00 -5.929709672927856445e-01 1.100000000000000000e+01
-6.592799425125122070e-01 2.944620370864868164e+00 -5.865468382835388184e-01 1.100000000000000000e+01
-7.855581641197204590e-01 3.514385223388671875e+00 -5.703600645065307617e-01 1.100000000000000000e+01
-9.710765480995178223e-01 4.351480960845947266e+00 -5.474370718002319336e-01 1.000000000000000000e+01
-1.277409553527832031e+00 5.728890419006347656e+00 -5.135216116905212402e-01 8.000000000000000000e+00
-1.848352551460265891e+00 8.303082466125488281e+00 -4.457976818084716797e-01 2.000000000000000000e+00
-3.362224817276000977e+00 1.512852478027343928e+01 -2.705123126506804865e-01 2.000000000000000000e+00
-4.905585646629332941e-01 2.218262672424315962e+00 -6.087424159049987793e-01 1.600000000000000000e+01
-5.554040670394897461e-01 2.515653133392333984e+00 -5.947706103324890137e-01 1.100000000000000000e+01
-6.462196111679077148e-01 2.929422616958618164e+00 -5.831122994422912598e-01 1.100000000000000000e+01
-7.757881283760070801e-01 3.522623300552368164e+00 -5.712986588478088379e-01 1.100000000000000000e+01
-9.582537412643432617e-01 4.358387947082520419e+00 -5.479245781898498535e-01 1.000000000000000000e+01
-1.258122920989990012e+00 5.727036952972412109e+00 -5.129987001419067383e-01 9.000000000000000000e+00
-1.825681447982788086e+00 8.324455261230468750e+00 -4.466350376605988104e-01 2.000000000000000000e+00
-3.304415702819824219e+00 1.509213066101074041e+01 -2.696745693683624268e-01 2.000000000000000000e+00
-4.807596206665039062e-01 2.210522890090941939e+00 -6.061542034149169922e-01 1.700000000000000000e+01
-5.457924604415893555e-01 2.513767719268798828e+00 -5.938707590103149414e-01 1.100000000000000000e+01
-6.355738639831542969e-01 2.929741859436035156e+00 -5.827306509017944336e-01 1.000000000000000000e+01
-7.622327804565429688e-01 3.519517898559569868e+00 -5.703600645065307617e-01 1.000000000000000000e+01
-9.413562417030334473e-01 4.353945255279541016e+00 -5.469496250152587891e-01 1.000000000000000000e+01
-1.237703442573546919e+00 5.729446411132813388e+00 -5.128244161605834961e-01 9.000000000000000000e+00
-1.800822973251342995e+00 8.350301742553710938e+00 -4.476817548274993896e-01 1.000000000000000000e+00
-1.140210437774658025e+01 5.291564559936522727e+01 1.249693107604979936e+01 1.700000000000000000e+01
-3.249189138412476030e+00 1.509184455871582031e+01 -2.694651484489440918e-01 2.000000000000000000e+00
-4.726365506649016779e-01 2.210298299789429155e+00 -6.056365370750427246e-01 1.900000000000000000e+01
-5.398622751235961914e-01 2.528998136520386186e+00 -5.970200896263122559e-01 1.200000000000000000e+01
-6.282099485397338867e-01 2.945383071899414062e+00 -5.854020118713378906e-01 1.100000000000000000e+01
-7.466517090797424316e-01 3.506700754165648970e+00 -5.678570866584777832e-01 1.100000000000000000e+01
-9.302796721458435059e-01 4.376621723175048828e+00 -5.493869781494140625e-01 1.100000000000000000e+01
-1.216040849685668945e+00 5.725936412811279297e+00 -5.121271610260009766e-01 6.000000000000000000e+00
-1.770007133483886941e+00 8.348721504211425781e+00 -4.472630918025969904e-01 2.000000000000000000e+00
-3.196488857269287109e+00 1.510309410095215021e+01 -2.694651484489440918e-01 2.000000000000000000e+00
-1.161495590209960938e+01 5.487952041625977273e+01 1.503065681457520064e+01 1.900000000000000000e+01
-4.669051170349121094e-01 2.221387386322021040e+00 -6.082247495651245117e-01 1.900000000000000000e+01
-5.298305749893188477e-01 2.525145530700684038e+00 -5.956704020500183105e-01 1.100000000000000000e+01
-6.199389100074768066e-01 2.957165241241455078e+00 -5.873100757598876953e-01 1.200000000000000000e+01
-7.360250353813171387e-01 3.517019510269165039e+00 -5.691086053848266602e-01 1.000000000000000000e+01
-9.125610589981079102e-01 4.368183612823486328e+00 -5.479245781898498535e-01 1.000000000000000000e+01
-1.196860432624816895e+00 5.734046936035156250e+00 -5.124757885932922363e-01 9.000000000000000000e+00
-1.734335303306580034e+00 8.323564529418945312e+00 -4.455883204936981201e-01 2.000000000000000000e+00
-3.140491962432860884e+00 1.509849739074707031e+01 -2.691859304904937744e-01 2.000000000000000000e+00
-1.138150215148925959e+01 5.476662445068358664e+01 1.498821067810058949e+01 1.900000000000000000e+01
-4.607123732566832941e-01 2.232543706893920898e+00 -6.108129620552062988e-01 1.900000000000000000e+01
-5.193923711776733398e-01 2.521344661712646040e+00 -5.943207144737243652e-01 1.300000000000000000e+01
-6.083046793937683105e-01 2.955571651458739790e+00 -5.865468382835388184e-01 1.100000000000000000e+01
-7.231295704841613770e-01 3.519693613052368164e+00 -5.691086053848266602e-01 1.000000000000000000e+01
-8.953483104705810547e-01 4.365664958953857422e+00 -5.471933484077453613e-01 1.000000000000000000e+01
-1.174636125564574973e+00 5.732539653778076172e+00 -5.119528174400329590e-01 9.000000000000000000e+00
-1.707818627357482910e+00 8.349432945251464844e+00 -4.466350376605988104e-01 1.000000000000000000e+00
-3.088332414627075195e+00 1.512558078765868963e+01 -2.694651484489440918e-01 2.000000000000000000e+00
-4.502297341823577881e-01 2.220885038375854048e+00 -6.071894764900207520e-01 1.800000000000000000e+01
-5.125206708908081055e-01 2.532692432403564009e+00 -5.965701937675476074e-01 1.100000000000000000e+01
-5.944825410842895508e-01 2.940358161926269975e+00 -5.831122994422912598e-01 1.100000000000000000e+01
-7.127930521965026855e-01 3.531877994537353960e+00 -5.706729292869567871e-01 1.000000000000000000e+01
-8.789277672767639160e-01 4.362925529479979581e+00 -5.464621186256408691e-01 1.000000000000000000e+01
-1.151866793632507102e+00 5.722932338714599609e+00 -5.107326507568359375e-01 8.000000000000000000e+00
-1.678663253784179910e+00 8.355343818664550781e+00 -4.466350376605988104e-01 1.000000000000000000e+00
-3.030797004699707031e+00 1.511274051666259943e+01 -2.690463066101074219e-01 2.000000000000000000e+00
-4.428518712520598810e-01 2.224337816238402876e+00 -6.077071428298950195e-01 1.900000000000000000e+01
-5.021573901176452637e-01 2.526820421218872070e+00 -5.947706103324890137e-01 1.100000000000000000e+01
-5.861268639564514160e-01 2.952043771743773970e+00 -5.850203633308410645e-01 1.200000000000000000e+01
-6.973879337310791016e-01 3.518843173980712891e+00 -5.681699514389038086e-01 9.000000000000000000e+00
-8.640781641006469727e-01 4.367914676666259766e+00 -5.467059016227722168e-01 9.000000000000000000e+00
-1.134973526000977007e+00 5.742555141448974609e+00 -5.121271610260009766e-01 9.000000000000000000e+00
-1.646394968032836914e+00 8.345476150512695312e+00 -4.457976818084716797e-01 1.000000000000000000e+00
-2.972616434097290039e+00 1.509576034545898082e+01 -2.685576379299163818e-01 2.000000000000000000e+00
-4.336023926734923761e-01 2.218286037445067915e+00 -6.056365370750427246e-01 1.600000000000000000e+01
-4.933340847492218018e-01 2.528558015823363814e+00 -5.947706103324890137e-01 1.100000000000000000e+01
-5.769456028938293457e-01 2.959852695465087891e+00 -5.861652493476867676e-01 1.100000000000000000e+01
-6.854779124259948730e-01 3.523195028305054155e+00 -5.684828162193298340e-01 8.000000000000000000e+00
-8.503397703170776367e-01 4.378698825836181641e+00 -5.476808547973632812e-01 1.400000000000000000e+01
-1.112644433975219949e+00 5.734746456146240234e+00 -5.110812783241271973e-01 9.000000000000000000e+00
-1.616494297981261985e+00 8.347250938415527344e+00 -4.455883204936981201e-01 1.000000000000000000e+00
-2.925976276397705078e+00 1.513745784759520951e+01 -2.691161036491394043e-01 2.000000000000000000e+00
-4.262204766273499090e-01 2.221683502197266069e+00 -6.061542034149169922e-01 1.800000000000000000e+01
-4.826723039150238037e-01 2.520694732666016069e+00 -5.925210714340209961e-01 1.300000000000000000e+01
-5.636591315269470215e-01 2.946422338485718218e+00 -5.831122994422912598e-01 1.100000000000000000e+01
-6.735459566116333008e-01 3.527506589889525923e+00 -5.687957406044006348e-01 9.000000000000000000e+00
-8.335635662078857422e-01 4.373840332031250000e+00 -5.467059016227722168e-01 9.000000000000000000e+00
-1.093737602233886941e+00 5.744466781616210938e+00 -5.116041898727416992e-01 8.000000000000000000e+00
-1.586601376533508079e+00 8.348917961120605469e+00 -4.453789889812468927e-01 1.000000000000000000e+00
-2.872373580932617188e+00 1.514365005493164062e+01 -2.690463066101074219e-01 2.000000000000000000e+00
-4.206068813800811768e-01 2.234548807144165039e+00 -6.092600226402282715e-01 1.800000000000000000e+01
-4.749499261379241943e-01 2.528110027313231978e+00 -5.938707590103149414e-01 1.200000000000000000e+01
-5.548194050788879395e-01 2.956090211868286133e+00 -5.846387743949890137e-01 1.200000000000000000e+01
-6.630471348762512207e-01 3.539544343948363814e+00 -5.703600645065307617e-01 9.000000000000000000e+00
-8.164668083190917969e-01 4.366967201232910156e+00 -5.454871654510498047e-01 1.000000000000000000e+01
-1.073313236236572044e+00 5.746291160583496094e+00 -5.114299058914184570e-01 8.000000000000000000e+00
-1.557448506355286089e+00 8.354405403137207031e+00 -4.453789889812468927e-01 1.000000000000000000e+00
-2.812910795211791992e+00 1.511819744110107067e+01 -2.684180140495299738e-01 2.000000000000000000e+00
-4.117903113365172785e-01 2.228332519531250000e+00 -6.071894764900207520e-01 1.500000000000000000e+01
-4.679776430130004883e-01 2.537336826324462891e+00 -5.956704020500183105e-01 1.200000000000000000e+01
-5.443021059036254883e-01 2.954052209854125977e+00 -5.838755369186401367e-01 1.100000000000000000e+01
-6.505913734436035156e-01 3.537837982177733931e+00 -5.697343349456787109e-01 9.000000000000000000e+00
-8.030560016632080078e-01 4.375507831573486328e+00 -5.462183952331542969e-01 9.000000000000000000e+00
-1.053533315658568892e+00 5.745899200439453125e+00 -5.110812783241271973e-01 9.000000000000000000e+00
-1.526859641075134055e+00 8.343807220458984375e+00 -4.445416033267974854e-01 1.000000000000000000e+00
-2.767791271209716797e+00 1.515498256683349965e+01 -2.689066827297211248e-01 2.000000000000000000e+00
-4.019429087638854980e-01 2.218350887298583984e+00 -6.040836572647094727e-01 1.800000000000000000e+01
-4.587710499763488770e-01 2.537037134170531782e+00 -5.952205061912536621e-01 1.200000000000000000e+01
-5.339872241020202637e-01 2.955934286117554155e+00 -5.838755369186401367e-01 1.100000000000000000e+01
-6.389390230178833008e-01 3.543975591659545898e+00 -5.703600645065307617e-01 8.000000000000000000e+00
-7.860201001167297363e-01 4.368515968322753906e+00 -5.449997186660766602e-01 1.000000000000000000e+01
-1.029240131378174050e+00 5.726010322570800781e+00 -5.089895129203796387e-01 9.000000000000000000e+00
-1.499135613441467063e+00 8.356949806213378906e+00 -4.449602961540222168e-01 2.000000000000000000e+00
-2.713464021682738814e+00 1.515667724609375000e+01 -2.687670588493347168e-01 2.000000000000000000e+00
-3.956486880779265802e-01 2.223406553268433061e+00 -6.051189303398132324e-01 1.600000000000000000e+01
