3.865961074829102007e+00 -1.714956760406493863e-01 -6.129102110862731934e-01 1.000000000000000000e+01
4.965710163116455078e+00 -2.220178246498107910e-01 -6.103217005729675293e-01 1.000000000000000000e+01
6.466762065887451172e+00 -2.902610599994658869e-01 -5.663380026817321777e-01 7.000000000000000000e+00
9.890299797058105469e+00 -4.473861455917357843e-01 -5.188586711883544922e-01 2.000000000000000000e+00
1.881359481811523082e+01 -8.576107025146484375e-01 -3.287335336208344061e-01 3.000000000000000000e+00
2.371668100357056108e+00 -1.106005012989044051e-01 -6.361772418022155762e-01 1.800000000000000000e+01
2.744695901870727983e+00 -1.289564669132232944e-01 -6.343619823455810547e-01 1.200000000000000000e+01
3.882351303100585938e+01 -1.830870509147644043e+00 2.036915302276610884e+00 2.200000000000000000e+01
3.208318471908568892e+00 -1.513004601001740057e-01 -6.243270039558410645e-01 1.200000000000000000e+01
3.859483718872069868e+00 -1.833588629961014072e-01 -6.119716167449951172e-01 9.000000000000000000e+00
4.957056999206542969e+00 -2.372373640537261963e-01 -6.093466877937316895e-01 9.000000000000000000e+00
6.471788883209229404e+00 -3.108623027801514227e-01 -5.668609738349914551e-01 9.000000000000000000e+00
9.828997611999511719e+00 -4.755595624446868896e-01 -5.157185196876525879e-01 2.000000000000000000e+00
1.881080818176269887e+01 -9.167110323905944824e-01 -3.287335336208344061e-01 3.000000000000000000e+00
2.382844209671020952e+00 -1.194588616490363936e-01 -6.392830610275268555e-01 1.700000000000000000e+01
2.744228839874268022e+00 -1.385364532470703125e-01 -6.343619823455810547e-01 1.300000000000000000e+01
3.894454956054688211e+01 -1.972845673561095969e+00 2.043614387512207031e+00 2.200000000000000000e+01
3.217574596405028853e+00 -1.629952937364577970e-01 -6.262351274490356445e-01 1.300000000000000000e+01
3.868684291839600053e+00 -1.973330080509186069e-01 -6.135360002517700195e-01 1.000000000000000000e+01
4.952233791351318359e+00 -2.543356418609619141e-01 -6.088592410087585449e-01 9.000000000000000000e+00
6.502500057220458984e+00 -3.350917696952819824e-01 -5.696499347686767578e-01 9.000000000000000000e+00
9.867169380187988281e+00 -5.119359493255615234e-01 -5.178119540214538574e-01 2.000000000000000000e+00
1.898322677612305043e+01 -9.915464520454406738e-01 -3.318051397800446112e-01 3.000000000000000000e+00
2.397822856903076172e+00 -1.290220022201538086e-01 -6.434241533279418945e-01 1.700000000000000000e+01
2.737865209579468218e+00 -1.482774764299392978e-01 -6.330122947692871094e-01 1.300000000000000000e+01
3.888121414184570312e+01 -2.112537384033203125e+00 2.040683507919311968e+00 2.200000000000000000e+01
3.211074352264403853e+00 -1.744676679372786920e-01 -6.250902414321899414e-01 1.400000000000000000e+01
3.875824689865111861e+00 -2.119425535202026090e-01 -6.147874593734741211e-01 1.000000000000000000e+01
4.951268196105957031e+00 -2.724847793579102118e-01 -6.088592410087585449e-01 1.200000000000000000e+01
4.220524597167968750e+01 -2.322695255279541016e+00 6.694769382476806641e+00 1.400000000000000000e+01
6.499238967895507812e+00 -3.588125407695770264e-01 -5.694756507873535156e-01 9.000000000000000000e+00
9.925051689147949219e+00 -5.514212846755981445e-01 -5.209521055221557617e-01 2.000000000000000000e+00
1.910325241088866832e+01 -1.068037629127501997e+00 -3.339692354202271063e-01 3.000000000000000000e+00
2.378071069717406782e+00 -1.362858712673186978e-01 -6.382477879524230957e-01 1.600000000000000000e+01
2.752894878387451172e+00 -1.587309241294861117e-01 -6.366114616394042969e-01 1.100000000000000000e+01
3.892943191528320312e+01 -2.251474142074584961e+00 2.043614387512207031e+00 2.200000000000000000e+01
3.206526041030883789e+00 -1.854486316442489902e-01 -6.243270039558410645e-01 1.600000000000000000e+01
3.882949352264403853e+00 -2.259293794631958008e-01 -6.160389184951782227e-01 1.000000000000000000e+01
4.948305130004882812e+00 -2.896502912044525146e-01 -6.086155176162719727e-01 1.100000000000000000e+01
6.511869430541992188e+00 -3.823143541812896729e-01 -5.706958174705505371e-01 9.000000000000000000e+00
9.903128623962402344e+00 -5.848852992057800293e-01 -5.199053883552551270e-01 2.000000000000000000e+00
3.652357482910156250e+01 -2.163503170013428178e+00 8.446911811828613281e+00 1.100000000000000000e+01
1.909940719604491832e+01 -1.134713888168334961e+00 -3.339692354202271063e-01 3.000000000000000000e+00
2.366061210632324219e+00 -1.430565714836120883e-01 -6.351419091224670410e-01 1.500000000000000000e+01
2.752382755279541016e+00 -1.673786044120789129e-01 -6.366114616394042969e-01 1.100000000000000000e+01
3.217685222625731978e+00 -1.962383687496185025e-01 -6.266167163848876953e-01 1.300000000000000000e+01
3.882220506668090820e+00 -2.381268888711929044e-01 -6.160389184951782227e-01 1.100000000000000000e+01
4.957277774810791016e+00 -3.058055043220520020e-01 -6.098341941833496094e-01 1.200000000000000000e+01
6.504670619964599609e+00 -4.024010002613068182e-01 -5.701728463172912598e-01 9.000000000000000000e+00
9.941110610961914062e+00 -6.184743046760559082e-01 -5.219988226890563965e-01 2.000000000000000000e+00
1.909574890136719105e+01 -1.194710731506348100e+00 -3.339692354202271063e-01 3.000000000000000000e+00
2.377114772796630859e+00 -1.520547121763229093e-01 -6.382477879524230957e-01 1.700000000000000000e+01
2.751781702041625977e+00 -1.769851893186568936e-01 -6.366114616394042969e-01 1.100000000000000000e+01
3.209143877029418945e+00 -2.069635838270187100e-01 -6.250902414321899414e-01 1.400000000000000000e+01
3.873480558395386186e+00 -2.511656284332274836e-01 -6.147874593734741211e-01 1.000000000000000000e+01
4.960141658782958984e+00 -3.233660459518433172e-01 -6.103217005729675293e-01 1.000000000000000000e+01
6.515155315399169922e+00 -4.258838593959807794e-01 -5.712187290191650391e-01 9.000000000000000000e+00
9.986721992492675781e+00 -6.563149094581604004e-01 -5.245109796524047852e-01 2.000000000000000000e+00
3.598339843750000000e+01 -2.371091604232788086e+00 8.325438499450683594e+00 2.100000000000000000e+01
1.914334106445312855e+01 -1.264787673950195090e+00 -3.348767757415770929e-01 3.000000000000000000e+00
2.378497123718262163e+00 -1.604815274477005005e-01 -6.387653946876525879e-01 1.900000000000000000e+01
2.751147031784058061e+00 -1.865896135568619052e-01 -6.366114616394042969e-01 1.100000000000000000e+01
3.226030349731444868e+00 -2.193630337715148926e-01 -6.285248398780822754e-01 1.300000000000000000e+01
3.872580289840697798e+00 -2.646850943565369207e-01 -6.147874593734741211e-01 1.000000000000000000e+01
4.955021858215332031e+00 -3.404060900211334229e-01 -6.098341941833496094e-01 1.200000000000000000e+01
6.535493373870849609e+00 -4.501293003559113104e-01 -5.731361508369445801e-01 8.000000000000000000e+00
9.916625976562500000e+00 -6.864814162254333496e-01 -5.209521055221557617e-01 2.000000000000000000e+00
4.059788894653320312e+01 -2.817520856857299805e+00 9.395305633544921875e+00 1.200000000000000000e+01
1.916274833679198863e+01 -1.333268284797668013e+00 -3.352956175804138184e-01 3.000000000000000000e+00
3.933978271484375000e+01 -2.737106800079346147e+00 1.056654644012450994e+01 9.000000000000000000e+00
2.391411542892456055e+00 -1.697404831647872925e-01 -6.423888802528381348e-01 1.900000000000000000e+01
2.750478982925415039e+00 -1.961917728185653964e-01 -6.366114616394042969e-01 1.000000000000000000e+01
3.219370365142821822e+00 -2.302025705575942993e-01 -6.273799538612365723e-01 1.300000000000000000e+01
3.883454561233520952e+00 -2.790507674217224121e-01 -6.166646480560302734e-01 1.000000000000000000e+01
4.963703155517578125e+00 -3.584150969982147217e-01 -6.110528707504272461e-01 1.000000000000000000e+01
6.541831016540527344e+00 -4.735150337219237726e-01 -5.738334059715270996e-01 8.000000000000000000e+00
9.985880851745605469e+00 -7.263085842132568359e-01 -5.247203111648559570e-01 2.000000000000000000e+00
1.935741424560546875e+01 -1.414726376533508079e+00 -3.387861251831055243e-01 3.000000000000000000e+00
3.800055694580078125e+01 -2.777250766754149947e+00 1.020937633514403942e+01 8.000000000000000000e+00
2.384993791580200195e+00 -1.780727952718735019e-01 -6.408359408378601074e-01 1.900000000000000000e+01
2.753628015518188032e+00 -2.065630257129668912e-01 -6.375113129615783691e-01 1.000000000000000000e+01
3.202843189239501953e+00 -2.408229857683182040e-01 -6.243270039558410645e-01 1.300000000000000000e+01
3.886345148086547852e+00 -2.935800552368164062e-01 -6.172903776168823242e-01 1.100000000000000000e+01
4.958397388458251953e+00 -3.763051331043242853e-01 -6.105654239654541016e-01 1.000000000000000000e+01
6.542038440704345703e+00 -4.976399838924407959e-01 -5.740077495574951172e-01 8.000000000000000000e+00
9.995100975036621094e+00 -7.638168931007385254e-01 -5.253483057022094727e-01 2.000000000000000000e+00
1.933216094970703125e+01 -1.484134674072266069e+00 -3.384370803833007812e-01 3.000000000000000000e+00
3.816733169555664062e+01 -2.930115461349486861e+00 1.025699901580811080e+01 8.000000000000000000e+00
2.374727725982666016e+00 -1.856440752744674960e-01 -6.382477879524230957e-01 1.700000000000000000e+01
2.760661125183105025e+00 -2.167839407920837125e-01 -6.393108963966369629e-01 1.100000000000000000e+01
3.907339096069335938e+01 -3.075142383575439009e+00 2.054081678390502930e+00 2.200000000000000000e+01
3.207854509353638139e+00 -2.524636387825012207e-01 -6.254718899726867676e-01 1.300000000000000000e+01
3.879389047622681108e+00 -3.066771328449249268e-01 -6.163517832756042480e-01 1.000000000000000000e+01
4.953095912933349609e+00 -3.932966291904448908e-01 -6.100779175758361816e-01 1.000000000000000000e+01
6.556150436401367188e+00 -5.217373967170715332e-01 -5.754022002220153809e-01 8.000000000000000000e+00
3.589211273193358664e+01 -2.862592458724976030e+00 6.998874187469482422e+00 6.000000000000000000e+01
1.004811859130859020e+01 -8.031574487686157227e-01 -5.282791256904602051e-01 2.000000000000000000e+00
1.940260696411133168e+01 -1.557688474655150923e+00 -3.397634625434874933e-01 3.000000000000000000e+00
3.805042648315429688e+01 -3.061464786529541016e+00 1.022852897644042969e+01 1.700000000000000000e+01
2.381800889968872070e+00 -1.941457241773605069e-01 -6.403183341026306152e-01 1.700000000000000000e+01
2.761869430541992188e+00 -2.260964363813399991e-01 -6.397607922554016113e-01 1.000000000000000000e+01
3.216783046722412109e+00 -2.639024853706359863e-01 -6.273799538612365723e-01 1.300000000000000000e+01
3.876382112503052202e+00 -3.193777501583098810e-01 -6.160389184951782227e-01 1.000000000000000000e+01
4.969569206237792969e+00 -4.111927449703217108e-01 -6.122716069221496582e-01 9.000000000000000000e+00
6.554384231567382812e+00 -5.434755086898803711e-01 -5.754022002220153809e-01 6.000000000000000000e+00
1.003345775604248047e+01 -8.354793787002563477e-01 -5.276511311531066895e-01 2.000000000000000000e+00
4.074879074096679688e+01 -3.400286197662353960e+00 9.440296173095703125e+00 1.200000000000000000e+01
1.926581573486328125e+01 -1.611023426055907981e+00 -3.374597430229187012e-01 6.000000000000000000e+00
3.809260177612304688e+01 -3.185334920883179155e+00 1.024250507354735973e+01 8.000000000000000000e+00
2.381108760833739790e+00 -2.024585902690886896e-01 -6.403183341026306152e-01 1.800000000000000000e+01
2.743588209152222124e+00 -2.342437803745270053e-01 -6.357116699218750000e-01 1.100000000000000000e+01
3.221710681915283203e+00 -2.756316065788269043e-01 -6.285248398780822754e-01 1.200000000000000000e+01
3.877211809158325195e+00 -3.330759704113007147e-01 -6.163517832756042480e-01 9.000000000000000000e+00
4.962170600891113281e+00 -4.280254840850830078e-01 -6.115403771400451660e-01 1.000000000000000000e+01
6.558402061462402344e+00 -5.668659210205078125e-01 -5.759251713752746582e-01 6.000000000000000000e+00
1.005037879943848012e+01 -8.722243905067443848e-01 -5.286978483200073242e-01 2.000000000000000000e+00
3.996010971069335938e+01 -3.474974155426024947e+00 9.260334968566894531e+00 1.200000000000000000e+01
1.932382202148437855e+01 -1.683818697929382102e+00 -3.385766744613646906e-01 3.000000000000000000e+00
2.391933441162108931e+00 -2.117912918329238892e-01 -6.434241533279418945e-01 1.700000000000000000e+01
2.742753982543944868e+00 -2.438192665576935092e-01 -6.357116699218750000e-01 1.100000000000000000e+01
3.950976181030272727e+01 -3.512251138687133789e+00 2.078784227371215820e+00 2.200000000000000000e+01
3.214862346649169922e+00 -2.863532602787017822e-01 -6.273799538612365723e-01 1.300000000000000000e+01
3.887830734252930132e+00 -3.476636111736298163e-01 -6.182290315628051758e-01 9.000000000000000000e+00
4.952737808227539062e+00 -4.446340799331665039e-01 -6.105654239654541016e-01 1.000000000000000000e+01
6.568289756774902344e+00 -5.908265709877014160e-01 -5.769709944725036621e-01 4.000000000000000000e+00
1.002738094329833984e+01 -9.055051803588867188e-01 -5.276511311531066895e-01 2.000000000000000000e+00
3.623302078247070312e+01 -3.278335571289062944e+00 8.399222373962402344e+00 1.100000000000000000e+01
1.945325088500976918e+01 -1.763538002967834029e+00 -3.409502208232880194e-01 3.000000000000000000e+00
2.385408401489257812e+00 -2.196080982685089111e-01 -6.418712139129638672e-01 1.900000000000000000e+01
5.968749618530272727e+01 -5.505521774291992188e+00 1.046271800994873047e+00 6.300000000000000000e+01
2.745767116546630859e+00 -2.537504434585570734e-01 -6.366114616394042969e-01 1.300000000000000000e+01
3.949662017822266336e+01 -3.657038211822510210e+00 2.078784227371215820e+00 2.200000000000000000e+01
3.211888313293457031e+00 -2.973924875259398859e-01 -6.269983649253845215e-01 1.300000000000000000e+01
3.892493963241577148e+00 -3.617809712886809748e-01 -6.191676259040832520e-01 1.000000000000000000e+01
4.953132152557373047e+00 -4.621040523052216131e-01 -6.108091473579406738e-01 9.000000000000000000e+00
6.570154666900634766e+00 -6.141214370727539062e-01 -5.773196220397949219e-01 5.000000000000000000e+00
1.008381462097167969e+01 -9.460988640785217285e-01 -5.307912826538085938e-01 2.000000000000000000e+00
3.613210678100585938e+01 -3.396403074264525923e+00 8.378526687622070312e+00 1.000000000000000000e+01
1.957439422607421875e+01 -1.843431353569030984e+00 -3.431841135025023859e-01 3.000000000000000000e+00
2.375011920928955078e+00 -2.270143032073974887e-01 -6.392830610275268555e-01 1.800000000000000000e+01
2.752623796463013139e+00 -2.640778124332427979e-01 -6.384111046791076660e-01 1.300000000000000000e+01
3.226464748382567915e+00 -3.101048767566680908e-01 -6.300513148307800293e-01 1.300000000000000000e+01
3.893173694610596147e+00 -3.755557835102080744e-01 -6.194804906845092773e-01 1.000000000000000000e+01
4.959392070770263672e+00 -4.801560938358306885e-01 -6.117841005325317383e-01 9.000000000000000000e+00
6.575903415679931641e+00 -6.378211975097656250e-01 -5.780168771743774414e-01 5.000000000000000000e+00
1.012020778656006037e+01 -9.851624369621276855e-01 -5.328847169876098633e-01 2.000000000000000000e+00
3.664758682250977273e+01 -3.573955297470093218e+00 8.500900268554687500e+00 1.100000000000000000e+01
1.963948822021484020e+01 -1.918747425079345925e+00 -3.444406986236572266e-01 3.000000000000000000e+00
2.385739564895629883e+00 -2.364464402198792059e-01 -6.423888802528381348e-01 1.900000000000000000e+01
2.763320446014403853e+00 -2.748418748378754217e-01 -6.411104798316955566e-01 1.400000000000000000e+01
3.947081375122070312e+01 -3.925796270370482954e+00 2.078784227371215820e+00 2.200000000000000000e+01
3.233176946640015093e+00 -3.221440613269805908e-01 -6.315777897834777832e-01 1.300000000000000000e+01
3.893804550170897993e+00 -3.893397450447083075e-01 -6.197933554649353027e-01 1.000000000000000000e+01
4.967561721801757812e+00 -4.984556436538695734e-01 -6.130027770996093750e-01 1.000000000000000000e+01
6.585531234741210938e+00 -6.619670987129211426e-01 -5.790627598762512207e-01 5.000000000000000000e+00
1.008888721466063920e+01 -1.017676234245300071e+00 -5.314192771911621094e-01 2.000000000000000000e+00
3.665427780151367188e+01 -3.703816652297974077e+00 8.505399703979492188e+00 1.100000000000000000e+01
1.966052436828612926e+01 -1.990109801292418990e+00 -3.449293673038483221e-01 3.000000000000000000e+00
3.735080718994141336e+01 -3.780784845352172852e+00 1.005926132202148082e+01 8.000000000000000000e+00
2.386864185333251953e+00 -2.445534318685531894e-01 -6.429064869880676270e-01 1.900000000000000000e+01
2.748824119567871094e+00 -2.826087772846221924e-01 -6.379612088203430176e-01 1.200000000000000000e+01
3.234043836593627930e+00 -3.330650031566619873e-01 -6.319593787193298340e-01 1.200000000000000000e+01
3.888562440872191939e+00 -4.018438160419464111e-01 -6.191676259040832520e-01 1.000000000000000000e+01
3.660602188110352273e+01 -3.789321422576903853e+00 4.518671512603759766e+00 1.900000000000000000e+01
4.963906764984130859e+00 -5.147211551666259766e-01 -6.127590537071228027e-01 9.000000000000000000e+00
6.571409702301025391e+00 -6.825668215751647949e-01 -5.780168771743774414e-01 8.000000000000000000e+00
1.009737586975098012e+01 -1.052368879318237083e+00 -5.320473313331604004e-01 2.000000000000000000e+00
3.660302734375000000e+01 -3.821299314498900923e+00 8.496401786804199219e+00 1.100000000000000000e+01
1.970154762268066051e+01 -2.060286998748778853e+00 -3.457670807838439941e-01 3.000000000000000000e+00
3.731048583984375000e+01 -3.908322811126708984e+00 1.005201435089110973e+01 8.000000000000000000e+00
2.387917041778564009e+00 -2.530872821807860773e-01 -6.434241533279418945e-01 1.800000000000000000e+01
5.967750167846679688e+01 -6.335549354553222656e+00 1.047528386116028054e+00 6.300000000000000000e+01
2.742007493972777876e+00 -2.915840148925781250e-01 -6.366114616394042969e-01 1.100000000000000000e+01
3.225052595138549805e+00 -3.435201346874237061e-01 -6.304329037666320801e-01 1.300000000000000000e+01
3.889100074768065962e+00 -4.156249165534973145e-01 -6.194804906845092773e-01 1.000000000000000000e+01
3.672284317016602273e+01 -3.931022405624390093e+00 4.534758090972900391e+00 1.900000000000000000e+01
4.968001365661621094e+00 -5.326802134513854980e-01 -6.134902834892272949e-01 1.000000000000000000e+01
6.578891754150390625e+00 -7.065649628639221191e-01 -5.788884162902832031e-01 8.000000000000000000e+00
1.014129924774169922e+01 -1.092744112014770952e+00 -5.345594286918640137e-01 2.000000000000000000e+00
3.660496902465820312e+01 -3.950717210769652876e+00 8.500000953674316406e+00 1.100000000000000000e+01
1.976183319091796875e+01 -2.136353254318236861e+00 -3.469538390636444092e-01 3.000000000000000000e+00
3.738496398925781250e+01 -4.048103332519531250e+00 1.007582569122313920e+01 8.000000000000000000e+00
2.385098695755004883e+00 -2.612107992172241211e-01 -6.429064869880676270e-01 1.900000000000000000e+01
5.982199478149414062e+01 -6.562139987945556641e+00 1.050460338592529075e+00 6.300000000000000000e+01
2.754532575607299805e+00 -3.026434481143950861e-01 -6.397607922554016113e-01 1.300000000000000000e+01
5.965862655639647727e+01 -6.554757595062255859e+00 3.145390987396239790e+00 6.300000000000000000e+01
3.216027975082397017e+00 -3.539165556430817206e-01 -6.289064288139343262e-01 1.300000000000000000e+01
3.893516063690185991e+00 -4.298481643199921209e-01 -6.204190850257873535e-01 1.100000000000000000e+01
3.683517456054688211e+01 -4.073148250579833984e+00 4.550357341766357422e+00 1.900000000000000000e+01
4.948354244232177734e+00 -5.480518341064453125e-01 -6.112966537475585938e-01 9.000000000000000000e+00
6.576385498046875000e+00 -7.295252680778503418e-01 -5.788884162902832031e-01 8.000000000000000000e+00
1.012948322296142933e+01 -1.127253651618957964e+00 -5.341407656669616699e-01 2.000000000000000000e+00
3.541341018676757812e+01 -3.947218179702758789e+00 8.226460456848144531e+00 1.000000000000000000e+01
1.980990028381348012e+01 -2.211534023284912109e+00 -3.479311764240264893e-01 3.000000000000000000e+00
2.378413677215576172e+00 -2.688837051391602118e-01 -6.413536071777343750e-01 1.800000000000000000e+01
5.983051681518554688e+01 -6.774517536163330078e+00 1.051018834114074929e+00 6.300000000000000000e+01
2.761204481124877930e+00 -3.131350874900817871e-01 -6.415604352951049805e-01 1.500000000000000000e+01
3.222575902938843218e+00 -3.660266995429993231e-01 -6.304329037666320801e-01 1.400000000000000000e+01
3.888066530227661133e+00 -4.429892301559448242e-01 -6.197933554649353027e-01 1.100000000000000000e+01
3.689567565917968750e+01 -4.210254669189453125e+00 4.559619426727294922e+00 1.900000000000000000e+01
4.966133594512938565e+00 -5.675755739212036133e-01 -6.137340068817138672e-01 9.000000000000000000e+00
6.581716537475585938e+00 -7.533830404281616211e-01 -5.795856714248657227e-01 6.000000000000000000e+00
1.020485591888427912e+01 -1.171718358993530051e+00 -5.383276343345642090e-01 2.000000000000000000e+00
3.440819549560546875e+01 -3.956822872161864790e+00 7.996109962463378906e+00 1.000000000000000000e+01
2.377460479736328125e+00 -2.771842777729033869e-01 -6.413536071777343750e-01 2.000000000000000000e+01
2.752352476119995117e+00 -3.218661844730377197e-01 -6.397607922554016113e-01 1.500000000000000000e+01
3.223228454589844194e+00 -3.775017261505126953e-01 -6.308145523071289062e-01 1.300000000000000000e+01
3.880610704421997070e+00 -4.558669924736022949e-01 -6.188547611236572266e-01 1.100000000000000000e+01
4.973979473114013672e+00 -5.860685706138610840e-01 -6.149526834487915039e-01 1.000000000000000000e+01
6.586961269378662109e+00 -7.772868871688842773e-01 -5.802829265594482422e-01 6.000000000000000000e+00
1.018483638763427912e+01 -1.205454826354980025e+00 -5.374902486801147461e-01 2.000000000000000000e+00
3.471154403686522727e+01 -4.114525318145751953e+00 8.069893836975097656e+00 1.000000000000000000e+01
2.389904975891112837e+00 -2.870943546295166016e-01 -6.449770331382751465e-01 2.100000000000000000e+01
5.990882492065429688e+01 -7.207331657409667969e+00 1.053252696990967019e+00 6.200000000000000000e+01
2.749277353286743164e+00 -3.312386274337769110e-01 -6.393108963966369629e-01 1.400000000000000000e+01
5.958671569824218750e+01 -7.179130554199218750e+00 3.145390987396239790e+00 6.300000000000000000e+01
3.227738380432128906e+00 -3.894561231136322021e-01 -6.319593787193298340e-01 1.200000000000000000e+01
3.882918119430541992e+00 -4.698847234249114990e-01 -6.194804906845092773e-01 1.100000000000000000e+01
4.969933032989501953e+00 -6.031882762908935547e-01 -6.147089600563049316e-01 9.000000000000000000e+00
6.584208011627197266e+00 -8.002749085426330566e-01 -5.802829265594482422e-01 5.000000000000000000e+00
3.346599578857421875e+01 -4.073538303375244141e+00 6.553143978118895596e+00 5.800000000000000000e+01
1.022021770477294922e+01 -1.245832681655884011e+00 -5.395836830139160156e-01 2.000000000000000000e+00
3.467375946044921875e+01 -4.232832431793212891e+00 8.064495086669921875e+00 1.000000000000000000e+01
1.998017692565917969e+01 -2.442638635635375977e+00 -3.513518571853638250e-01 3.000000000000000000e+00
2.394639968872069868e+00 -2.961462736129760742e-01 -6.465299725532531738e-01 1.900000000000000000e+01
5.988330459594727273e+01 -7.416408538818359375e+00 1.053252696990967019e+00 6.200000000000000000e+01
2.742302656173706055e+00 -3.401138186454772949e-01 -6.379612088203430176e-01 1.300000000000000000e+01
3.220514535903931108e+00 -3.999947011470795233e-01 -6.308145523071289062e-01 1.300000000000000000e+01
3.883214473724364790e+00 -4.836799204349517822e-01 -6.197933554649353027e-01 1.000000000000000000e+01
3.653045272827147727e+01 -4.556583404541015625e+00 4.520133972167968750e+00 1.900000000000000000e+01
4.948099136352539062e+00 -6.180724501609802246e-01 -6.122716069221496582e-01 9.000000000000000000e+00
6.585328578948974609e+00 -8.237478137016296387e-01 -5.806315541267395020e-01 5.000000000000000000e+00
1.019995307922362926e+01 -1.279511451721190962e+00 -5.387463569641113281e-01 2.000000000000000000e+00
3.329755783081054688e+01 -4.182844638824462891e+00 7.747764110565186435e+00 9.000000000000000000e+00
3.489625930786132812e+01 -4.389860630035400391e+00 9.424118995666503906e+00 1.400000000000000000e+01
2.393591642379761186e+00 -3.045033216476439875e-01 -6.465299725532531738e-01 1.900000000000000000e+01
5.985705184936522727e+01 -7.625394821166992188e+00 1.053252696990967019e+00 6.200000000000000000e+01
2.754630327224731001e+00 -3.514103889465332031e-01 -6.411104798316955566e-01 1.400000000000000000e+01
5.953381729125977273e+01 -7.605336666107177734e+00 3.145390987396239790e+00 6.300000000000000000e+01
3.226888179779053178e+00 -4.122290909290314276e-01 -6.323410272598266602e-01 1.300000000000000000e+01
3.897177219390869141e+00 -4.992399215698242188e-01 -6.222962737083435059e-01 1.000000000000000000e+01
4.959693908691406250e+00 -6.371111869812011719e-01 -6.139777302742004395e-01 1.000000000000000000e+01
6.592293262481688565e+00 -8.480008840560913086e-01 -5.815030932426452637e-01 6.000000000000000000e+00
1.023900318145751953e+01 -1.320729374885559082e+00 -5.410491228103637695e-01 2.000000000000000000e+00
3.500284194946289062e+01 -4.521228790283203125e+00 8.148177146911621094e+00 1.000000000000000000e+01
3.491058731079102273e+01 -4.521702766418457031e+00 9.432401657104492188e+00 1.400000000000000000e+01
2.375382423400878906e+00 -3.097731471061707098e-01 -6.418712139129638672e-01 1.900000000000000000e+01
5.983279800415039062e+01 -7.813403606414794922e+00 1.053252696990967019e+00 6.200000000000000000e+01
2.761241912841796875e+00 -3.610732555389403742e-01 -6.429101228713989258e-01 1.300000000000000000e+01
5.970766448974608664e+01 -7.818261146545410156e+00 3.155858278274536133e+00 6.200000000000000000e+01
3.221683979034423828e+00 -4.218548238277434748e-01 -6.315777897834777832e-01 1.300000000000000000e+01
3.887755393981934038e+00 -5.104521512985229492e-01 -6.210448145866394043e-01 1.000000000000000000e+01
3.622782516479492188e+01 -4.763051033020020419e+00 4.486497879028320312e+00 1.900000000000000000e+01
4.955699920654296875e+00 -6.524302959442138672e-01 -6.137340068817138672e-01 1.200000000000000000e+01
6.593547344207763672e+00 -8.692277669906616211e-01 -5.818517208099365234e-01 6.000000000000000000e+00
1.026252365112305043e+01 -1.356553792953490989e+00 -5.425145030021667480e-01 2.000000000000000000e+00
3.494210052490233664e+01 -4.625033855438232422e+00 8.137379646301269531e+00 1.000000000000000000e+01
3.520917892456054688e+01 -4.666638374328613281e+00 9.516776084899902344e+00 7.000000000000000000e+00
2.385775089263916016e+00 -3.196018934249877930e-01 -6.449770331382751465e-01 1.900000000000000000e+01
2.752238988876343218e+00 -3.696719110012053888e-01 -6.411104798316955566e-01 1.400000000000000000e+01
5.968001174926757812e+01 -8.026632308959960938e+00 3.155858278274536133e+00 6.200000000000000000e+01
3.227974891662598100e+00 -4.341447949409484863e-01 -6.331042647361755371e-01 1.300000000000000000e+01
3.876161575317382812e+00 -5.226998925209045410e-01 -6.194804906845092773e-01 1.100000000000000000e+01
3.607720565795897727e+01 -4.871417999267578125e+00 4.469923973083496094e+00 1.900000000000000000e+01
4.976998805999755859e+00 -6.729165911674499512e-01 -6.166588664054870605e-01 1.200000000000000000e+01
3.507090759277343750e+01 -4.748005867004395419e+00 5.605359554290770596e+00 1.300000000000000000e+01
6.592447280883789062e+00 -8.925055265426635742e-01 -5.820260643959045410e-01 5.000000000000000000e+00
1.024585151672362926e+01 -1.390756607055664062e+00 -5.418865084648132324e-01 2.000000000000000000e+00
2.034136009216308949e+01 -2.768337488174438032e+00 -3.583328127861022949e-01 3.000000000000000000e+00
3.495256805419921875e+01 -4.763049602508544922e+00 9.452071189880371094e+00 1.400000000000000000e+01
2.394214153289794922e+00 -3.292437791824340820e-01 -6.475652456283569336e-01 1.900000000000000000e+01
5.967774200439453125e+01 -8.217283248901367188e+00 1.051507472991942915e+00 6.300000000000000000e+01
2.743210077285767046e+00 -3.782121539115905762e-01 -6.393108963966369629e-01 1.200000000000000000e+01
3.222550153732299805e+00 -4.448729157447814941e-01 -6.323410272598266602e-01 1.300000000000000000e+01
3.882140398025513139e+00 -5.373103618621826172e-01 -6.207319498062133789e-01 9.000000000000000000e+00
3.599705886840820312e+01 -4.988601207733154297e+00 4.462124347686767578e+00 1.900000000000000000e+01
4.972652912139892578e+00 -6.900126338005065918e-01 -6.164151430130004883e-01 1.000000000000000000e+01
6.591265201568604404e+00 -9.157862067222595215e-01 -5.822003483772277832e-01 5.000000000000000000e+00
1.026862812042235973e+01 -1.430370569229125977e+00 -5.433518886566162109e-01 2.000000000000000000e+00
3.336491394042968750e+01 -4.653508186340332031e+00 7.777457714080811435e+00 9.000000000000000000e+00
3.495380020141602273e+01 -4.881334781646729404e+00 9.456729888916015625e+00 7.000000000000000000e+00
2.385398626327515093e+00 -3.365196883678435724e-01 -6.454946994781494141e-01 2.000000000000000000e+01
5.974769973754882812e+01 -8.439531326293945312e+00 1.053252696990967019e+00 6.200000000000000000e+01
2.741873025894165039e+00 -3.877854347229003906e-01 -6.393108963966369629e-01 1.400000000000000000e+01
3.228753089904785156e+00 -4.572200775146483820e-01 -6.338675022125244141e-01 1.300000000000000000e+01
3.886108398437500000e+00 -5.516912341117858887e-01 -6.216705441474914551e-01 1.000000000000000000e+01
3.909645080566406250e+01 -5.557287216186523438e+00 4.848693847656250000e+00 2.000000000000000000e+01
4.956457138061523438e+00 -7.054083347320556641e-01 -6.147089600563049316e-01 1.000000000000000000e+01
6.613670349121093750e+00 -9.424424171447753906e-01 -5.844663977622985840e-01 5.000000000000000000e+00
1.028729915618895951e+01 -1.469595432281493919e+00 -5.446079373359680176e-01 2.000000000000000000e+00
3.565953826904296875e+01 -5.100505352020263672e+00 8.316440582275390625e+00 1.000000000000000000e+01
2.051948738098144887e+01 -2.938627243041992188e+00 -3.618232905864716131e-01 3.000000000000000000e+00
3.457425308227539062e+01 -4.957589626312255859e+00 9.358896255493164062e+00 1.400000000000000000e+01
2.384149312973022017e+00 -3.452603518962860107e-01 -6.454946994781494141e-01 2.000000000000000000e+01
5.991426467895507812e+01 -8.687154769897460938e+00 1.056743264198303001e+00 6.200000000000000000e+01
2.752004623413085938e+00 -3.995120823383330744e-01 -6.420103311538696289e-01 1.400000000000000000e+01
3.215398550033568892e+00 -4.673566222190856934e-01 -6.315777897834777832e-01 1.200000000000000000e+01
3.886014938354492188e+00 -5.662156343460083008e-01 -6.219834089279174805e-01 1.100000000000000000e+01
4.981338024139404297e+00 -7.275865674018859863e-01 -6.181213259696960449e-01 9.000000000000000000e+00
3.525773239135742188e+01 -5.149831295013427734e+00 5.643529891967773438e+00 1.300000000000000000e+01
6.610171794891357422e+00 -9.666764140129089355e-01 -5.844663977622985840e-01 6.000000000000000000e+00
3.414600753784179688e+01 -4.999624252319335938e+00 6.708081245422363281e+00 5.900000000000000000e+01
1.030555725097656072e+01 -1.510766744613647017e+00 -5.458640456199645996e-01 2.000000000000000000e+00
3.371637725830078125e+01 -4.948740482330322266e+00 7.867438316345214844e+00 9.000000000000000000e+00
2.050857925415039062e+01 -3.013815164566040039e+00 -3.618232905864716131e-01 3.000000000000000000e+00
3.456820678710938211e+01 -5.079931735992431641e+00 9.362002372741699219e+00 1.400000000000000000e+01
2.382929563522338867e+00 -3.535804748535156250e-01 -6.454946994781494141e-01 1.900000000000000000e+01
2.758303403854370117e+00 -4.102627336978911798e-01 -6.438099145889282227e-01 1.400000000000000000e+01
3.207921981811522993e+00 -4.777100980281829834e-01 -6.304329037666320801e-01 1.300000000000000000e+01
3.878153562545775923e+00 -5.789020061492919922e-01 -6.210448145866394043e-01 1.000000000000000000e+01
4.976804733276367188e+00 -7.446764707565307617e-01 -6.178775429725646973e-01 1.000000000000000000e+01
3.529331970214843750e+01 -5.287217617034912109e+00 5.652289867401123047e+00 1.300000000000000000e+01
6.581141948699951172e+00 -9.859069585800170898e-01 -5.822003483772277832e-01 6.000000000000000000e+00
3.409728240966796875e+01 -5.114126205444335938e+00 6.701975345611572266e+00 5.900000000000000000e+01
1.030022144317626953e+01 -1.546730637550354004e+00 -5.458640456199645996e-01 2.000000000000000000e+00
3.996962356567382812e+01 -6.009164333343505859e+00 9.331419944763183594e+00 1.200000000000000000e+01
2.056912040710448863e+01 -3.096100330352783203e+00 -3.630798757076262873e-01 3.000000000000000000e+00
3.622849273681641336e+01 -5.459642887115479404e+00 9.817006111145019531e+00 7.000000000000000000e+00
2.385627031326293945e+00 -3.616439998149871826e-01 -6.465299725532531738e-01 2.000000000000000000e+01
3.773208999633789062e+01 -5.726652145385742188e+00 6.661583781242370605e-01 3.100000000000000000e+01
2.758927583694458008e+00 -4.192188978195189875e-01 -6.442598104476928711e-01 1.500000000000000000e+01
3.214169025421143022e+00 -4.889667928218842108e-01 -6.319593787193298340e-01 1.200000000000000000e+01
3.876315832138061968e+00 -5.910826921463012695e-01 -6.210448145866394043e-01 1.000000000000000000e+01
3.660775756835938211e+01 -5.588696956634520596e+00 4.546945095062255859e+00 1.900000000000000000e+01
4.984251976013183594e+00 -7.618075013160705566e-01 -6.190962791442871094e-01 1.000000000000000000e+01
3.559771728515625000e+01 -5.440858364105224609e+00 5.703600406646729404e+00 1.300000000000000000e+01
6.581951141357421875e+00 -1.007180094718933105e+00 -5.825489759445190430e-01 6.000000000000000000e+00
3.423629760742188211e+01 -5.245005130767822266e+00 6.732504367828369141e+00 5.900000000000000000e+01
1.031900119781493963e+01 -1.582715630531311035e+00 -5.471200942993164062e-01 2.000000000000000000e+00
2.048814010620116832e+01 -3.149765968322753906e+00 -3.618232905864716131e-01 3.000000000000000000e+00
4.208932495117188211e+01 -6.470646858215332031e+00 1.141029644012450994e+01 1.100000000000000000e+01
2.391986131668090820e+00 -3.711540400981903076e-01 -6.486005187034606934e-01 2.200000000000000000e+01
3.764468765258789062e+01 -5.847889900207520419e+00 6.649715900421142578e-01 3.100000000000000000e+01
2.740117073059082031e+00 -4.261515438556671143e-01 -6.402106881141662598e-01 1.300000000000000000e+01
3.227961778640747070e+00 -5.025997161865234375e-01 -6.350123286247253418e-01 1.300000000000000000e+01
3.874228954315185991e+00 -6.046099662780761719e-01 -6.210448145866394043e-01 1.100000000000000000e+01
4.965872764587402344e+00 -7.767469286918640137e-01 -6.171463727951049805e-01 9.000000000000000000e+00
3.530918121337891336e+01 -5.522956848144531250e+00 5.660424709320068359e+00 1.300000000000000000e+01
6.623668670654296875e+00 -1.037238836288451926e+00 -5.865581631660461426e-01 8.000000000000000000e+00
1.032919883728026988e+01 -1.621203541755676047e+00 -5.479574799537658691e-01 2.000000000000000000e+00
3.693340682983397727e+01 -5.803431034088134766e+00 8.631371498107910156e+00 1.100000000000000000e+01
2.067456054687500000e+01 -3.252338886260985884e+00 -3.653137683868408203e-01 3.000000000000000000e+00
2.398307800292969194e+00 -3.807128667831420898e-01 -6.506710648536682129e-01 1.900000000000000000e+01
3.769119262695313211e+01 -5.989930152893066406e+00 6.661583781242370605e-01 3.100000000000000000e+01
2.750159978866577148e+00 -4.375509023666381836e-01 -6.429101228713989258e-01 1.400000000000000000e+01
3.798834991455078125e+01 -6.050750732421875000e+00 2.015980958938599077e+00 2.200000000000000000e+01
3.218432426452637163e+00 -5.126290917396545410e-01 -6.334858536720275879e-01 1.100000000000000000e+01
3.883798837661743164e+00 -6.199982762336730957e-01 -6.229220628738403320e-01 1.100000000000000000e+01
4.976851940155029297e+00 -7.962716817855834961e-01 -6.188524961471557617e-01 1.000000000000000000e+01
3.581924438476563211e+01 -5.737313270568847656e+00 5.745524883270263672e+00 1.300000000000000000e+01
6.604269027709960938e+00 -1.057832479476928933e+00 -5.851636528968811035e-01 8.000000000000000000e+00
1.032347679138183949e+01 -1.657249212265015093e+00 -5.479574799537658691e-01 2.000000000000000000e+00
3.498887252807617188e+01 -5.623101234436035156e+00 8.181469917297363281e+00 1.000000000000000000e+01
2.076179695129394887e+01 -3.340369224548339844e+00 -3.670590221881865900e-01 3.000000000000000000e+00
3.662251281738281250e+01 -5.892202377319335938e+00 9.939168930053710938e+00 8.000000000000000000e+00
2.387429952621459961e+00 -3.875345587730408270e-01 -6.480829119682312012e-01 1.700000000000000000e+01
2.748615980148314986e+00 -4.471480846405028742e-01 -6.429101228713989258e-01 1.400000000000000000e+01
3.776986694335938211e+01 -6.151213645935058594e+00 2.005513906478881836e+00 2.100000000000000000e+01
3.201121568679810014e+00 -5.213357806205749512e-01 -6.304329037666320801e-01 1.100000000000000000e+01
3.889409303665161133e+00 -6.348242759704589844e-01 -6.241735219955444336e-01 1.100000000000000000e+01
4.966206073760986328e+00 -8.123574256896972656e-01 -6.178775429725646973e-01 1.000000000000000000e+01
3.642280960083007812e+01 -5.964463710784912109e+00 5.845643043518066406e+00 1.300000000000000000e+01
6.616265773773193359e+00 -1.083455085754394975e+00 -5.865581631660461426e-01 8.000000000000000000e+00
1.034127902984618963e+01 -1.697156310081481934e+00 -5.492135286331176758e-01 2.000000000000000000e+00
2.072238540649414062e+01 -3.408277511596680132e+00 -3.665703535079956055e-01 3.000000000000000000e+00
3.560564041137695312e+01 -5.862556934356688565e+00 9.668961524963378906e+00 7.000000000000000000e+00
2.374490022659302202e+00 -3.947976231575012207e-01 -6.449770331382751465e-01 1.700000000000000000e+01
2.744956493377685991e+00 -4.573783874511718750e-01 -6.424602270126342773e-01 1.200000000000000000e+01
3.214588165283203125e+00 -5.362074375152587891e-01 -6.334858536720275879e-01 1.100000000000000000e+01
3.794172286987304688e+01 -6.335652828216552734e+00 3.365431785583496094e+00 5.000000000000000000e+01
3.886943101882935014e+00 -6.497538089752197266e-01 -6.241735219955444336e-01 1.100000000000000000e+01
3.746967697143554688e+01 -6.270273685455322266e+00 4.664670944213867188e+00 4.000000000000000000e+01
4.976755142211914062e+00 -8.337160944938659668e-01 -6.195837259292602539e-01 9.000000000000000000e+00
3.548789596557617188e+01 -5.951372146606445312e+00 5.699220657348632812e+00 1.300000000000000000e+01
6.598302364349365234e+00 -1.106544971466064009e+00 -5.853379964828491211e-01 6.000000000000000000e+00
3.686447906494141336e+01 -6.188842296600341797e+00 7.266006469726563388e+00 6.200000000000000000e+01
1.037407970428466975e+01 -1.743471622467041016e+00 -5.513069629669189453e-01 2.000000000000000000e+00
3.405887222290039062e+01 -5.730059146881104404e+00 7.973615169525145596e+00 1.000000000000000000e+01
2.087478828430176137e+01 -3.515717744827270952e+00 -3.695023357868195135e-01 3.000000000000000000e+00
3.486572265625000000e+01 -5.872061252593994141e+00 9.473812103271484375e+00 1.400000000000000000e+01
2.376906633377075195e+00 -4.037307500839232843e-01 -6.460123658180236816e-01 1.500000000000000000e+01
5.968413543701171875e+01 -1.014839744567870916e+01 1.056743264198303001e+00 6.200000000000000000e+01
2.751027584075928178e+00 -4.682652950286865234e-01 -6.442598104476928711e-01 1.300000000000000000e+01
3.220438241958618164e+00 -5.487442612648010254e-01 -6.350123286247253418e-01 1.100000000000000000e+01
3.878809928894042969e+00 -6.623203754425048828e-01 -6.232349276542663574e-01 1.100000000000000000e+01
3.741038513183593750e+01 -6.394673824310302734e+00 4.660039901733398438e+00 4.000000000000000000e+01
4.981640815734863281e+00 -8.524223566055297852e-01 -6.205586791038513184e-01 9.000000000000000000e+00
6.616001129150390625e+00 -1.133270859718322976e+00 -5.872554183006286621e-01 8.000000000000000000e+00
1.036793041229248047e+01 -1.779673337936400923e+00 -5.513069629669189453e-01 2.000000000000000000e+00
3.403482055664063211e+01 -5.848252296447753906e+00 7.972715377807617188e+00 1.000000000000000000e+01
2.090180397033691051e+01 -3.595342636108397993e+00 -3.702004551887512207e-01 3.000000000000000000e+00
3.479360580444335938e+01 -5.984887123107910156e+00 9.459836006164550781e+00 7.000000000000000000e+00
2.381337165832519975e+00 -4.121844768524169922e-01 -6.475652456283569336e-01 1.600000000000000000e+01
5.972682952880858664e+01 -1.034882354736327947e+01 1.058069586753844993e+00 6.100000000000000000e+01
2.736102342605590820e+00 -4.745743274688721258e-01 -6.411104798316955566e-01 1.300000000000000000e+01
3.222567081451416016e+00 -5.595305562019348145e-01 -6.357755661010742188e-01 1.200000000000000000e+01
3.874763965606689009e+00 -6.741641163825988770e-01 -6.229220628738403320e-01 1.000000000000000000e+01
3.848527526855468750e+01 -6.702913284301757812e+00 4.796533584594726562e+00 2.000000000000000000e+01
4.965249538421630859e+00 -8.656817674636840820e-01 -6.188524961471557617e-01 1.000000000000000000e+01
3.888928985595703125e+01 -6.780273437500000000e+00 6.252372741699218750e+00 1.400000000000000000e+01
6.641849040985107422e+00 -1.159188270568848100e+00 -5.898700952529907227e-01 6.000000000000000000e+00
1.041737556457520064e+01 -1.821870446205138938e+00 -5.542377829551696777e-01 2.000000000000000000e+00
2.094161796569823863e+01 -3.669964551925659180e+00 -3.711079657077788752e-01 3.000000000000000000e+00
3.474989700317382812e+01 -6.089829921722412109e+00 9.453106880187988281e+00 2.100000000000000000e+01
2.393200635910034180e+00 -4.228472709655762274e-01 -6.511887311935424805e-01 1.700000000000000000e+01
2.740185976028441939e+00 -4.851414263248444159e-01 -6.424602270126342773e-01 1.300000000000000000e+01
3.216728210449219194e+00 -5.700908303260803223e-01 -6.350123286247253418e-01 1.100000000000000000e+01
3.886001586914062944e+00 -6.901032328605651855e-01 -6.251121163368225098e-01 1.000000000000000000e+01
3.853982162475585938e+01 -6.851108551025390625e+00 4.806282997131347656e+00 2.000000000000000000e+01
4.975877761840820312e+00 -8.854429125785827637e-01 -6.205586791038513184e-01 9.000000000000000000e+00
3.590813446044921875e+01 -6.396213054656982422e+00 5.776812076568604404e+00 1.300000000000000000e+01
6.639723777770996094e+00 -1.182714939117432085e+00 -5.900443792343139648e-01 6.000000000000000000e+00
1.039129066467284979e+01 -1.854713320732116921e+00 -5.531910657882690430e-01 2.000000000000000000e+00
3.438279724121093750e+01 -6.143084526062011719e+00 8.063595771789550781e+00 1.000000000000000000e+01
2.087749862670898082e+01 -3.733888626098632812e+00 -3.702004551887512207e-01 1.000000000000000000e+01
3.529212188720703125e+01 -6.318264961242675781e+00 9.606844902038574219e+00 7.000000000000000000e+00
2.387982845306396040e+00 -4.300962090492249090e-01 -6.501534581184387207e-01 2.000000000000000000e+01
2.748150825500487837e+00 -4.959560334682465155e-01 -6.447097063064575195e-01 1.300000000000000000e+01
3.207092046737670898e+00 -5.793586969375610352e-01 -6.334858536720275879e-01 1.100000000000000000e+01
3.891466856002808061e+00 -7.043932676315307617e-01 -6.263635754585266113e-01 1.200000000000000000e+01
3.832155990600585938e+01 -6.943481922149658203e+00 4.781909465789794922e+00 2.000000000000000000e+01
4.982680320739746094e+00 -9.037098884582519531e-01 -6.217774152755737305e-01 1.000000000000000000e+01
6.631844520568847656e+00 -1.204014778137207031e+00 -5.896957516670227051e-01 6.000000000000000000e+00
1.041652297973632990e+01 -1.894881248474121094e+00 -5.548658370971679688e-01 2.000000000000000000e+00
3.423953247070313211e+01 -6.234725475311279297e+00 8.034801483154296875e+00 1.000000000000000000e+01
2.069778251647948863e+01 -3.772621154785155806e+00 -3.672335445880889893e-01 1.000000000000000000e+01
3.527780151367188211e+01 -6.430146217346191406e+00 9.608398437500000000e+00 1.400000000000000000e+01
2.375066518783568892e+00 -4.363347887992858887e-01 -6.470476388931274414e-01 2.000000000000000000e+01
5.973903656005858664e+01 -1.098572158813476918e+01 1.060233712196350098e+00 6.100000000000000000e+01
2.738736629486083984e+00 -5.041347146034240723e-01 -6.429101228713989258e-01 1.200000000000000000e+01
3.214703798294066939e+00 -5.923287272453308105e-01 -6.353939771652221680e-01 1.200000000000000000e+01
3.888984441757202148e+00 -7.179727554321289062e-01 -6.263635754585266113e-01 1.200000000000000000e+01
4.983399391174316406e+00 -9.218193292617797852e-01 -6.222648620605468750e-01 9.000000000000000000e+00
6.649151325225830078e+00 -1.231147050857543945e+00 -5.916131734848022461e-01 6.000000000000000000e+00
1.046090316772460938e+01 -1.940702319145203081e+00 -5.575872659683227539e-01 2.000000000000000000e+00
3.329405593872070312e+01 -6.182710647583007812e+00 7.817948818206787109e+00 9.000000000000000000e+00
1.980961036682128906e+01 -3.682223796844481978e+00 -3.517009019851685125e-01 1.000000000000000000e+01
3.526083755493164062e+01 -6.554308891296386719e+00 9.609951019287109375e+00 7.000000000000000000e+00
2.377326726913452148e+00 -4.453340768814086914e-01 -6.480829119682312012e-01 2.000000000000000000e+01
2.744621515274047852e+00 -5.151295065879821777e-01 -6.447097063064575195e-01 1.400000000000000000e+01
3.222264289855957031e+00 -6.053590178489685059e-01 -6.373020410537719727e-01 1.200000000000000000e+01
3.874806880950928178e+00 -7.293509840965270996e-01 -6.244863867759704590e-01 1.200000000000000000e+01
4.993806362152099609e+00 -9.417842626571655273e-01 -6.239710450172424316e-01 1.000000000000000000e+01
6.672222614288330078e+00 -1.259523510932921919e+00 -5.940535664558410645e-01 6.000000000000000000e+00
1.045406436920166016e+01 -1.977205872535706010e+00 -5.575872659683227539e-01 2.000000000000000000e+00
3.329141998291016336e+01 -6.302515983581542969e+00 7.822447776794433594e+00 9.000000000000000000e+00
1.976716423034667969e+01 -3.745765209197998047e+00 -3.511773347854614258e-01 1.000000000000000000e+01
3.536944198608397727e+01 -6.708702564239501953e+00 9.646185874938964844e+00 7.000000000000000000e+00
2.385245561599731001e+00 -4.554413855075836182e-01 -6.506710648536682129e-01 1.900000000000000000e+01
2.735150575637816939e+00 -5.232422351837158203e-01 -6.429101228713989258e-01 1.400000000000000000e+01
3.214346885681151900e+00 -6.154954433441162109e-01 -6.361572146415710449e-01 1.200000000000000000e+01
3.872237205505371094e+00 -7.428721785545349121e-01 -6.244863867759704590e-01 1.100000000000000000e+01
4.978792190551757812e+00 -9.569619894027709961e-01 -6.225085854530334473e-01 1.000000000000000000e+01
6.671698570251464844e+00 -1.283559083938599077e+00 -5.944021940231323242e-01 8.000000000000000000e+00
3.502490234375000000e+01 -6.744732856750488281e+00 6.933235645294188565e+00 6.000000000000000000e+01
1.048632240295409979e+01 -2.021245479583739790e+00 -5.596807003021240234e-01 2.000000000000000000e+00
3.332279586791992188e+01 -6.429022789001464844e+00 7.835045337677001953e+00 9.000000000000000000e+00
3.559238433837891336e+01 -6.879786014556884766e+00 9.713479042053222656e+00 7.000000000000000000e+00
2.385537624359130859e+00 -4.641336202621459961e-01 -6.511887311935424805e-01 1.700000000000000000e+01
4.589274215698242188e+01 -8.937271118164062500e+00 8.161094188690185547e-01 5.400000000000000000e+01
2.735220193862915039e+00 -5.331593751907348633e-01 -6.433600187301635742e-01 1.200000000000000000e+01
3.221813440322875977e+00 -6.285916566848754883e-01 -6.380652785301208496e-01 1.100000000000000000e+01
3.885130167007445845e+00 -7.594158649444580078e-01 -6.269893646240234375e-01 1.100000000000000000e+01
4.975421428680419922e+00 -9.743353724479675293e-01 -6.225085854530334473e-01 1.000000000000000000e+01
6.694550037384033203e+00 -1.312205195426940918e+00 -5.968425273895263672e-01 6.000000000000000000e+00
3.514178085327147727e+01 -6.894543170928955078e+00 6.961093902587890625e+00 6.000000000000000000e+01
1.047920322418213068e+01 -2.057837247848511186e+00 -5.596807003021240234e-01 2.000000000000000000e+00
3.330780029296875000e+01 -6.546805381774902344e+00 7.836844921112061435e+00 9.000000000000000000e+00
2.044492149353026988e+01 -4.022252082824707031e+00 -3.637081384658812921e-01 6.000000000000000000e+00
2.374427795410155806e+00 -4.705800712108612061e-01 -6.486005187034606934e-01 1.900000000000000000e+01
2.746722459793090820e+00 -5.453603863716125488e-01 -6.465093493461608887e-01 1.300000000000000000e+01
