-4.443161010742188388e+00 -2.188615351915358942e-01 -7.045808434486389160e-01 1.000000000000000000e+01
-5.866875648498535156e+00 -2.869380712509155273e-01 -7.212227582931518555e-01 1.100000000000000000e+01
-8.616820335388183594e+00 -4.199253022670745850e-01 -7.547687292098999023e-01 3.000000000000000000e+00
-1.720224189758301137e+01 -8.323016166687011719e-01 -9.025859236717224121e-01 5.000000000000000000e+00
-3.475862503051757812e+01 -1.669576406478882058e+00 -6.074135303497314453e-01 1.300000000000000000e+01
-2.572362661361693892e+00 -1.199596971273421964e-01 -6.900115609169006348e-01 1.900000000000000000e+01
-2.976437330245972124e+00 -1.377621144056319913e-01 -6.879003047943115234e-01 2.100000000000000000e+01
-4.495012664794921875e+01 -2.080482006072998047e+00 2.358258247375487837e+00 3.400000000000000000e+01
-3.557563543319702148e+00 -1.640368700027466098e-01 -6.922550201416015625e-01 2.000000000000000000e+01
-4.481537628173828125e+01 -2.058568716049193892e+00 3.924971818923950195e+00 5.400000000000000000e+01
-4.445871353149414062e+00 -2.034409642219542902e-01 -7.048937082290649414e-01 1.000000000000000000e+01
-5.851976871490479404e+00 -2.657367289066315252e-01 -7.192728519439697266e-01 1.100000000000000000e+01
-8.598329544067382812e+00 -3.889440894126892090e-01 -7.530255913734436035e-01 2.000000000000000000e+00
-3.473627090454102273e+01 -1.546990513801574929e+00 -6.069248914718627930e-01 1.300000000000000000e+01
-2.565045595169066939e+00 -1.106467247009277066e-01 -6.879410147666931152e-01 2.100000000000000000e+01
-4.479384994506835938e+01 -1.924411177635193093e+00 7.826008200645446777e-01 4.800000000000000000e+01
-2.988581657409667969e+00 -1.278713941574096957e-01 -6.905997395515441895e-01 2.500000000000000000e+01
-4.487330627441406250e+01 -1.919978380203247070e+00 2.353862047195435014e+00 3.400000000000000000e+01
-3.554191589355469194e+00 -1.514504849910736084e-01 -6.914917826652526855e-01 1.900000000000000000e+01
-4.482228851318358664e+01 -1.902121186256408913e+00 3.924971818923950195e+00 5.400000000000000000e+01
-4.450501918792724609e+00 -1.880875527858734131e-01 -7.055194377899169922e-01 1.000000000000000000e+01
-5.856835842132568359e+00 -2.454741448163985928e-01 -7.197603583335876465e-01 1.100000000000000000e+01
-8.619541168212890625e+00 -3.597587943077086847e-01 -7.547687292098999023e-01 2.000000000000000000e+00
-3.472947311401367188e+01 -1.425236821174622026e+00 -6.067154407501220703e-01 1.300000000000000000e+01
-2.563485860824584961e+00 -1.016158461570740024e-01 -6.874234080314636230e-01 2.000000000000000000e+01
-4.473236083984375000e+01 -1.765358567237854004e+00 7.814140319824218750e-01 4.800000000000000000e+01
-2.989009857177733931e+00 -1.174385175108910023e-01 -6.905997395515441895e-01 2.400000000000000000e+01
-3.552736759185791016e+00 -1.389663815498352051e-01 -6.911101937294006348e-01 1.700000000000000000e+01
-4.480078506469727273e+01 -1.744565248489380105e+00 3.922531366348267046e+00 5.400000000000000000e+01
-4.447183132171630859e+00 -1.723982244729996005e-01 -7.048937082290649414e-01 1.500000000000000000e+01
-5.857656955718994141e+00 -2.250284701585769931e-01 -7.197603583335876465e-01 1.100000000000000000e+01
-8.584908485412597656e+00 -3.282983601093292236e-01 -7.516311407089233398e-01 2.000000000000000000e+00
-1.701043128967285156e+01 -6.445552706718444824e-01 -8.921186923980712891e-01 5.000000000000000000e+00
-3.470626068115233664e+01 -1.302949428558350053e+00 -6.062268018722534180e-01 1.300000000000000000e+01
-2.558032989501953125e+00 -9.245765954256057739e-02 -6.858704686164855957e-01 2.100000000000000000e+01
-4.470227813720703125e+01 -1.607908844947814941e+00 7.807857394218444824e-01 4.800000000000000000e+01
-2.985506534576416016e+00 -1.068647950887680054e-01 -6.896999478340148926e-01 2.100000000000000000e+01
-3.557124376296997070e+00 -1.267039477825165072e-01 -6.918734312057495117e-01 2.000000000000000000e+01
-4.480660247802733664e+01 -1.588170766830443892e+00 3.922531366348267046e+00 5.400000000000000000e+01
-4.433938980102539062e+00 -1.563862115144729892e-01 -7.027035951614379883e-01 1.300000000000000000e+01
-5.846503257751464844e+00 -2.041644006967545111e-01 -7.182978987693786621e-01 1.100000000000000000e+01
-8.582019805908203125e+00 -2.981910705566406250e-01 -7.512825131416320801e-01 4.000000000000000000e+00
-1.701257896423339844e+01 -5.851738452911376953e-01 -8.921186923980712891e-01 5.000000000000000000e+00
-3.466662979125977273e+01 -1.180297017097472922e+00 -6.054588556289672852e-01 1.300000000000000000e+01
-2.564132690429687944e+00 -8.371701091527938843e-02 -6.874234080314636230e-01 1.900000000000000000e+01
-4.472360610961914062e+01 -1.452378273010253906e+00 7.810649871826171875e-01 4.800000000000000000e+01
-2.974175214767456055e+00 -9.606531262397766113e-02 -6.870005130767822266e-01 2.200000000000000000e+01
-3.561469316482543945e+00 -1.144125685095787048e-01 -6.926366686820983887e-01 2.000000000000000000e+01
-4.481187057495117188e+01 -1.431756854057312012e+00 3.922531366348267046e+00 5.400000000000000000e+01
-4.434457778930664062e+00 -1.409079134464263916e-01 -7.027035951614379883e-01 1.700000000000000000e+01
-5.841228008270263672e+00 -1.835679858922958096e-01 -7.175666689872741699e-01 1.300000000000000000e+01
-8.577033996582031250e+00 -2.680456936359406073e-01 -7.507595419883728027e-01 3.000000000000000000e+00
-1.691470146179198863e+01 -5.227007865905761719e-01 -8.868851065635681152e-01 5.000000000000000000e+00
-3.467053985595703125e+01 -1.059280753135680930e+00 -6.054588556289672852e-01 2.000000000000000000e+01
-2.568271398544311968e+00 -7.487861067056655884e-02 -6.884586811065673828e-01 1.900000000000000000e+01
-4.471241378784179688e+01 -1.295791506767272949e+00 7.807857394218444824e-01 4.800000000000000000e+01
-2.980336189270019975e+00 -8.585125207901000977e-02 -6.883502006530761719e-01 2.300000000000000000e+01
-3.552034854888916016e+00 -1.016990914940834045e-01 -6.907285451889038086e-01 1.900000000000000000e+01
-4.481659698486328125e+01 -1.275325417518615945e+00 3.922531366348267046e+00 5.400000000000000000e+01
-4.425049781799316406e+00 -1.251486837863922119e-01 -7.011392712593078613e-01 1.600000000000000000e+01
-5.816037178039550781e+00 -1.624566316604613980e-01 -7.143980860710144043e-01 1.500000000000000000e+01
-8.575925827026367188e+00 -2.380493432283400934e-01 -7.505852580070495605e-01 2.000000000000000000e+00
-3.467002487182617188e+01 -9.381433725357055664e-01 -6.053890585899353027e-01 1.300000000000000000e+01
-2.558861017227172852e+00 -6.566541641950607300e-02 -6.858704686164855957e-01 2.100000000000000000e+01
-4.474065399169921875e+01 -1.140319466590880904e+00 7.812046408653259277e-01 4.800000000000000000e+01
-2.978669643402100053e+00 -7.539810240268707275e-02 -6.879003047943115234e-01 2.200000000000000000e+01
-3.538629770278931108e+00 -8.895419538021087646e-02 -6.880572438240051270e-01 1.800000000000000000e+01
-4.482077407836914062e+01 -1.118878602981566939e+00 3.922531366348267046e+00 5.400000000000000000e+01
-4.435333728790283203e+00 -1.099463775753975053e-01 -7.027035951614379883e-01 1.700000000000000000e+01
-5.826491355895996094e+00 -1.423963755369186124e-01 -7.156167626380920410e-01 1.500000000000000000e+01
-8.546827316284179688e+00 -2.073873728513717929e-01 -7.479705810546875000e-01 3.000000000000000000e+00
-1.691793823242187855e+01 -4.046021103858947754e-01 -8.868851065635681152e-01 5.000000000000000000e+00
-3.464910125732421875e+01 -8.165513277053833008e-01 -6.049702167510986328e-01 1.300000000000000000e+01
-2.543623685836791992e+00 -5.639038607478141785e-02 -6.817293763160705566e-01 2.200000000000000000e+01
-4.472436904907227273e+01 -9.836988449096679688e-01 7.808555960655212402e-01 4.800000000000000000e+01
-2.984759330749512163e+00 -6.512768566608428955e-02 -6.892500519752502441e-01 2.300000000000000000e+01
-3.552658319473267046e+00 -7.689893245697021484e-02 -6.907285451889038086e-01 2.100000000000000000e+01
-4.482440948486328125e+01 -9.624180793762207031e-01 3.922531366348267046e+00 5.400000000000000000e+01
-4.421865940093994141e+00 -9.416909515857696533e-02 -7.005135416984558105e-01 1.600000000000000000e+01
-5.811075687408447266e+00 -1.217246800661087036e-01 -7.136668562889099121e-01 1.300000000000000000e+01
-8.533555030822753906e+00 -1.772624701261520108e-01 -7.467504143714904785e-01 4.000000000000000000e+00
-3.466773223876953125e+01 -6.959194540977478027e-01 -6.052494645118713379e-01 2.000000000000000000e+01
-2.555385589599608931e+00 -4.817359149456024170e-02 -6.848351955413818359e-01 2.200000000000000000e+01
-4.470738983154296875e+01 -8.350086212158203125e-01 7.805064916610717773e-01 4.800000000000000000e+01
-2.979113817214965820e+00 -5.512135475873947144e-02 -6.879003047943115234e-01 2.100000000000000000e+01
-3.545042037963867188e+00 -6.497356295585632324e-02 -6.892020702362060547e-01 2.000000000000000000e+01
-4.482735443115233664e+01 -8.137696981430053711e-01 3.922531366348267046e+00 5.400000000000000000e+01
-4.416228771209716797e+00 -7.939861714839935303e-02 -6.995749473571777344e-01 1.300000000000000000e+01
-5.803508281707763672e+00 -1.023138239979743958e-01 -7.126919031143188477e-01 1.300000000000000000e+01
-8.506206512451171875e+00 -1.484763920307158869e-01 -7.443100214004516602e-01 4.000000000000000000e+00
-1.672060394287109020e+01 -2.860209047794342041e-01 -8.764179348945617676e-01 5.000000000000000000e+00
-3.464985656738281250e+01 -5.806182622909545898e-01 -6.049004197120666504e-01 1.300000000000000000e+01
-2.553606748580933061e+00 -3.922366723418235779e-02 -6.843175292015075684e-01 1.900000000000000000e+01
-4.473003005981445312e+01 -6.792492866516113281e-01 7.808555960655212402e-01 4.800000000000000000e+01
-2.969545364379882812e+00 -4.457572475075721741e-02 -6.856508255004882812e-01 1.400000000000000000e+01
-3.553099393844604048e+00 -5.271515622735022805e-02 -6.907285451889038086e-01 1.200000000000000000e+01
-4.482992172241210938e+01 -6.572880744934082031e-01 3.922531366348267046e+00 5.400000000000000000e+01
-4.414503574371337891e+00 -6.395400315523147583e-02 -6.992620825767517090e-01 1.000000000000000000e+01
-5.803829669952392578e+00 -8.205518126487731934e-02 -7.126919031143188477e-01 1.300000000000000000e+01
-8.510658264160156250e+00 -1.188389211893081943e-01 -7.446586489677429199e-01 4.000000000000000000e+00
-1.665360069274901988e+01 -2.267289310693741122e-01 -8.728590607643127441e-01 5.000000000000000000e+00
-3.461967849731445312e+01 -4.592397511005402166e-01 -6.043419241905212402e-01 1.300000000000000000e+01
-2.561454772949219194e+00 -3.040138632059096943e-02 -6.863881349563598633e-01 2.000000000000000000e+01
-4.473212814331054688e+01 -5.231081843376159668e-01 7.808555960655212402e-01 4.800000000000000000e+01
-2.965785741806029829e+00 -3.416490927338600159e-02 -6.847510337829589844e-01 1.400000000000000000e+01
-4.494741821289063211e+01 -5.099341869354248047e-01 2.355746030807495117e+00 3.400000000000000000e+01
-3.545409202575684038e+00 -4.022311791777610779e-02 -6.892020702362060547e-01 1.100000000000000000e+01
-4.483193969726563211e+01 -5.007984042167663574e-01 3.922531366348267046e+00 5.400000000000000000e+01
-4.418650627136229581e+00 -4.858755692839621804e-02 -6.998878121376037598e-01 1.100000000000000000e+01
-5.790185928344726562e+00 -6.164759397506713867e-02 -7.109857201576232910e-01 1.100000000000000000e+01
-8.479144096374511719e+00 -8.879663795232772827e-02 -7.418696880340576172e-01 2.000000000000000000e+00
-3.460507583618164062e+01 -3.382353782653809149e-01 -6.040626764297485352e-01 2.000000000000000000e+01
-2.555750131607056108e+00 -2.141150273382664074e-02 -6.848351955413818359e-01 2.800000000000000000e+01
-4.475367736816406250e+01 -3.671247661113739014e-01 7.812046408653259277e-01 4.800000000000000000e+01
-2.961989641189575195e+00 -2.378088794648646961e-02 -6.838511824607849121e-01 1.300000000000000000e+01
-4.504878616333007812e+01 -3.538196086883544922e-01 2.360979557037353960e+00 3.500000000000000000e+01
-3.533748865127563032e+00 -2.775456942617892872e-02 -6.869123578071594238e-01 1.100000000000000000e+01
-4.483341598510742188e+01 -3.443026840686798096e-01 3.922531366348267046e+00 5.400000000000000000e+01
-4.426694393157958984e+00 -3.322259336709976196e-02 -7.011392712593078613e-01 1.000000000000000000e+01
-5.796320915222167969e+00 -4.147831350564956665e-02 -7.117169499397277832e-01 1.100000000000000000e+01
-8.491356849670410156e+00 -5.928181484341620705e-02 -7.429155707359313965e-01 2.000000000000000000e+00
-3.462204360961914062e+01 -2.175395786762238104e-01 -6.043419241905212402e-01 1.300000000000000000e+01
-2.536490917205810991e+00 -1.239573210477828979e-02 -6.796588301658630371e-01 2.800000000000000000e+01
-4.476668548583983664e+01 -2.109595835208893100e-01 7.814140319824218750e-01 4.800000000000000000e+01
-2.973746776580810991e+00 -1.349452789872884924e-02 -6.865506172180175781e-01 1.400000000000000000e+01
-3.529897689819335938e+00 -1.540218200534581965e-02 -6.861491203308105469e-01 1.200000000000000000e+01
-4.483434677124022727e+01 -1.878027617931365967e-01 3.922531366348267046e+00 5.400000000000000000e+01
-4.418881893157958984e+00 -1.773862540721892964e-02 -6.998878121376037598e-01 1.000000000000000000e+01
-5.794445514678955078e+00 -2.123784646391868938e-02 -7.114732265472412109e-01 1.100000000000000000e+01
-8.447679519653320312e+00 -2.948808483779430042e-02 -7.390807271003723145e-01 3.000000000000000000e+00
-3.458259582519531250e+01 -9.657307714223861694e-02 -6.036438345909118652e-01 2.000000000000000000e+01
-2.542314291000366211e+00 -3.549742745235561891e-03 -6.812117099761962891e-01 3.400000000000000000e+01
-4.471115493774414062e+01 -5.462500825524330139e-02 7.804366946220397949e-01 4.800000000000000000e+01
-2.964032173156737837e+00 -3.103928407654165788e-03 -6.843010783195495605e-01 1.200000000000000000e+01
-4.505015945434570312e+01 -3.931368887424468994e-02 2.360979557037353960e+00 3.500000000000000000e+01
-3.537782907485961914e+00 -3.087298944592475891e-03 -6.876755952835083008e-01 1.200000000000000000e+01
-4.480683517456054688e+01 -3.128107637166976929e-02 3.920090913772583008e+00 5.400000000000000000e+01
-4.407064914703369141e+00 -2.307533985003829002e-03 -6.980105638504028320e-01 1.000000000000000000e+01
-5.774633407592773438e+00 -1.007863669656217098e-03 -7.090358138084411621e-01 1.100000000000000000e+01
-8.447731018066406250e+00 -1.551823016401475976e-15 -7.390807271003723145e-01 2.000000000000000000e+00
-1.662318611145019887e+01 5.802586674690246582e-03 -8.711843490600585938e-01 5.000000000000000000e+00
-3.458272552490233664e+01 2.414329908788203846e-02 -6.036438345909118652e-01 1.300000000000000000e+01
-2.544244050979613814e+00 4.884603898972272873e-03 -6.817293763160705566e-01 3.800000000000000000e+01
-4.472309112548828125e+01 9.366795420646667480e-02 7.806461453437805176e-01 4.800000000000000000e+01
-2.958179950714110884e+00 6.711908616125583649e-03 -6.829513907432556152e-01 1.400000000000000000e+01
-4.501009750366210938e+01 1.099806278944016058e-01 2.358886241912841797e+00 3.400000000000000000e+01
-3.547590017318726030e+00 8.668415248394012451e-03 -6.895837187767028809e-01 1.200000000000000000e+01
-4.483458328247070312e+01 1.173769384622573991e-01 3.922531366348267046e+00 5.400000000000000000e+01
-4.387294292449951172e+00 1.225166954100131989e-02 -6.948819160461425781e-01 9.000000000000000000e+00
-5.778574943542479581e+00 1.815398968756198883e-02 -7.095233201980590820e-01 1.100000000000000000e+01
-8.451669692993164062e+00 2.802689932286739002e-02 -7.394292950630187988e-01 3.000000000000000000e+00
-3.455045700073242188e+01 1.386951804161072055e-01 -6.030853390693664551e-01 2.000000000000000000e+01
-2.548074960708618164e+00 1.378654688596724943e-02 -6.827646493911743164e-01 3.800000000000000000e+01
-4.474648666381835938e+01 2.499141246080399115e-01 7.810649871826171875e-01 4.800000000000000000e+01
-2.950343608856201172e+00 1.699294708669185985e-02 -6.811518073081970215e-01 1.300000000000000000e+01
-4.498946380615233664e+01 2.669759988784790039e-01 2.357839584350585938e+00 3.400000000000000000e+01
-3.529869318008422852e+00 2.094691060483456005e-02 -6.861491203308105469e-01 1.100000000000000000e+01
-4.483390045166016336e+01 2.738781273365020752e-01 3.922531366348267046e+00 5.400000000000000000e+01
-4.410929203033447266e+00 2.771504968404769897e-02 -6.986362934112548828e-01 1.000000000000000000e+01
-5.766566276550292969e+00 3.824587538838387230e-02 -7.080608606338500977e-01 1.100000000000000000e+01
-8.423626899719238281e+00 5.733869597315788269e-02 -7.369889616966247559e-01 2.000000000000000000e+00
-1.652290153503417969e+01 1.182374209165572981e-01 -8.659507036209106445e-01 5.000000000000000000e+00
-3.456175994873046875e+01 2.593879699707031250e-01 -6.032947897911071777e-01 2.000000000000000000e+01
-2.536416769027709961e+00 2.302042022347449909e-02 -6.796588301658630371e-01 3.300000000000000000e+01
-4.476526641845703125e+01 4.141014814376831055e-01 7.814140319824218750e-01 4.800000000000000000e+01
-2.961953401565552202e+00 2.791658043861389160e-02 -6.838511824607849121e-01 1.400000000000000000e+01
-4.494831466674804688e+01 4.236404299736022949e-01 2.355746030807495117e+00 3.400000000000000000e+01
-3.525842428207397017e+00 3.384669870138168335e-02 -6.853858828544616699e-01 1.200000000000000000e+01
-4.483259582519531250e+01 4.382007420063018799e-01 3.922531366348267046e+00 5.400000000000000000e+01
-4.402896881103515625e+00 4.380312189459800720e-02 -6.973848342895507812e-01 1.000000000000000000e+01
-5.772342205047607422e+00 5.944246426224709251e-02 -7.087920904159545898e-01 1.100000000000000000e+01
-8.423360824584960938e+00 8.821245282888412476e-02 -7.369889616966247559e-01 2.000000000000000000e+00
-3.452258682250977273e+01 3.856370449066162109e-01 -6.026315689086914062e-01 2.000000000000000000e+01
-2.532457590103148970e+00 3.182547539472579956e-02 -6.786235570907592773e-01 2.700000000000000000e+01
-4.472355651855468750e+01 5.698493719100952148e-01 7.807159423828125000e-01 4.800000000000000000e+01
-2.959889411926269975e+00 3.823038935661315918e-02 -6.834012866020202637e-01 1.200000000000000000e+01
-4.504631423950195312e+01 5.896885991096496582e-01 2.360979557037353960e+00 3.500000000000000000e+01
-3.523739576339722124e+00 4.612828046083450317e-02 -6.850042939186096191e-01 1.200000000000000000e+01
-4.479095077514647727e+01 5.941644906997680664e-01 3.919045209884643999e+00 5.400000000000000000e+01
-4.394816398620604581e+00 5.906564742326735756e-02 -6.961333751678466797e-01 1.100000000000000000e+01
-5.770114898681640625e+00 7.956396788358688354e-02 -7.085483670234680176e-01 1.100000000000000000e+01
-8.419016838073730469e+00 1.175592914223670959e-01 -7.366403341293334961e-01 3.000000000000000000e+00
-3.450503540039063211e+01 5.059064626693725586e-01 -6.023523807525634766e-01 2.000000000000000000e+01
-2.540064573287963867e+00 4.034595936536788940e-02 -6.806941032409667969e-01 2.400000000000000000e+01
-4.473741531372070312e+01 7.184117436408996582e-01 7.809951901435852051e-01 4.800000000000000000e+01
-2.957797765731811968e+00 4.801389575004578331e-02 -6.829513907432556152e-01 1.300000000000000000e+01
-4.488048934936522727e+01 7.285444140434265137e-01 2.352396488189696822e+00 3.400000000000000000e+01
-3.517678260803223100e+00 5.771654471755027771e-02 -6.838594675064086914e-01 1.100000000000000000e+01
-4.482857513427733664e+01 7.433540821075439453e-01 3.922531366348267046e+00 5.400000000000000000e+01
-4.384720802307128906e+00 7.347357273101806641e-02 -6.945690512657165527e-01 1.000000000000000000e+01
-5.763864994049072266e+00 9.859606623649597168e-02 -7.078171372413635254e-01 9.000000000000000000e+00
-8.402644157409667969e+00 1.452017128467560092e-01 -7.352458238601684570e-01 3.000000000000000000e+00
-1.622121429443359020e+01 2.859743535518646240e-01 -8.502499461174011230e-01 4.000000000000000000e+00
-3.450716781616210938e+01 6.203984022140502930e-01 -6.024221777915954590e-01 2.000000000000000000e+01
-2.539908170700072798e+00 4.921219125390052795e-02 -6.806941032409667969e-01 2.500000000000000000e+01
-4.473863601684570312e+01 8.746482729911804199e-01 7.810649871826171875e-01 4.800000000000000000e+01
-2.945922136306763139e+00 5.810765922069550254e-02 -6.802520155906677246e-01 1.400000000000000000e+01
-4.504141616821289062e+01 8.884319067001342773e-01 2.360979557037353960e+00 3.500000000000000000e+01
-3.531195640563964844e+00 7.026860117912292480e-02 -6.865307688713073730e-01 1.200000000000000000e+01
-4.485757827758789062e+01 9.004702568054199219e-01 3.925320386886597124e+00 5.400000000000000000e+01
-4.378512382507324219e+00 8.865869045257568359e-02 -6.936303973197937012e-01 9.000000000000000000e+00
-5.757531642913818359e+00 1.185924708843231062e-01 -7.070859074592590332e-01 1.100000000000000000e+01
-8.402086257934570312e+00 1.745315343141556064e-01 -7.352458238601684570e-01 2.000000000000000000e+00
-3.451678466796875000e+01 7.411046624183654785e-01 -6.026315689086914062e-01 2.000000000000000000e+01
-2.547456502914429155e+00 5.780987441539763710e-02 -6.827646493911743164e-01 2.400000000000000000e+01
-4.475548171997070312e+01 1.023459315299988015e+00 7.814140319824218750e-01 4.800000000000000000e+01
-2.941816806793212891e+00 6.778658181428909302e-02 -6.793521642684936523e-01 1.400000000000000000e+01
-4.498612213134766336e+01 1.044445037841797097e+00 2.358258247375487837e+00 3.400000000000000000e+01
-3.521129369735718218e+00 8.175023645162582397e-02 -6.846227049827575684e-01 1.200000000000000000e+01
-4.485036468505858664e+01 1.049125194549560991e+00 3.924971818923950195e+00 5.400000000000000000e+01
-4.376219749450683594e+00 1.031313315033912936e-01 -6.933175325393676758e-01 1.000000000000000000e+01
-5.759090900421142578e+00 1.377319395542145053e-01 -7.073296904563903809e-01 1.100000000000000000e+01
-8.397477149963378906e+00 2.022969275712966919e-01 -7.348971962928771973e-01 2.000000000000000000e+00
-1.621889305114746094e+01 3.963811993598937988e-01 -8.502499461174011230e-01 4.000000000000000000e+00
-3.450414276123046875e+01 8.553146123886108398e-01 -6.024570465087890625e-01 2.000000000000000000e+01
-2.543376684188843218e+00 6.660066545009613037e-02 -6.817293763160705566e-01 2.200000000000000000e+01
-4.473963928222656250e+01 1.179362654685973899e+00 7.812046408653259277e-01 4.800000000000000000e+01
-2.947406291961669922e+00 7.821010798215866089e-02 -6.807019114494323730e-01 1.500000000000000000e+01
-4.503432464599608664e+01 1.194996118545532005e+00 2.360979557037353960e+00 3.500000000000000000e+01
-3.516897439956665039e+00 9.393593668937683105e-02 -6.838594675064086914e-01 1.100000000000000000e+01
-4.484642791748046875e+01 1.205675840377808061e+00 3.924971818923950195e+00 5.400000000000000000e+01
-4.393604755401611328e+00 1.188874542713165006e-01 -6.961333751678466797e-01 1.000000000000000000e+01
-5.746669292449951172e+00 1.575077474117279053e-01 -7.058672308921813965e-01 1.100000000000000000e+01
-8.384770393371582031e+00 2.312787473201751987e-01 -7.338513731956481934e-01 2.000000000000000000e+00
-1.621740913391112926e+01 4.529932737350463867e-01 -8.502499461174011230e-01 4.000000000000000000e+00
-3.451693725585938211e+01 9.762036204338073730e-01 -6.027362942695617676e-01 1.300000000000000000e+01
-2.541184663772583008e+00 7.586450874805450439e-02 -6.812117099761962891e-01 1.700000000000000000e+01
-4.474700927734375000e+01 1.343693852424622026e+00 7.814140319824218750e-01 4.800000000000000000e+01
-2.945152044296265093e+00 8.895353227853775024e-02 -6.802520155906677246e-01 1.400000000000000000e+01
-4.502964019775391336e+01 1.360047101974487083e+00 2.360979557037353960e+00 3.500000000000000000e+01
-3.504755496978760210e+00 1.064677014946937977e-01 -6.815697550773620605e-01 1.100000000000000000e+01
-4.484569168090820312e+01 1.370159745216370073e+00 3.925320386886597124e+00 5.400000000000000000e+01
-4.363523006439208984e+00 1.340799778699874878e-01 -6.914403438568115234e-01 1.000000000000000000e+01
-5.753989696502686435e+00 1.788159310817719061e-01 -7.068421840667724609e-01 1.100000000000000000e+01
-8.375900268554687500e+00 2.617599666118621826e-01 -7.331541180610656738e-01 2.000000000000000000e+00
-1.621564102172851918e+01 5.124300122261047363e-01 -8.502499461174011230e-01 4.000000000000000000e+00
-3.449713897705078125e+01 1.102197051048279031e+00 -6.024570465087890625e-01 1.300000000000000000e+01
-2.544765949249268022e+00 8.486321568489074707e-02 -6.822469830513000488e-01 1.600000000000000000e+01
-4.476602935791016336e+01 1.500685811042786089e+00 7.818328738212585449e-01 4.800000000000000000e+01
-2.948718786239624023e+00 9.936475008726119995e-02 -6.811518073081970215e-01 1.400000000000000000e+01
-4.502462005615233664e+01 1.517221689224242942e+00 2.360979557037353960e+00 3.500000000000000000e+01
-3.512211084365845171e+00 1.189667806029320041e-01 -6.830962300300598145e-01 1.100000000000000000e+01
-4.484859848022460938e+01 1.526963233947753906e+00 3.926017522811890093e+00 5.400000000000000000e+01
-4.357105731964111328e+00 1.491080075502395907e-01 -6.905017495155334473e-01 1.000000000000000000e+01
-5.749362945556640625e+00 1.987628489732742032e-01 -7.063547372817993164e-01 1.100000000000000000e+01
-8.362988471984863281e+00 2.905806005001068115e-01 -7.321082353591918945e-01 2.000000000000000000e+00
-1.611395263671875000e+01 5.655274391174316406e-01 -8.450163602828979492e-01 4.000000000000000000e+00
-3.446510314941406250e+01 1.221616148948668990e+00 -6.019684076309204102e-01 1.300000000000000000e+01
-2.548331499099731001e+00 9.344307333230972290e-02 -6.832822561264038086e-01 1.600000000000000000e+01
-4.476080703735352273e+01 1.649127125740051047e+00 7.818328738212585449e-01 4.800000000000000000e+01
-2.934741258621215820e+00 1.086378842592238964e-01 -6.780024766921997070e-01 1.300000000000000000e+01
-4.501934051513671875e+01 1.666520357131958008e+00 2.360979557037353960e+00 3.500000000000000000e+01
-3.517683029174805132e+00 1.308319419622420987e-01 -6.842410564422607422e-01 1.200000000000000000e+01
-4.480347061157227273e+01 1.674190282821655051e+00 3.922531366348267046e+00 5.400000000000000000e+01
-4.360535144805908203e+00 1.637040972709656039e-01 -6.911274790763854980e-01 1.000000000000000000e+01
-5.744704723358154297e+00 2.176769971847533902e-01 -7.058672308921813965e-01 1.100000000000000000e+01
-8.354015350341796875e+00 3.180085420608521063e-01 -7.314109802246093750e-01 2.000000000000000000e+00
-1.601219940185546875e+01 6.151266098022460938e-01 -8.397827744483947754e-01 4.000000000000000000e+00
-3.448883819580078125e+01 1.336984276771544966e+00 -6.024570465087890625e-01 1.300000000000000000e+01
-2.551850557327270952e+00 1.024928987026215016e-01 -6.843175292015075684e-01 1.500000000000000000e+01
-4.474678802490233664e+01 1.805039048194885032e+00 7.816932797431945801e-01 4.800000000000000000e+01
-2.940185546875000000e+00 1.191180422902106961e-01 -6.793521642684936523e-01 1.300000000000000000e+01
-4.501324844360352273e+01 1.823657035827636941e+00 2.360979557037353960e+00 3.500000000000000000e+01
-3.507396697998046875e+00 1.427110731601715088e-01 -6.823329925537109375e-01 1.100000000000000000e+01
-4.482920455932617188e+01 1.831874847412108931e+00 3.925320386886597124e+00 5.400000000000000000e+01
-4.350068569183349609e+00 1.785192191600800116e-01 -6.895630955696105957e-01 1.000000000000000000e+01
-5.720108985900878906e+00 2.367433607578277865e-01 -7.029423713684082031e-01 1.100000000000000000e+01
-8.360816955566406250e+00 3.474985063076018732e-01 -7.321082353591918945e-01 3.000000000000000000e+00
-1.600995445251464844e+01 6.710158586502075195e-01 -8.397827744483947754e-01 4.000000000000000000e+00
-3.440803909301757812e+01 1.454156041145324929e+00 -6.011306643486022949e-01 1.300000000000000000e+01
-2.547617197036743164e+00 1.112313643097878058e-01 -6.832822561264038086e-01 1.700000000000000000e+01
-4.474420928955078125e+01 1.961398601531981978e+00 7.817630767822265625e-01 4.800000000000000000e+01
-2.939751863479613814e+00 1.293804794549942017e-01 -6.793521642684936523e-01 1.200000000000000000e+01
-4.500626373291016336e+01 1.988626599311829057e+00 2.360979557037353960e+00 3.500000000000000000e+01
-3.506877183914185014e+00 1.549533009529114047e-01 -6.823329925537109375e-01 1.100000000000000000e+01
-4.482253646850585938e+01 1.988346815109252930e+00 3.925320386886597124e+00 5.400000000000000000e+01
-4.353365898132324219e+00 1.938784718513489047e-01 -6.901888847351074219e-01 1.000000000000000000e+01
-5.723214149475097656e+00 2.568868696689606268e-01 -7.034298777580261230e-01 1.100000000000000000e+01
-8.303822517395019531e+00 3.741698861122130793e-01 -7.272275090217590332e-01 2.000000000000000000e+00
-3.437878417968750000e+01 1.573156833648682085e+00 -6.007118225097656250e-01 1.300000000000000000e+01
-2.541424274444580078e+00 1.198505237698554993e-01 -6.817293763160705566e-01 2.200000000000000000e+01
-4.475706481933593750e+01 2.118518590927124023e+00 7.821121215820312500e-01 4.800000000000000000e+01
-2.945122003555297852e+00 1.399187743663788119e-01 -6.807019114494323730e-01 1.200000000000000000e+01
-4.499904632568358664e+01 2.145715713500977007e+00 2.360979557037353960e+00 3.500000000000000000e+01
-3.502392768859862837e+00 1.670066267251968106e-01 -6.815697550773620605e-01 1.200000000000000000e+01
-4.483522415161132812e+01 2.145746946334838867e+00 3.927063465118408203e+00 5.400000000000000000e+01
-4.360555171966552734e+00 2.094524800777435025e-01 -6.914403438568115234e-01 1.000000000000000000e+01
-5.722282409667968750e+00 2.768630385398864746e-01 -7.034298777580261230e-01 1.100000000000000000e+01
-8.290525436401367188e+00 4.025735557079315186e-01 -7.261816263198852539e-01 2.000000000000000000e+00
-1.590513515472411932e+01 7.778909206390380859e-01 -8.345491290092468262e-01 4.000000000000000000e+00
-3.435710525512695312e+01 1.692364454269408958e+00 -6.004325747489929199e-01 1.300000000000000000e+01
-2.548707962036132812e+00 1.291119754314422885e-01 -6.837999224662780762e-01 2.200000000000000000e+01
-4.476936721801757812e+01 2.275752067565917969e+00 7.824611663818359375e-01 4.800000000000000000e+01
-2.932938337326049805e+00 1.496026813983916959e-01 -6.780024766921997070e-01 1.300000000000000000e+01
-3.515513420104980025e+00 1.799337118864058893e-01 -6.842410564422607422e-01 1.200000000000000000e+01
-4.482746124267578125e+01 2.302237987518310991e+00 3.927063465118408203e+00 5.400000000000000000e+01
-4.324287414550781250e+00 2.228424698114394864e-01 -6.858087182044982910e-01 1.000000000000000000e+01
-5.717316150665283203e+00 2.966301441192626953e-01 -7.029423713684082031e-01 1.100000000000000000e+01
-8.304987907409667969e+00 4.323390722274780273e-01 -7.275761365890502930e-01 2.000000000000000000e+00
-1.580658626556395951e+01 8.283880949020385742e-01 -8.295249342918395996e-01 4.000000000000000000e+00
-3.433900451660156250e+01 1.811650753021240012e+00 -6.002231836318969727e-01 1.300000000000000000e+01
-2.555957794189453125e+00 1.384257227182388028e-01 -6.858704686164855957e-01 2.800000000000000000e+01
-4.476913833618164062e+01 2.432446479797362837e+00 7.826008200645446777e-01 4.800000000000000000e+01
-2.934344291687012163e+00 1.599456965923309049e-01 -6.784523725509643555e-01 1.300000000000000000e+01
-3.508982896804810014e+00 1.918824613094330112e-01 -6.830962300300598145e-01 1.100000000000000000e+01
-4.482313156127929688e+01 2.458919286727904829e+00 3.927412033081055132e+00 5.400000000000000000e+01
-4.335317611694335938e+00 2.385869771242142001e-01 -6.876859068870544434e-01 1.000000000000000000e+01
-5.710299968719482422e+00 3.162561655044556219e-01 -7.022111415863037109e-01 1.100000000000000000e+01
-8.299448966979980469e+00 4.611051976680756170e-01 -7.272275090217590332e-01 3.000000000000000000e+00
-1.580359840393066051e+01 8.835583329200744629e-01 -8.295249342918395996e-01 4.000000000000000000e+00
-3.435044097900391336e+01 1.932516098022460938e+00 -6.005373001098632812e-01 1.900000000000000000e+01
-2.555433273315430132e+00 1.477928459644317905e-01 -6.858704686164855957e-01 2.400000000000000000e+01
-4.475193786621093750e+01 2.596054077148437944e+00 7.824611663818359375e-01 4.800000000000000000e+01
-2.924010992050170898e+00 1.701335608959197998e-01 -6.762028932571411133e-01 1.200000000000000000e+01
-3.488656759262084961e+00 2.035984247922897061e-01 -6.792800426483154297e-01 1.100000000000000000e+01
-4.487746429443358664e+01 2.626913547515869141e+00 3.932990074157714844e+00 5.400000000000000000e+01
-4.346246242523193359e+00 2.551697492599486750e-01 -6.895630955696105957e-01 1.000000000000000000e+01
-5.701175689697265625e+00 3.367151916027069092e-01 -7.012361884117126465e-01 1.100000000000000000e+01
-8.281792640686035156e+00 4.905785918235778809e-01 -7.258329987525939941e-01 3.000000000000000000e+00
-3.433314895629882812e+01 2.057805538177489790e+00 -6.003627777099609375e-01 1.900000000000000000e+01
-2.541404247283935991e+00 1.558841615915297907e-01 -6.822469830513000488e-01 1.900000000000000000e+01
-4.475856781005858664e+01 2.753233909606934038e+00 7.827404141426086426e-01 4.800000000000000000e+01
-2.935069561004639116e+00 1.810591369867325107e-01 -6.789022684097290039e-01 1.200000000000000000e+01
-3.489884376525878906e+00 2.158960849046706876e-01 -6.796616315841674805e-01 1.200000000000000000e+01
-4.482825088500977273e+01 2.781081676483153853e+00 3.929503917694091797e+00 5.400000000000000000e+01
-4.329556465148925781e+00 2.693581581115723211e-01 -6.870601773262023926e-01 1.000000000000000000e+01
-5.697984695434570312e+00 3.564900159835814875e-01 -7.009924650192260742e-01 1.100000000000000000e+01
-8.274064064025878906e+00 5.191102027893066406e-01 -7.253100872039794922e-01 3.000000000000000000e+00
-1.579687118530273082e+01 9.966229200363159180e-01 -8.295249342918395996e-01 4.000000000000000000e+00
-3.430779266357421875e+01 2.176498651504517046e+00 -6.000486612319946289e-01 1.900000000000000000e+01
-2.529306411743164062e+00 1.635629087686538974e-01 -6.791411638259887695e-01 1.800000000000000000e+01
-4.477313995361328125e+01 2.903196096420288086e+00 7.831593155860900879e-01 4.800000000000000000e+01
-2.940286874771118164e+00 1.911704987287521085e-01 -6.802520155906677246e-01 1.200000000000000000e+01
-3.487190246582030806e+00 2.273400574922561923e-01 -6.792800426483154297e-01 1.200000000000000000e+01
-4.485854339599608664e+01 2.932321548461914062e+00 3.932990074157714844e+00 5.400000000000000000e+01
-4.324697017669677734e+00 2.834556102752686102e-01 -6.864344477653503418e-01 1.000000000000000000e+01
-5.692809581756591797e+00 3.751221895217896063e-01 -7.005049586296081543e-01 1.000000000000000000e+01
-8.234523773193359375e+00 5.440495014190673828e-01 -7.219981551170349121e-01 2.000000000000000000e+00
-3.431435394287108664e+01 2.291188001632689986e+00 -6.002929806709289551e-01 1.900000000000000000e+01
-2.530647277832030806e+00 1.725222319364548007e-01 -6.796588301658630371e-01 1.200000000000000000e+01
-4.472283172607421875e+01 3.056738853454589844e+00 7.824611663818359375e-01 4.800000000000000000e+01
-2.922104120254517046e+00 2.002338469028472900e-01 -6.762028932571411133e-01 1.100000000000000000e+01
-3.492251157760620117e+00 2.399149090051651001e-01 -6.804248690605163574e-01 1.200000000000000000e+01
-4.481225585937500000e+01 3.086424827575684038e+00 3.929852485656737837e+00 5.400000000000000000e+01
-4.309886455535888672e+00 2.975973784923552912e-01 -6.842443346977233887e-01 1.000000000000000000e+01
-5.691465377807617188e+00 3.949915170669556219e-01 -7.005049586296081543e-01 1.000000000000000000e+01
-8.212698936462402344e+00 5.714071393013000488e-01 -7.202550768852233887e-01 3.000000000000000000e+00
-3.433008575439453125e+01 2.412635803222655806e+00 -6.007118225097656250e-01 1.900000000000000000e+01
-2.531956672668457031e+00 1.814929097890853882e-01 -6.801764369010925293e-01 1.500000000000000000e+01
-4.476773834228516336e+01 3.216845035552978960e+00 7.834385037422180176e-01 4.800000000000000000e+01
-2.919443607330321822e+00 2.102926522493361872e-01 -6.757529377937316895e-01 1.300000000000000000e+01
-3.493350744247436968e+00 2.522450685501099188e-01 -6.808065176010131836e-01 1.100000000000000000e+01
-4.486877441406250000e+01 3.247720479965209961e+00 3.935779094696044922e+00 5.400000000000000000e+01
-4.306851387023925781e+00 3.124969303607941229e-01 -6.839314699172973633e-01 1.000000000000000000e+01
-5.674213409423828125e+00 4.137012660503386896e-01 -6.985550522804260254e-01 1.000000000000000000e+01
-8.226551055908203125e+00 6.012331247329711914e-01 -7.216495275497436523e-01 2.000000000000000000e+00
-3.430350494384766336e+01 2.531131029129027876e+00 -6.003977060317993164e-01 1.900000000000000000e+01
-2.535160541534423828e+00 1.906196773052216131e-01 -6.812117099761962891e-01 1.500000000000000000e+01
-4.474028396606445312e+01 3.371891736984252930e+00 7.831593155860900879e-01 4.800000000000000000e+01
-2.916748523712158203e+00 2.203353494405745905e-01 -6.753030419349670410e-01 1.300000000000000000e+01
-3.480702877044678178e+00 2.635482549667357843e-01 -6.785168051719665527e-01 1.100000000000000000e+01
-4.490484619140625000e+01 3.407940626144409180e+00 3.939962625503540039e+00 5.400000000000000000e+01
-4.313612937927246094e+00 3.281280398368834894e-01 -6.851829290390014648e-01 1.000000000000000000e+01
-4.496088027954102273e+01 3.427978515625000000e+00 5.536524295806884766e+00 3.800000000000000000e+01
-5.664817333221436435e+00 4.329003989696503241e-01 -6.975800991058349609e-01 1.000000000000000000e+01
-8.208509445190429688e+00 6.287282109260559082e-01 -7.202550768852233887e-01 2.000000000000000000e+00
-3.433234405517578125e+01 2.653785228729248047e+00 -6.010608673095703125e-01 1.300000000000000000e+01
-2.532553672790526900e+00 1.993163079023360928e-01 -6.806941032409667969e-01 1.400000000000000000e+01
-4.472824096679688211e+01 3.528043746948242188e+00 7.831593155860900879e-01 4.800000000000000000e+01
-2.915961742401123047e+00 2.305153608322144110e-01 -6.753030419349670410e-01 1.400000000000000000e+01
-4.490944290161132812e+01 3.558110952377318892e+00 2.360979557037353960e+00 3.500000000000000000e+01
-3.468019008636475053e+00 2.747662067413330078e-01 -6.762270927429199219e-01 1.200000000000000000e+01
-4.489267349243164062e+01 3.564666986465454102e+00 3.939962625503540039e+00 5.400000000000000000e+01
-4.316379547119140625e+00 3.434967696666718084e-01 -6.858087182044982910e-01 1.000000000000000000e+01
-4.492093658447266336e+01 3.582690715789794922e+00 5.533112049102783203e+00 3.800000000000000000e+01
-5.655356407165527344e+00 4.520390033721923828e-01 -6.966051459312438965e-01 1.000000000000000000e+01
-8.196334838867187500e+00 6.565819382667541504e-01 -7.193834781646728516e-01 3.000000000000000000e+00
-3.432286834716796875e+01 2.773611307144165039e+00 -6.010608673095703125e-01 2.000000000000000000e+01
-2.518365144729613814e+00 2.070472985506058017e-01 -6.770706176757812500e-01 1.400000000000000000e+01
-4.469572448730468750e+01 3.682511091232299805e+00 7.828102111816406250e-01 4.800000000000000000e+01
-2.926792144775391069e+00 2.416546791791915894e-01 -6.780024766921997070e-01 1.300000000000000000e+01
-3.474865198135375977e+00 2.875177264213562012e-01 -6.777535676956176758e-01 1.100000000000000000e+01
-4.487995910644531250e+01 3.721349954605102983e+00 3.939962625503540039e+00 5.400000000000000000e+01
-4.303342819213867188e+00 3.575802147388458252e-01 -6.839314699172973633e-01 1.000000000000000000e+01
-4.486463546752929688e+01 3.735848426818848100e+00 5.527749538421630859e+00 3.800000000000000000e+01
-5.669569969177246094e+00 4.730977118015288752e-01 -6.985550522804260254e-01 1.000000000000000000e+01
-8.176123619079589844e+00 6.836942434310913086e-01 -7.178146839141845703e-01 1.000000000000000000e+00
-3.431497192382813211e+01 2.893571615219116211e+00 -6.010957956314086914e-01 2.000000000000000000e+01
-2.521514415740966797e+00 2.157267183065413874e-01 -6.781058907508850098e-01 1.400000000000000000e+01
-4.471115875244141336e+01 3.833098411560059038e+00 7.832989096641540527e-01 4.800000000000000000e+01
-2.912383556365966797e+00 2.501913905143737793e-01 -6.748531460762023926e-01 1.500000000000000000e+01
-3.479760646820067915e+00 2.995443642139434814e-01 -6.788983941078186035e-01 1.100000000000000000e+01
-4.486737060546875000e+01 3.870156764984130859e+00 3.939962625503540039e+00 5.400000000000000000e+01
-4.298197269439697266e+00 3.715084195137023926e-01 -6.833057403564453125e-01 1.000000000000000000e+01
-4.485991287231445312e+01 3.885289430618286133e+00 5.528724670410156250e+00 3.800000000000000000e+01
-5.648193359375000000e+00 4.901797771453856867e-01 -6.961176991462707520e-01 1.000000000000000000e+01
-8.169841766357421875e+00 7.104582786560058594e-01 -7.174660563468933105e-01 2.000000000000000000e+00
-3.428526687622070312e+01 3.005602121353148970e+00 -6.007467508316040039e-01 1.900000000000000000e+01
-2.520745992660522017e+00 2.245271354913712103e-01 -6.781058907508850098e-01 1.400000000000000000e+01
-4.471343994140625000e+01 3.990568161010742188e+00 7.835781574249267578e-01 4.800000000000000000e+01
-2.905669450759888139e+00 2.598352730274199884e-01 -6.735034584999084473e-01 1.400000000000000000e+01
-3.476738452911376953e+00 3.115139603614807129e-01 -6.785168051719665527e-01 1.200000000000000000e+01
-4.485358810424804688e+01 4.026749610900878906e+00 3.939962625503540039e+00 5.400000000000000000e+01
-4.290971755981445312e+00 3.859787583351135254e-01 -6.823671460151672363e-01 1.000000000000000000e+01
-4.486189270019531250e+01 4.043281555175781250e+00 5.530674457550048828e+00 3.800000000000000000e+01
-5.642493724822998047e+00 5.095356106758117676e-01 -6.956301927566528320e-01 1.000000000000000000e+01
-8.151437759399414062e+00 7.375357151031494141e-01 -7.160716056823730469e-01 2.000000000000000000e+00
-3.430643081665039062e+01 3.128166913986206055e+00 -6.013051867485046387e-01 2.000000000000000000e+01
-2.531529426574707031e+00 2.339516431093215942e-01 -6.812117099761962891e-01 1.300000000000000000e+01
-4.474376678466796875e+01 4.142877578735351562e+00 7.843460440635681152e-01 4.800000000000000000e+01
-2.904791831970214844e+00 2.694693803787230890e-01 -6.735034584999084473e-01 1.400000000000000000e+01
-3.471776723861693892e+00 3.226781487464904785e-01 -6.777535676956176758e-01 1.200000000000000000e+01
-4.486776351928710938e+01 4.178053379058837891e+00 3.942402839660644975e+00 5.400000000000000000e+01
-4.289668083190917969e+00 4.002059996128082275e-01 -6.823671460151672363e-01 1.000000000000000000e+01
-4.488776779174804688e+01 4.195721626281738281e+00 5.535549163818359375e+00 3.800000000000000000e+01
-5.636820316314697266e+00 5.278738141059875488e-01 -6.951427459716796875e-01 1.000000000000000000e+01
-8.146963119506835938e+00 7.643766999244689941e-01 -7.158972620964050293e-01 2.000000000000000000e+00
-3.432772064208983664e+01 3.244925022125244141e+00 -6.018636822700500488e-01 2.000000000000000000e+01
-2.526851415634154829e+00 2.424179166555404941e-01 -6.801764369010925293e-01 1.300000000000000000e+01
-4.476088333129882812e+01 4.302098274230957031e+00 7.849045395851135254e-01 4.900000000000000000e+01
-2.909652709960937944e+00 2.801676988601685125e-01 -6.748531460762023926e-01 1.500000000000000000e+01
-3.451087236404418945e+00 3.329098224639893133e-01 -6.739373803138732910e-01 1.100000000000000000e+01
-4.486480331420897727e+01 4.335795879364013672e+00 3.943448781967163086e+00 5.400000000000000000e+01
-4.290211200714111328e+00 4.153676629066466730e-01 -6.826800107955932617e-01 1.000000000000000000e+01
-4.485309219360352273e+01 4.350467205047607422e+00 5.533112049102783203e+00 7.600000000000000000e+01
-5.623088359832763672e+00 5.463948249816894531e-01 -6.936802864074707031e-01 1.200000000000000000e+01
-8.130364418029785156e+00 7.914589643478393555e-01 -7.146770954132080078e-01 3.000000000000000000e+00
-3.428235244750977273e+01 3.361413955688477007e+00 -6.012703180313110352e-01 2.000000000000000000e+01
-2.502834320068358931e+00 2.498160749673843106e-01 -6.739647984504699707e-01 1.300000000000000000e+01
-4.477985000610352273e+01 4.477516651153563565e+00 7.855328321456909180e-01 4.900000000000000000e+01
-2.910494565963745117e+00 2.915320992469788153e-01 -6.753030419349670410e-01 1.400000000000000000e+01
-3.455643892288208008e+00 3.467466235160828192e-01 -6.750822067260742188e-01 1.100000000000000000e+01
-4.485971832275391336e+01 4.509227275848388672e+00 3.944494724273682085e+00 5.400000000000000000e+01
-4.288584709167479581e+00 4.318377971649169922e-01 -6.826800107955932617e-01 1.000000000000000000e+01
-4.490320587158203125e+01 4.529431819915770596e+00 5.541399002075195312e+00 3.800000000000000000e+01
-5.613049030303955078e+00 5.671835541725158691e-01 -6.927053332328796387e-01 1.000000000000000000e+01
-8.123301506042480469e+00 8.222701549530029297e-01 -7.143284678459167480e-01 2.000000000000000000e+00
-1.515113830566406072e+01 1.538996458053589089e+00 -7.981233596801757812e-01 4.000000000000000000e+00
-3.424531936645507812e+01 3.490590333938599077e+00 -6.008514761924743652e-01 1.300000000000000000e+01
-2.505790233612060991e+00 2.589482367038726807e-01 -6.750000715255737305e-01 1.500000000000000000e+01
-4.475201416015625000e+01 4.632565021514892578e+00 7.853233814239501953e-01 4.900000000000000000e+01
-2.903644084930419922e+00 3.010868728160858154e-01 -6.739533543586730957e-01 1.500000000000000000e+01
-3.452459812164307085e+00 3.586041033267974854e-01 -6.747006177902221680e-01 1.100000000000000000e+01
-4.485559463500977273e+01 4.667026519775390625e+00 3.945540428161621094e+00 5.400000000000000000e+01
-4.271333694458007812e+00 4.451669752597808838e-01 -6.801770329475402832e-01 1.000000000000000000e+01
-4.484566116333007812e+01 4.681817054748535156e+00 5.536280632019042969e+00 7.600000000000000000e+01
-5.622880935668945312e+00 5.880120992660522461e-01 -6.941677927970886230e-01 1.000000000000000000e+01
-8.122363090515136719e+00 8.508282899856567383e-01 -7.145027518272399902e-01 2.000000000000000000e+00
-1.514567375183104936e+01 1.591874480247498003e+00 -7.981233596801757812e-01 4.000000000000000000e+00
-3.422497177124022727e+01 3.609268665313721147e+00 -6.007118225097656250e-01 1.300000000000000000e+01
-2.514569282531737837e+00 2.678422033786774237e-01 -6.775882840156555176e-01 1.400000000000000000e+01
-4.474916839599608664e+01 4.774407386779785156e+00 7.855328321456909180e-01 4.900000000000000000e+01
-2.894933223724364790e+00 3.093791007995604914e-01 -6.721537709236145020e-01 1.500000000000000000e+01
-4.499285507202147727e+01 4.816291332244873047e+00 2.371446847915648970e+00 3.500000000000000000e+01
-3.470837116241455078e+00 3.715381920337677002e-01 -6.785168051719665527e-01 1.100000000000000000e+01
-4.486052322387695312e+01 4.810045719146729404e+00 3.947283506393433061e+00 5.400000000000000000e+01
-4.264021396636962891e+00 4.579507112503051758e-01 -6.792384386062622070e-01 9.000000000000000000e+00
-4.487020492553710938e+01 4.826927185058593750e+00 5.541155338287354404e+00 7.600000000000000000e+01
-5.601269245147705078e+00 6.035472750663757324e-01 -6.917303800582885742e-01 1.000000000000000000e+01
-8.089936256408691406e+00 8.731343150138854980e-01 -7.118881344795227051e-01 2.000000000000000000e+00
-1.494203281402588068e+01 1.617947101593018022e+00 -7.876561284065246582e-01 4.000000000000000000e+00
-3.422937011718750000e+01 3.718499422073363814e+00 -6.009910702705383301e-01 2.000000000000000000e+01
-2.519379854202270952e+00 2.772520184516906738e-01 -6.791411638259887695e-01 1.300000000000000000e+01
-4.477595901489257812e+01 4.935401916503906250e+00 7.863007187843322754e-01 4.900000000000000000e+01
-2.899646520614624023e+00 3.201239407062531073e-01 -6.735034584999084473e-01 1.300000000000000000e+01
-3.453908205032349077e+00 3.819251954555510919e-01 -6.754638552665710449e-01 1.100000000000000000e+01
-4.487910461425781250e+01 4.970556735992431641e+00 3.950421094894409180e+00 5.400000000000000000e+01
-4.276140213012695312e+00 4.743567109107971191e-01 -6.814285516738891602e-01 1.000000000000000000e+01
-4.486689376831054688e+01 4.985058307647705078e+00 5.542861461639404297e+00 7.600000000000000000e+01
-5.587290763854979581e+00 6.217783689498901367e-01 -6.902679800987243652e-01 1.000000000000000000e+01
