-3.775423049926757812e+00 1.590919971466064009e+00 -6.488901376724243164e-01 9.000000000000000000e+00
-4.870739459991455078e+00 2.054476261138916016e+00 -6.490761041641235352e-01 1.100000000000000000e+01
-6.751449108123779297e+00 2.849147081375122070e+00 -6.411176323890686035e-01 2.000000000000000000e+00
-1.126905632019042969e+01 4.760235786437988281e+00 -6.411154866218566895e-01 3.000000000000000000e+00
-3.281015396118164062e+01 1.387305068969726918e+01 -6.217943429946899414e-01 7.000000000000000000e+00
-2.242741823196411133e+00 9.510635733604431152e-01 -6.527416110038757324e-01 1.800000000000000000e+01
-6.087926864624022727e+01 2.582917785644530895e+01 1.154337048530579057e+00 4.400000000000000000e+01
-2.604633569717406782e+00 1.105601310729980025e+00 -6.532578468322753906e-01 1.500000000000000000e+01
-3.064759016036986861e+00 1.301544308662414995e+00 -6.472241282463073730e-01 1.200000000000000000e+01
-3.750409126281737837e+00 1.594272255897521973e+00 -6.454486250877380371e-01 9.000000000000000000e+00
-4.864261150360107422e+00 2.069767951965332031e+00 -6.490761041641235352e-01 1.100000000000000000e+01
-6.749797821044921875e+00 2.873464822769165039e+00 -6.418148875236511230e-01 3.000000000000000000e+00
-1.125404548645020064e+01 4.795614719390869141e+00 -6.411154866218566895e-01 3.000000000000000000e+00
-3.281423187255858664e+01 1.399645614624023082e+01 -6.227018833160400391e-01 1.400000000000000000e+01
-2.241184234619141069e+00 9.596468210220336914e-01 -6.532592773437500000e-01 1.600000000000000000e+01
-2.595384836196898970e+00 1.112383365631103960e+00 -6.519081592559814453e-01 1.400000000000000000e+01
-3.071023225784302202e+00 1.316876769065856934e+00 -6.495138406753540039e-01 1.100000000000000000e+01
-3.743005990982056108e+00 1.606574773788451926e+00 -6.451357603073120117e-01 9.000000000000000000e+00
-4.855182647705078125e+00 2.085951089859008789e+00 -6.488323807716369629e-01 9.000000000000000000e+00
-6.736065387725830078e+00 2.895434856414794922e+00 -6.414662599563598633e-01 2.000000000000000000e+00
-1.123723793029784979e+01 4.834869861602783203e+00 -6.411154866218566895e-01 3.000000000000000000e+00
-3.282762145996093750e+01 1.413780689239501953e+01 -6.238886117935180664e-01 7.000000000000000000e+00
-2.239424943923950195e+00 9.686216711997985840e-01 -6.537768840789794922e-01 1.800000000000000000e+01
-2.580560445785522017e+00 1.117242932319640891e+00 -6.492087244987487793e-01 1.300000000000000000e+01
-3.058969974517821822e+00 1.325002431869507058e+00 -6.479873657226562500e-01 1.100000000000000000e+01
-3.735280036926269975e+00 1.619496941566467063e+00 -6.448228359222412109e-01 9.000000000000000000e+00
-4.829294681549072266e+00 2.095829486846923828e+00 -6.463949680328369141e-01 9.000000000000000000e+00
-6.696166992187500000e+00 2.907408237457274947e+00 -6.386772990226745605e-01 3.000000000000000000e+00
-1.121944141387938920e+01 4.876023769378662109e+00 -6.411154866218566895e-01 3.000000000000000000e+00
-3.275724411010742188e+01 1.425005435943604049e+01 -6.235395669937133789e-01 7.000000000000000000e+00
-2.239570856094359907e+00 9.779790639877319336e-01 -6.548121571540832520e-01 1.800000000000000000e+01
-2.576644897460937944e+00 1.126244068145751953e+00 -6.492087244987487793e-01 1.400000000000000000e+01
-3.054326057434082031e+00 1.335672140121459961e+00 -6.479873657226562500e-01 1.100000000000000000e+01
-3.735033035278319868e+00 1.634902000427246094e+00 -6.457614898681640625e-01 9.000000000000000000e+00
-6.092449951171875000e+01 2.668059730529785156e+01 8.166464805603027344e+00 6.300000000000000000e+01
-4.816494941711425781e+00 2.110284090042113814e+00 -6.456637978553771973e-01 1.100000000000000000e+01
-6.693276405334472656e+00 2.933964014053345171e+00 -6.393745541572570801e-01 2.000000000000000000e+00
-3.273659896850585938e+01 1.437717723846436080e+01 -6.240980625152587891e-01 7.000000000000000000e+00
-2.231012105941772017e+00 9.830633997917175293e-01 -6.532592773437500000e-01 1.900000000000000000e+01
-2.578244924545288086e+00 1.137141466140747070e+00 -6.505584716796875000e-01 1.500000000000000000e+01
-6.093399810791016336e+01 2.688780021667480113e+01 3.490494251251221147e+00 4.300000000000000000e+01
-3.035510778427124023e+00 1.339452743530272993e+00 -6.449344158172607422e-01 1.100000000000000000e+01
-3.722362995147705078e+00 1.644086480140686035e+00 -6.445099711418151855e-01 9.000000000000000000e+00
-6.101726150512695312e+01 2.696271896362305043e+01 8.190838813781738281e+00 6.300000000000000000e+01
-4.816732883453369141e+00 2.129455327987670898e+00 -6.466387510299682617e-01 1.100000000000000000e+01
-6.683510303497313565e+00 2.956143617630004883e+00 -6.393745541572570801e-01 2.000000000000000000e+00
-1.109467697143555043e+01 4.911851882934570312e+00 -6.358818411827087402e-01 3.000000000000000000e+00
-3.276918411254882812e+01 1.452130317687987926e+01 -6.256338953971862793e-01 7.000000000000000000e+00
-2.227566957473754883e+00 9.908451437950134277e-01 -6.532592773437500000e-01 1.900000000000000000e+01
-2.579600572586060014e+00 1.148512244224547896e+00 -6.519081592559814453e-01 1.400000000000000000e+01
-3.029023408889770952e+00 1.349241614341736062e+00 -6.445527672767639160e-01 1.200000000000000000e+01
-3.700363874435424805e+00 1.649830222129821999e+00 -6.416941881179809570e-01 9.000000000000000000e+00
-4.796580791473388672e+00 2.140592813491820845e+00 -6.449325680732727051e-01 9.000000000000000000e+00
-6.651319503784179688e+00 2.969707965850830078e+00 -6.372827887535095215e-01 3.000000000000000000e+00
-1.107746410369873047e+01 4.950549602508544922e+00 -6.358818411827087402e-01 3.000000000000000000e+00
-3.276940536499022727e+01 1.465846347808838068e+01 -6.266111731529235840e-01 7.000000000000000000e+00
-2.220569849014281782e+00 9.970321655273437500e-01 -6.522240042686462402e-01 1.900000000000000000e+01
-2.570243358612060991e+00 1.155113220214843972e+00 -6.505584716796875000e-01 1.500000000000000000e+01
-3.031457662582397017e+00 1.363027095794677956e+00 -6.460792422294616699e-01 1.200000000000000000e+01
-3.699986457824707031e+00 1.665169000625609907e+00 -6.426327824592590332e-01 9.000000000000000000e+00
-4.787269592285156250e+00 2.156507730484008789e+00 -6.446888446807861328e-01 1.100000000000000000e+01
-6.659077167510986328e+00 3.001093626022338867e+00 -6.390259265899658203e-01 2.000000000000000000e+00
-1.115114593505859020e+01 5.030250072479248047e+00 -6.411154866218566895e-01 3.000000000000000000e+00
-3.273991012573242188e+01 1.478263568878174006e+01 -6.270300745964050293e-01 7.000000000000000000e+00
-2.224114418029785156e+00 1.007967114448546919e+00 -6.542945504188537598e-01 1.900000000000000000e+01
-2.557322263717650923e+00 1.160052776336669922e+00 -6.483089327812194824e-01 1.400000000000000000e+01
-3.030256748199462891e+00 1.375223159790039062e+00 -6.468424797058105469e-01 1.200000000000000000e+01
-3.704942464828491211e+00 1.682976007461548074e+00 -6.445099711418151855e-01 9.000000000000000000e+00
-4.774291515350341797e+00 2.170740365982056108e+00 -6.439576148986816406e-01 9.000000000000000000e+00
-6.612289428710938388e+00 3.007820606231689009e+00 -6.355396509170532227e-01 2.000000000000000000e+00
-1.095174694061278942e+01 4.986382484436035156e+00 -6.306482553482055664e-01 3.000000000000000000e+00
-3.272814178466796875e+01 1.491507339477539062e+01 -6.277979612350463867e-01 7.000000000000000000e+00
-2.218825578689575195e+00 1.014920949935913086e+00 -6.537768840789794922e-01 1.700000000000000000e+01
-2.547941684722899947e+00 1.166538834571837935e+00 -6.469592452049255371e-01 1.300000000000000000e+01
-3.005803823471068892e+00 1.376798987388611062e+00 -6.426447033882141113e-01 1.100000000000000000e+01
-3.688271284103393999e+00 1.690958976745605025e+00 -6.426327824592590332e-01 9.000000000000000000e+00
-4.755859851837158203e+00 2.182425022125244141e+00 -6.424951553344726562e-01 9.000000000000000000e+00
-6.601749897003173828e+00 3.030883550643920898e+00 -6.355396509170532227e-01 2.000000000000000000e+00
-1.093427467346191051e+01 5.024580955505371094e+00 -6.306482553482055664e-01 3.000000000000000000e+00
-3.275944900512695312e+01 1.506766319274901988e+01 -6.294035911560058594e-01 7.000000000000000000e+00
-2.215269327163695845e+00 1.022659897804260032e+00 -6.537768840789794922e-01 1.800000000000000000e+01
-6.085485458374022727e+01 2.810600280761719105e+01 1.170044183731079102e+00 4.200000000000000000e+01
-2.549161195755004883e+00 1.177877902984618919e+00 -6.483089327812194824e-01 1.400000000000000000e+01
-3.004543542861938032e+00 1.388930439949036089e+00 -6.434079408645629883e-01 1.200000000000000000e+01
-3.685931682586669922e+00 1.705482125282288042e+00 -6.432585120201110840e-01 9.000000000000000000e+00
-4.755418300628662109e+00 2.202349662780762163e+00 -6.434701085090637207e-01 1.100000000000000000e+01
-6.605591773986816406e+00 3.060610294342041016e+00 -6.369341611862182617e-01 2.000000000000000000e+00
-1.091666889190674006e+01 5.062718391418457031e+00 -6.306482553482055664e-01 3.000000000000000000e+00
-3.275743865966796875e+01 1.520549774169922053e+01 -6.303809285163879395e-01 7.000000000000000000e+00
-2.202751398086547852e+00 1.026691794395446999e+00 -6.511887311935424805e-01 1.900000000000000000e+01
-6.084204864501953125e+01 2.837111282348633168e+01 1.171789526939392090e+00 4.100000000000000000e+01
-2.555423021316527876e+00 1.192156434059143066e+00 -6.510083675384521484e-01 1.400000000000000000e+01
-2.999432802200316939e+00 1.399933338165282981e+00 -6.434079408645629883e-01 1.200000000000000000e+01
-3.676076650619506836e+00 1.717308163642883079e+00 -6.426327824592590332e-01 9.000000000000000000e+00
-4.741919517517089844e+00 2.217241764068603960e+00 -6.427389383316040039e-01 1.100000000000000000e+01
-6.551017284393311435e+00 3.064538955688477007e+00 -6.327506899833679199e-01 2.000000000000000000e+00
-1.089803981781006037e+01 5.102695941925048828e+00 -6.306482553482055664e-01 3.000000000000000000e+00
-3.270148849487304688e+01 1.532545757293700994e+01 -6.303809285163879395e-01 7.000000000000000000e+00
-2.193909645080565962e+00 1.031907796859740989e+00 -6.496357917785644531e-01 1.900000000000000000e+01
-2.544193506240845171e+00 1.197749018669127974e+00 -6.492087244987487793e-01 1.400000000000000000e+01
-2.999856233596802202e+00 1.412904381752013938e+00 -6.445527672767639160e-01 1.100000000000000000e+01
-3.655765533447266069e+00 1.723391056060791016e+00 -6.401298046112060547e-01 9.000000000000000000e+00
-4.734150886535645419e+00 2.233780622482299805e+00 -6.427389383316040039e-01 1.300000000000000000e+01
-6.540280342102050781e+00 3.087387561798096147e+00 -6.327506899833679199e-01 2.000000000000000000e+00
-1.088016223907471058e+01 5.140706062316895419e+00 -6.306482553482055664e-01 3.000000000000000000e+00
-2.195529937744141069e+00 1.042044758796691895e+00 -6.511887311935424805e-01 1.900000000000000000e+01
-2.529435873031616211e+00 1.201605558395385964e+00 -6.465093493461608887e-01 1.400000000000000000e+01
-2.996679067611693892e+00 1.424209952354430930e+00 -6.449344158172607422e-01 1.100000000000000000e+01
-3.642592191696166992e+00 1.732747316360474077e+00 -6.388783454895019531e-01 9.000000000000000000e+00
-4.708401679992675781e+00 2.241758823394774947e+00 -6.403015255928039551e-01 1.100000000000000000e+01
-6.536658287048339844e+00 3.113625764846802202e+00 -6.334479451179504395e-01 2.000000000000000000e+00
-1.077200889587401988e+01 5.135677337646484375e+00 -6.254146695137023926e-01 3.000000000000000000e+00
-2.198848724365233931e+00 1.053039908409119096e+00 -6.532592773437500000e-01 1.600000000000000000e+01
-2.528740644454956055e+00 1.212112188339232954e+00 -6.474091410636901855e-01 1.400000000000000000e+01
-2.982838153839110884e+00 1.430417060852051003e+00 -6.430262923240661621e-01 1.200000000000000000e+01
-3.652549266815185991e+00 1.753144741058350053e+00 -6.416941881179809570e-01 1.000000000000000000e+01
-4.693390369415283203e+00 2.254742145538330078e+00 -6.393265724182128906e-01 1.000000000000000000e+01
-6.518567085266113281e+00 3.132971763610839844e+00 -6.327506899833679199e-01 3.000000000000000000e+00
-1.075401687622069957e+01 5.173247337341308594e+00 -6.254146695137023926e-01 3.000000000000000000e+00
-2.188386201858520952e+00 1.056964993476867898e+00 -6.511887311935424805e-01 1.900000000000000000e+01
-2.528216123580933061e+00 1.222187519073486106e+00 -6.483089327812194824e-01 1.400000000000000000e+01
-2.972776174545288086e+00 1.437736272811890093e+00 -6.418814659118652344e-01 1.100000000000000000e+01
-3.639603376388549805e+00 1.761804699897765891e+00 -6.404427289962768555e-01 1.000000000000000000e+01
-4.684101104736328125e+00 2.269428014755249023e+00 -6.390828490257263184e-01 1.000000000000000000e+01
-6.500970363616943359e+00 3.151094913482666016e+00 -6.320534348487854004e-01 3.000000000000000000e+00
-1.071164512634276988e+01 5.196675300598145419e+00 -6.239492893218994141e-01 3.000000000000000000e+00
-2.176000118255614790e+00 1.060366153717041016e+00 -6.486005187034606934e-01 1.800000000000000000e+01
-6.088201522827147727e+01 2.968099021911621094e+01 1.182260870933532937e+00 3.900000000000000000e+01
-2.522183179855347124e+00 1.230150938034058061e+00 -6.478590369224548340e-01 1.300000000000000000e+01
-2.967739582061768022e+00 1.448104500770569070e+00 -6.418814659118652344e-01 1.100000000000000000e+01
-3.629881381988524947e+00 1.772764801979064941e+00 -6.398169398307800293e-01 1.000000000000000000e+01
-4.677934646606445312e+00 2.286636590957642046e+00 -6.393265724182128906e-01 1.000000000000000000e+01
-6.475612640380859375e+00 3.166765928268433061e+00 -6.306589841842651367e-01 2.000000000000000000e+00
-1.065756225585938033e+01 5.216473579406738281e+00 -6.218558549880981445e-01 3.000000000000000000e+00
-2.179407119750977007e+00 1.070984244346619096e+00 -6.506710648536682129e-01 2.000000000000000000e+01
-2.512843847274779829e+00 1.235927700996398926e+00 -6.465093493461608887e-01 1.400000000000000000e+01
-2.957636356353760210e+00 1.455337524414062944e+00 -6.407365798950195312e-01 1.200000000000000000e+01
-3.606261491775513139e+00 1.776064634323119895e+00 -6.366882920265197754e-01 1.000000000000000000e+01
-4.661423206329345703e+00 2.297748327255249023e+00 -6.381078958511352539e-01 1.000000000000000000e+01
-6.454354286193847656e+00 3.182935237884521040e+00 -6.296131014823913574e-01 3.000000000000000000e+00
-1.061154937744140980e+01 5.237642765045166016e+00 -6.201810836791992188e-01 3.000000000000000000e+00
-2.180848121643065962e+00 1.081159472465514915e+00 -6.522240042686462402e-01 1.800000000000000000e+01
-2.501531600952147993e+00 1.241227030754088911e+00 -6.447097063064575195e-01 1.300000000000000000e+01
-2.959572315216064009e+00 1.469144463539123979e+00 -6.422630548477172852e-01 1.200000000000000000e+01
-3.600039958953856978e+00 1.788641929626465066e+00 -6.366882920265197754e-01 1.000000000000000000e+01
-4.642709732055664062e+00 2.308702468872069868e+00 -6.366454362869262695e-01 9.000000000000000000e+00
-6.436069011688232422e+00 3.201895952224731001e+00 -6.289158463478088379e-01 3.000000000000000000e+00
-1.052526187896729049e+01 5.240822792053222656e+00 -6.162035465240478516e-01 3.000000000000000000e+00
-2.180516481399536133e+00 1.090493679046631081e+00 -6.532592773437500000e-01 1.800000000000000000e+01
-6.093082427978516336e+01 3.048528480529785156e+01 1.189241886138916016e+00 3.800000000000000000e+01
-2.493698596954346147e+00 1.248206853866576926e+00 -6.438099145889282227e-01 1.300000000000000000e+01
-2.950915098190308061e+00 1.477708220481873003e+00 -6.414998173713684082e-01 1.200000000000000000e+01
-3.597306489944458008e+00 1.802967786788939986e+00 -6.373140215873718262e-01 1.000000000000000000e+01
-4.627524852752686435e+00 2.321334123611450195e+00 -6.356704831123352051e-01 9.000000000000000000e+00
-6.449783325195313388e+00 3.236853837966918945e+00 -6.313561797142028809e-01 2.000000000000000000e+00
-1.050690460205077947e+01 5.277531147003173828e+00 -6.162035465240478516e-01 3.000000000000000000e+00
-2.166347742080688032e+00 1.092877626419066939e+00 -6.501534581184387207e-01 1.800000000000000000e+01
-2.496284484863280806e+00 1.260417222976685014e+00 -6.456094980239868164e-01 1.400000000000000000e+01
-2.940481901168822798e+00 1.485344290733336958e+00 -6.403549909591674805e-01 1.200000000000000000e+01
-3.601568460464477983e+00 1.820861339569092019e+00 -6.391912102699279785e-01 1.000000000000000000e+01
-4.624707698822020596e+00 2.340161800384521040e+00 -6.364017128944396973e-01 9.000000000000000000e+00
-6.424224376678466797e+00 3.252149105072021040e+00 -6.299617290496826172e-01 2.000000000000000000e+00
-1.048841857910156072e+01 5.314174652099609375e+00 -6.162035465240478516e-01 3.000000000000000000e+00
-2.153719663619995117e+00 1.096428155899048074e+00 -6.475652456283569336e-01 1.900000000000000000e+01
-2.491648197174071822e+00 1.269558191299438032e+00 -6.456094980239868164e-01 1.300000000000000000e+01
-2.935018062591553178e+00 1.496111750602721946e+00 -6.403549909591674805e-01 1.200000000000000000e+01
-3.582553148269652876e+00 1.827765464782715066e+00 -6.370011568069458008e-01 9.000000000000000000e+00
-4.614331245422363281e+00 2.356193780899047852e+00 -6.361579895019531250e-01 6.000000000000000000e+00
-6.401615619659423828e+00 3.270234823226929155e+00 -6.289158463478088379e-01 3.000000000000000000e+00
-1.038706874847411932e+01 5.310757160186767578e+00 -6.113886237144470215e-01 3.000000000000000000e+00
-2.167064666748046875e+00 1.112763881683350053e+00 -6.527416110038757324e-01 2.100000000000000000e+01
-2.490667819976807085e+00 1.280029416084289995e+00 -6.465093493461608887e-01 1.300000000000000000e+01
-2.931523799896239790e+00 1.507245421409606934e+00 -6.407365798950195312e-01 1.200000000000000000e+01
-3.558586597442626953e+00 1.831221103668212891e+00 -6.338724493980407715e-01 9.000000000000000000e+00
-4.600784301757813388e+00 2.369559526443481001e+00 -6.354267597198486328e-01 7.000000000000000000e+00
-6.400788307189941406e+00 3.298036098480225053e+00 -6.299617290496826172e-01 2.000000000000000000e+00
-1.038621807098389027e+01 5.356136322021484375e+00 -6.124353408813476562e-01 3.000000000000000000e+00
-2.158020734786986861e+00 1.117656230926513894e+00 -6.511887311935424805e-01 1.900000000000000000e+01
-2.477534055709838867e+00 1.284231662750243919e+00 -6.442598104476928711e-01 1.500000000000000000e+01
-2.933216094970703125e+00 1.521084308624268022e+00 -6.422630548477172852e-01 1.200000000000000000e+01
-3.541652917861938032e+00 1.838171839714050071e+00 -6.319952607154846191e-01 7.000000000000000000e+00
-4.578392028808593750e+00 2.378284215927124023e+00 -6.334768533706665039e-01 7.000000000000000000e+00
-6.382165431976318359e+00 3.316684007644652876e+00 -6.292644739151000977e-01 2.000000000000000000e+00
-1.036037063598632990e+01 5.388671875000000000e+00 -6.120166778564453125e-01 3.000000000000000000e+00
-2.154106378555297852e+00 1.125182271003722922e+00 -6.511887311935424805e-01 1.900000000000000000e+01
-2.473036050796508789e+00 1.292871952056884988e+00 -6.442598104476928711e-01 1.500000000000000000e+01
-2.913971185684204102e+00 1.524034976959228960e+00 -6.392101049423217773e-01 1.300000000000000000e+01
-3.559716463088988814e+00 1.863348722457885964e+00 -6.363754272460937500e-01 5.000000000000000000e+00
-4.554236888885498047e+00 2.385960340499877930e+00 -6.312832236289978027e-01 9.000000000000000000e+00
-6.367019653320313388e+00 3.337091922760010210e+00 -6.289158463478088379e-01 2.000000000000000000e+00
-1.030612373352050959e+01 5.406247615814208984e+00 -6.099232435226440430e-01 3.000000000000000000e+00
-2.138397693634033203e+00 1.126018762588500977e+00 -6.475652456283569336e-01 1.900000000000000000e+01
-6.080979156494141336e+01 3.203424453735352273e+01 1.199713349342345969e+00 3.600000000000000000e+01
-2.467011213302611861e+00 1.300157189369202104e+00 -6.438099145889282227e-01 1.400000000000000000e+01
-2.907164573669434038e+00 1.532773971557616965e+00 -6.388285160064697266e-01 1.300000000000000000e+01
-3.570988416671752930e+00 1.884361982345581055e+00 -6.395040750503540039e-01 5.000000000000000000e+00
-6.092076492309570312e+01 3.216065216064453125e+01 8.458463668823242188e+00 6.300000000000000000e+01
-4.562097549438476562e+00 2.409393072128295898e+00 -6.334768533706665039e-01 1.000000000000000000e+01
-6.334778785705566406e+00 3.347018241882324219e+00 -6.268240809440612793e-01 2.000000000000000000e+00
-1.028813934326172053e+01 5.440394401550292969e+00 -6.099232435226440430e-01 3.000000000000000000e+00
-2.131041765213013139e+00 1.131664156913757102e+00 -6.465299725532531738e-01 1.900000000000000000e+01
-2.474503278732299805e+00 1.315162777900696023e+00 -6.469592452049255371e-01 1.500000000000000000e+01
-2.894862651824951172e+00 1.539225816726685014e+00 -6.373020410537719727e-01 1.300000000000000000e+01
-3.543462991714477983e+00 1.885679602622986062e+00 -6.357496380805969238e-01 7.000000000000000000e+00
-4.553659439086914062e+00 2.425303220748900923e+00 -6.334768533706665039e-01 1.000000000000000000e+01
-6.312507152557373047e+00 3.363488912582397017e+00 -6.257782578468322754e-01 2.000000000000000000e+00
-1.026908683776854936e+01 5.476273536682128906e+00 -6.099232435226440430e-01 3.000000000000000000e+00
-2.126879692077637163e+00 1.139467239379883035e+00 -6.465299725532531738e-01 1.900000000000000000e+01
-2.464514017105102983e+00 1.321460843086242898e+00 -6.456094980239868164e-01 1.400000000000000000e+01
-2.896121978759766069e+00 1.553537845611572044e+00 -6.388285160064697266e-01 1.300000000000000000e+01
-3.519123792648314986e+00 1.889310598373413086e+00 -6.326209902763366699e-01 1.000000000000000000e+01
-4.548237323760986328e+00 2.443856000900268999e+00 -6.339643001556396484e-01 1.000000000000000000e+01
-6.303646564483642578e+00 3.388489484786986861e+00 -6.261268854141235352e-01 2.000000000000000000e+00
-1.024894618988036932e+01 5.513875007629395419e+00 -6.099232435226440430e-01 3.000000000000000000e+00
-2.124588966369628906e+00 1.147802710533142090e+00 -6.470476388931274414e-01 2.000000000000000000e+01
-2.447886943817139116e+00 1.323567509651184082e+00 -6.424602270126342773e-01 1.500000000000000000e+01
-2.887227773666381836e+00 1.561769604682921919e+00 -6.380652785301208496e-01 1.400000000000000000e+01
-3.526404619216918945e+00 1.909106731414794922e+00 -6.351239085197448730e-01 1.000000000000000000e+01
-4.539678573608398438e+00 2.459717512130736861e+00 -6.339643001556396484e-01 1.000000000000000000e+01
-6.298786640167236328e+00 3.414270401000977007e+00 -6.268240809440612793e-01 2.000000000000000000e+00
-1.022963619232177912e+01 5.549616813659667969e+00 -6.099232435226440430e-01 3.000000000000000000e+00
-2.136040687561035156e+00 1.163156628608704057e+00 -6.517063379287719727e-01 1.900000000000000000e+01
-2.441773176193236861e+00 1.330745100975037065e+00 -6.420103311538696289e-01 1.300000000000000000e+01
-2.880309343338013139e+00 1.570395588874816895e+00 -6.376836895942687988e-01 1.400000000000000000e+01
-3.520054340362548828e+00 1.920790195465087891e+00 -6.351239085197448730e-01 9.000000000000000000e+00
-4.514074802398681641e+00 2.465243339538574219e+00 -6.315269470214843750e-01 1.200000000000000000e+01
-6.294423580169677734e+00 3.438960313796997070e+00 -6.275213360786437988e-01 2.000000000000000000e+00
-1.021117687225341975e+01 5.583508968353270596e+00 -6.099232435226440430e-01 3.000000000000000000e+00
-2.116726875305175781e+00 1.162237644195557085e+00 -6.470476388931274414e-01 2.000000000000000000e+01
-2.443944454193114790e+00 1.343014478683471902e+00 -6.438099145889282227e-01 1.400000000000000000e+01
-2.867928266525268999e+00 1.576656937599181907e+00 -6.361572146415710449e-01 1.400000000000000000e+01
-3.509866714477539062e+00 1.931161284446716087e+00 -6.344981789588928223e-01 9.000000000000000000e+00
-4.505442142486572266e+00 2.480985403060913086e+00 -6.315269470214843750e-01 1.000000000000000000e+01
-6.264930248260498047e+00 3.451297283172606978e+00 -6.257782578468322754e-01 3.000000000000000000e+00
-1.019162464141846058e+01 5.619118690490722656e+00 -6.099232435226440430e-01 3.000000000000000000e+00
-2.112452983856201172e+00 1.169988036155700906e+00 -6.470476388931274414e-01 2.000000000000000000e+01
-2.442414522171020952e+00 1.353852510452270952e+00 -6.447097063064575195e-01 1.300000000000000000e+01
-2.863847255706787109e+00 1.588109970092772993e+00 -6.365388035774230957e-01 1.700000000000000000e+01
-3.506219387054442915e+00 1.945929765701293945e+00 -6.351239085197448730e-01 9.000000000000000000e+00
-4.499789237976074219e+00 2.499409914016724077e+00 -6.320143938064575195e-01 1.000000000000000000e+01
-6.229598045349121094e+00 3.461655616760253906e+00 -6.235122084617614746e-01 3.000000000000000000e+00
-1.008368682861327947e+01 5.607898712158203125e+00 -6.046896576881408691e-01 3.000000000000000000e+00
-2.108355998992919922e+00 1.177354693412780984e+00 -6.470476388931274414e-01 1.900000000000000000e+01
-2.425766229629517046e+00 1.355714917182921919e+00 -6.415604352951049805e-01 1.300000000000000000e+01
-2.858286380767821822e+00 1.598096966743469016e+00 -6.365388035774230957e-01 1.400000000000000000e+01
-3.485614776611328125e+00 1.950440049171447976e+00 -6.326209902763366699e-01 9.000000000000000000e+00
-4.491037368774414062e+00 2.515101671218872070e+00 -6.320143938064575195e-01 1.000000000000000000e+01
-6.208785533905029297e+00 3.478510618209838867e+00 -6.226406097412109375e-01 3.000000000000000000e+00
-1.003966045379639027e+01 5.629387855529785156e+00 -6.032242178916931152e-01 3.000000000000000000e+00
-2.108014345169066939e+00 1.185866832733154075e+00 -6.480829119682312012e-01 2.000000000000000000e+01
-2.414702653884888139e+00 1.359504699707031028e+00 -6.397607922554016113e-01 1.300000000000000000e+01
-2.866936206817626953e+00 1.614776372909545898e+00 -6.395917534828186035e-01 1.200000000000000000e+01
-3.476028442382812944e+00 1.959440708160399947e+00 -6.319952607154846191e-01 9.000000000000000000e+00
-4.479655742645263672e+00 2.527247667312622070e+00 -6.315269470214843750e-01 1.000000000000000000e+01
-6.177005767822265625e+00 3.486247539520264116e+00 -6.205489039421081543e-01 2.000000000000000000e+00
-9.959321975708007812e+00 5.625538349151611328e+00 -5.994560718536376953e-01 3.000000000000000000e+00
-2.107222795486450195e+00 1.195124030113219993e+00 -6.491181850433349609e-01 1.800000000000000000e+01
-2.411637067794799805e+00 1.368887305259705034e+00 -6.402106881141662598e-01 1.100000000000000000e+01
-2.845917224884033203e+00 1.616049051284790039e+00 -6.361572146415710449e-01 1.200000000000000000e+01
-3.476037263870238814e+00 1.975466489791869895e+00 -6.332467198371887207e-01 9.000000000000000000e+00
-4.451826095581054688e+00 2.532073497772216797e+00 -6.288458108901977539e-01 1.000000000000000000e+01
-6.180383682250976562e+00 3.516656160354613814e+00 -6.221176981925964355e-01 3.000000000000000000e+00
-9.939623832702636719e+00 5.660268306732177734e+00 -5.994560718536376953e-01 3.000000000000000000e+00
-2.101151466369628906e+00 1.201880216598510964e+00 -6.486005187034606934e-01 1.900000000000000000e+01
-2.415059804916381836e+00 1.382558107376099077e+00 -6.424602270126342773e-01 1.200000000000000000e+01
-2.833160400390625000e+00 1.622566342353821023e+00 -6.346307396888732910e-01 1.200000000000000000e+01
-3.477342605590819868e+00 1.993105053901671919e+00 -6.348110437393188477e-01 1.000000000000000000e+01
-4.442515850067138672e+00 2.548373222351074219e+00 -6.288458108901977539e-01 1.000000000000000000e+01
-6.165725231170654297e+00 3.538292884826660156e+00 -6.219433546066284180e-01 3.000000000000000000e+00
-9.918811798095703125e+00 5.696660995483398438e+00 -5.994560718536376953e-01 3.000000000000000000e+00
-2.080207824707030806e+00 1.199556827545166016e+00 -6.434241533279418945e-01 1.900000000000000000e+01
-2.411906957626343218e+00 1.391953945159912109e+00 -6.429101228713989258e-01 1.200000000000000000e+01
-2.830879926681518999e+00 1.634409308433532937e+00 -6.353939771652221680e-01 1.200000000000000000e+01
-3.456681013107299805e+00 1.997324824333190918e+00 -6.323081254959106445e-01 1.100000000000000000e+01
-4.438748836517333984e+00 2.566846132278441939e+00 -6.295770406723022461e-01 1.000000000000000000e+01
-6.108497142791748047e+00 3.533853530883789062e+00 -6.174112558364868164e-01 2.000000000000000000e+00
-9.898865699768066406e+00 5.731249332427979404e+00 -5.994560718536376953e-01 3.000000000000000000e+00
-2.087699174880981001e+00 1.213606953620911089e+00 -6.470476388931274414e-01 1.900000000000000000e+01
-2.407033443450928178e+00 1.400364518165587935e+00 -6.429101228713989258e-01 1.300000000000000000e+01
-2.828551054000854048e+00 1.646256089210510032e+00 -6.361572146415710449e-01 1.200000000000000000e+01
-3.432618856430054155e+00 1.999436259269713911e+00 -6.291794180870056152e-01 1.100000000000000000e+01
-4.429761409759520596e+00 2.582324743270874023e+00 -6.295770406723022461e-01 1.000000000000000000e+01
-6.109893321990966797e+00 3.563184499740601030e+00 -6.188057661056518555e-01 3.000000000000000000e+00
-9.771852493286132812e+00 5.703348159790039062e+00 -5.929663777351379395e-01 3.000000000000000000e+00
-2.076783180236815962e+00 1.216980099678039995e+00 -6.449770331382751465e-01 1.800000000000000000e+01
-2.381958723068236861e+00 1.396928071975708008e+00 -6.375113129615783691e-01 1.100000000000000000e+01
-2.824480772018433061e+00 1.657112956047058105e+00 -6.365388035774230957e-01 1.200000000000000000e+01
-3.427321910858153853e+00 2.012406349182128906e+00 -6.294922828674316406e-01 1.200000000000000000e+01
-3.597360229492188211e+01 2.113091468811035156e+01 5.122655868530273438e+00 2.700000000000000000e+01
-4.396759986877441406e+00 2.583691596984862837e+00 -6.261646747589111328e-01 1.000000000000000000e+01
-6.076807022094726562e+00 3.572373628616333008e+00 -6.167140603065490723e-01 3.000000000000000000e+00
-9.751885414123535156e+00 5.737423419952392578e+00 -5.929663777351379395e-01 3.000000000000000000e+00
-2.084380626678466797e+00 1.230735898017883079e+00 -6.486005187034606934e-01 1.900000000000000000e+01
-2.390734910964965820e+00 1.412750482559204102e+00 -6.411104798316955566e-01 1.300000000000000000e+01
-2.810519695281981978e+00 1.661474704742432085e+00 -6.346307396888732910e-01 1.200000000000000000e+01
-3.430830478668212891e+00 2.029795885086060014e+00 -6.313694715499877930e-01 1.100000000000000000e+01
-4.391584396362304688e+00 2.600280284881591797e+00 -6.266521811485290527e-01 1.000000000000000000e+01
-6.064927577972412109e+00 3.592505455017089844e+00 -6.167140603065490723e-01 2.000000000000000000e+00
-9.708752632141113281e+00 5.755471706390380859e+00 -5.915009975433349609e-01 3.000000000000000000e+00
-2.068451404571533203e+00 1.231088042259216087e+00 -6.449770331382751465e-01 1.900000000000000000e+01
-6.094262313842772727e+01 3.628585815429688211e+01 1.238038778305053933e+00 2.900000000000000000e+01
-2.384114742279053178e+00 1.420089840888977051e+00 -6.406605839729309082e-01 1.300000000000000000e+01
-2.787837743759154829e+00 1.661225438117980957e+00 -6.308145523071289062e-01 1.200000000000000000e+01
-3.428813934326171875e+00 2.044794559478760210e+00 -6.323081254959106445e-01 1.000000000000000000e+01
-4.365435123443604404e+00 2.605420589447021040e+00 -6.242147684097290039e-01 1.000000000000000000e+01
-6.045507431030273438e+00 3.609568595886230025e+00 -6.160168051719665527e-01 2.000000000000000000e+00
-9.671458244323730469e+00 5.779081821441650391e+00 -5.904542803764343262e-01 3.000000000000000000e+00
-2.054201602935791016e+00 1.232337832450866921e+00 -6.418712139129638672e-01 1.800000000000000000e+01
-2.385826110839844194e+00 1.432415723800658958e+00 -6.424602270126342773e-01 1.200000000000000000e+01
-2.795485973358153853e+00 1.679033517837523970e+00 -6.338675022125244141e-01 1.200000000000000000e+01
-3.408111095428466797e+00 2.048609495162963867e+00 -6.298051476478576660e-01 1.000000000000000000e+01
-3.388618850708007812e+01 2.037697792053223012e+01 4.855031013488770419e+00 2.000000000000000000e+01
-4.363118171691895419e+00 2.624736070632935014e+00 -6.251897215843200684e-01 1.000000000000000000e+01
-6.036285400390625000e+00 3.632704019546508789e+00 -6.163654327392578125e-01 3.000000000000000000e+00
-9.627273559570312500e+00 5.798379898071289062e+00 -5.889888405799865723e-01 3.000000000000000000e+00
-2.053193807601929155e+00 1.241500020027161089e+00 -6.429064869880676270e-01 1.800000000000000000e+01
-2.374142646789550781e+00 1.436699390411376953e+00 -6.406605839729309082e-01 1.500000000000000000e+01
-2.786249160766602007e+00 1.686747908592223899e+00 -6.331042647361755371e-01 1.200000000000000000e+01
-3.387423515319824219e+00 2.052304744720458984e+00 -6.273022294044494629e-01 1.000000000000000000e+01
-3.343119049072266336e+01 2.026260185241698863e+01 4.799945831298828125e+00 2.000000000000000000e+01
-4.355626583099365234e+00 2.640979528427124023e+00 -6.254334449768066406e-01 1.000000000000000000e+01
-6.009940147399902344e+00 3.645486116409302202e+00 -6.149709224700927734e-01 3.000000000000000000e+00
-9.606974601745605469e+00 5.831949710845947266e+00 -5.889888405799865723e-01 3.000000000000000000e+00
-2.052146911621094194e+00 1.250670194625854048e+00 -6.439417600631713867e-01 2.000000000000000000e+01
-2.355803489685059038e+00 1.436860084533690962e+00 -6.370613574981689453e-01 1.200000000000000000e+01
-2.780344247817993164e+00 1.696463465690613015e+00 -6.331042647361755371e-01 1.200000000000000000e+01
-3.375181198120117188e+00 2.061028003692626953e+00 -6.263635754585266113e-01 1.000000000000000000e+01
-3.340430068969727273e+01 2.040608024597167969e+01 4.806282997131347656e+00 2.000000000000000000e+01
-4.326055526733398438e+00 2.643745660781859907e+00 -6.225085854530334473e-01 1.000000000000000000e+01
-6.002277851104736328e+00 3.669560194015502930e+00 -6.154938340187072754e-01 3.000000000000000000e+00
-9.518412590026855469e+00 5.823753833770751953e+00 -5.848019719123840332e-01 3.000000000000000000e+00
-2.047768831253052202e+00 1.257825970649719016e+00 -6.439417600631713867e-01 2.000000000000000000e+01
-2.350773572921752930e+00 1.445074677467345969e+00 -6.370613574981689453e-01 1.200000000000000000e+01
-2.772733211517333984e+00 1.705129861831665039e+00 -6.327226161956787109e-01 1.200000000000000000e+01
-3.376377820968627930e+00 2.077973842620850053e+00 -6.279279589653015137e-01 1.000000000000000000e+01
-3.400902557373046875e+01 2.093885993957519887e+01 4.903778553009033203e+00 2.100000000000000000e+01
-4.310039997100830078e+00 2.654666185379027876e+00 -6.215336322784423828e-01 1.000000000000000000e+01
-5.979254722595214844e+00 3.684218645095825195e+00 -6.144480109214782715e-01 3.000000000000000000e+00
-9.508225440979003906e+00 5.863234043121337891e+00 -5.854300260543823242e-01 3.000000000000000000e+00
-2.045008182525635210e+00 1.265983104705810991e+00 -6.444594264030456543e-01 2.100000000000000000e+01
-2.352341175079346147e+00 1.457376837730407937e+00 -6.388610005378723145e-01 1.300000000000000000e+01
-2.766764402389525923e+00 1.714798212051392046e+00 -6.327226161956787109e-01 1.200000000000000000e+01
-3.372461080551147017e+00 2.091829538345336914e+00 -6.285536885261535645e-01 1.000000000000000000e+01
-3.404367828369141336e+01 2.112443161010741832e+01 4.919377803802490234e+00 2.200000000000000000e+01
-4.310866355895996094e+00 2.675976514816284180e+00 -6.229960918426513672e-01 1.000000000000000000e+01
-5.954509735107421875e+00 3.697710037231444868e+00 -6.132277846336364746e-01 3.000000000000000000e+00
-9.477522850036621094e+00 5.890062332153320312e+00 -5.848019719123840332e-01 3.000000000000000000e+00
-2.029103517532349077e+00 1.265955805778502974e+00 -6.408359408378601074e-01 2.000000000000000000e+01
-2.350545644760131836e+00 1.467643380165100098e+00 -6.397607922554016113e-01 1.200000000000000000e+01
-2.752436161041260210e+00 1.719245195388793945e+00 -6.308145523071289062e-01 1.200000000000000000e+01
-3.355088472366333008e+00 2.097306251525878906e+00 -6.266764402389526367e-01 1.100000000000000000e+01
-4.294767856597900391e+00 2.686796426773070845e+00 -6.220211386680603027e-01 1.000000000000000000e+01
-3.443448257446289062e+01 2.154213142395019887e+01 6.433210849761962891e+00 1.400000000000000000e+01
-5.944943904876708984e+00 3.720586776733397993e+00 -6.135764122009277344e-01 3.000000000000000000e+00
-9.419666290283203125e+00 5.899785995483398438e+00 -5.824992060661315918e-01 3.000000000000000000e+00
-2.034261465072631836e+00 1.279555797576904075e+00 -6.439417600631713867e-01 2.000000000000000000e+01
-2.336904764175415039e+00 1.471057891845702903e+00 -6.375113129615783691e-01 1.200000000000000000e+01
-2.757745504379272017e+00 1.736644983291625977e+00 -6.334858536720275879e-01 1.200000000000000000e+01
-3.337351799011230025e+00 2.103269815444945845e+00 -6.247992515563964844e-01 1.100000000000000000e+01
-4.288249492645263672e+00 2.704637527465819868e+00 -6.225085854530334473e-01 1.000000000000000000e+01
-3.446223068237304688e+01 2.173563957214355113e+01 6.453234672546386719e+00 1.400000000000000000e+01
-5.938007354736328125e+00 3.746603727340697798e+00 -6.142736673355102539e-01 5.000000000000000000e+00
-9.354071617126464844e+00 5.906545639038085938e+00 -5.797777175903320312e-01 3.000000000000000000e+00
-3.284408950805664062e+01 2.074712753295898082e+01 8.968798637390136719e+00 1.200000000000000000e+01
-2.036309242248535156e+00 1.290786027908324973e+00 -6.460123658180236816e-01 1.900000000000000000e+01
-2.325173377990723100e+00 1.475030660629272017e+00 -6.357116699218750000e-01 1.200000000000000000e+01
-2.753324270248413086e+00 1.747312664985656960e+00 -6.338675022125244141e-01 1.200000000000000000e+01
-3.326654672622681108e+00 2.112788677215576172e+00 -6.241735219955444336e-01 1.100000000000000000e+01
-6.099365234375000000e+01 3.875256347656250000e+01 8.872818946838378906e+00 6.300000000000000000e+01
-4.278782367706298828e+00 2.719589948654174805e+00 -6.225085854530334473e-01 1.000000000000000000e+01
-3.461287689208983664e+01 2.199991035461426137e+01 6.495784759521484375e+00 1.400000000000000000e+01
-5.897992610931395596e+00 3.750203609466553178e+00 -6.114847064018249512e-01 2.000000000000000000e+00
-9.346877098083496094e+00 5.947739601135253906e+00 -5.806151032447814941e-01 3.000000000000000000e+00
-2.035274028778076172e+00 1.299610972404479980e+00 -6.470476388931274414e-01 1.900000000000000000e+01
-2.320269107818603960e+00 1.482733130455017090e+00 -6.357116699218750000e-01 1.100000000000000000e+01
-2.745860576629639116e+00 1.755375981330872026e+00 -6.334858536720275879e-01 1.300000000000000000e+01
-3.327950000762939009e+00 2.129131317138671875e+00 -6.257378458976745605e-01 1.100000000000000000e+01
-4.249679088592529297e+00 2.720919370651245117e+00 -6.195837259292602539e-01 1.000000000000000000e+01
-3.443326187133789062e+01 2.204640197753905895e+01 6.475760936737061435e+00 1.400000000000000000e+01
-5.885523796081542969e+00 3.769741535186768022e+00 -6.114847064018249512e-01 2.000000000000000000e+00
-9.377546310424804688e+00 6.011036872863770419e+00 -5.837552547454833984e-01 3.000000000000000000e+00
-3.270211029052733664e+01 2.097020912170410156e+01 8.968798637390136719e+00 1.200000000000000000e+01
-2.020977735519409180e+00 1.300435304641724077e+00 -6.439417600631713867e-01 1.900000000000000000e+01
-2.318356275558472124e+00 1.492933511734009011e+00 -6.366114616394042969e-01 1.400000000000000000e+01
-2.731464385986328125e+00 1.759634017944335938e+00 -6.315777897834777832e-01 1.300000000000000000e+01
-3.322158098220825195e+00 2.141805410385131836e+00 -6.260507106781005859e-01 1.000000000000000000e+01
-4.240155220031738281e+00 2.735736846923828125e+00 -6.195837259292602539e-01 1.000000000000000000e+01
-5.889069080352783203e+00 3.801067590713500977e+00 -6.132277846336364746e-01 3.000000000000000000e+00
-9.272622108459472656e+00 5.989549636840820312e+00 -5.785216689109802246e-01 3.000000000000000000e+00
-3.271054840087891336e+01 2.113711547851562855e+01 8.991293907165527344e+00 1.200000000000000000e+01
-2.008548736572266069e+00 1.301876187324523926e+00 -6.413536071777343750e-01 1.900000000000000000e+01
-2.318297386169434038e+00 1.503794789314270020e+00 -6.379612088203430176e-01 1.300000000000000000e+01
-2.728908061981201172e+00 1.770819544792175071e+00 -6.323410272598266602e-01 1.200000000000000000e+01
-3.306753873825072798e+00 2.147431135177611861e+00 -6.244863867759704590e-01 9.000000000000000000e+00
-4.227730751037597656e+00 2.747619152069091797e+00 -6.190962791442871094e-01 1.000000000000000000e+01
-3.405714035034179688e+01 2.213387107849121094e+01 6.433210849761962891e+00 1.400000000000000000e+01
-5.869750022888183594e+00 3.816231489181518999e+00 -6.125305891036987305e-01 2.000000000000000000e+00
-3.298136520385742188e+01 2.145110130310058949e+01 7.647624492645263672e+00 6.300000000000000000e+01
-3.269906997680664062e+01 2.128374099731444957e+01 9.007490158081054688e+00 1.200000000000000000e+01
-2.003992080688477007e+00 1.308879375457763894e+00 -6.413536071777343750e-01 1.600000000000000000e+01
-2.308140516281127930e+00 1.508679389953613059e+00 -6.366114616394042969e-01 1.200000000000000000e+01
-3.303114700317382812e+01 2.159851264953612926e+01 2.068316936492919922e+00 2.200000000000000000e+01
-2.724353313446044922e+00 1.781408905982970969e+00 -6.327226161956787109e-01 1.200000000000000000e+01
-3.292626142501831055e+00 2.154633998870850053e+00 -6.232349276542663574e-01 9.000000000000000000e+00
-3.474030685424804688e+01 2.274208068847655895e+01 5.098282337188720703e+00 2.600000000000000000e+01
-4.221435546875000000e+00 2.764534950256348100e+00 -6.195837259292602539e-01 1.000000000000000000e+01
-5.849727153778076172e+00 3.832329988479613814e+00 -6.118333339691162109e-01 2.000000000000000000e+00
-9.231637954711914062e+00 6.052527427673339844e+00 -5.785216689109802246e-01 3.000000000000000000e+00
-3.260502243041992188e+01 2.138492774963378906e+01 9.002091407775878906e+00 1.200000000000000000e+01
-2.004021883010863814e+00 1.319402575492859109e+00 -6.429064869880676270e-01 1.900000000000000000e+01
-2.286322593688964844e+00 1.506407260894774947e+00 -6.321124434471130371e-01 1.400000000000000000e+01
-3.284670257568358664e+01 2.165018653869628906e+01 2.061722755432128906e+00 2.200000000000000000e+01
-2.714527368545531782e+00 1.789221286773682085e+00 -6.319593787193298340e-01 1.300000000000000000e+01
-3.279759883880614790e+00 2.163424730300902876e+00 -6.222962737083435059e-01 1.000000000000000000e+01
-4.207961082458496094e+00 2.777801513671875000e+00 -6.190962791442871094e-01 1.000000000000000000e+01
-5.815690517425537109e+00 3.840569496154785156e+00 -6.097415685653686523e-01 3.000000000000000000e+00
-9.209392547607421875e+00 6.086322307586669922e+00 -5.785216689109802246e-01 3.000000000000000000e+00
-3.234761047363281250e+01 2.138606643676758168e+01 8.952602386474609375e+00 1.200000000000000000e+01
-1.999404191970824973e+00 1.326389908790587935e+00 -6.429064869880676270e-01 2.000000000000000000e+01
-2.290791511535644975e+00 1.520845890045166016e+00 -6.348118782043457031e-01 1.400000000000000000e+01
-3.287741088867188211e+01 2.183543014526366832e+01 2.068421602249145952e+00 2.200000000000000000e+01
-2.709900617599486861e+00 1.799772024154663086e+00 -6.323410272598266602e-01 1.200000000000000000e+01
-3.270543098449707031e+00 2.173766374588013139e+00 -6.219834089279174805e-01 9.000000000000000000e+00
-4.181710720062255859e+00 2.781479120254517046e+00 -6.166588664054870605e-01 1.000000000000000000e+01
-3.398009872436522727e+01 2.261053276062012074e+01 6.464498043060302734e+00 1.400000000000000000e+01
-5.805566787719726562e+00 3.863054037094116211e+00 -6.100901961326599121e-01 2.000000000000000000e+00
-9.188091278076171875e+00 6.118432044982910156e+00 -5.785216689109802246e-01 3.000000000000000000e+00
-1.991549849510193093e+00 1.331213951110840066e+00 -6.418712139129638672e-01 1.800000000000000000e+01
-2.288708209991455078e+00 1.531000018119812012e+00 -6.357116699218750000e-01 1.400000000000000000e+01
-2.695443630218505859e+00 1.803761005401611106e+00 -6.304329037666320801e-01 1.300000000000000000e+01
-3.266217947006226030e+00 2.187367916107178178e+00 -6.226091980934143066e-01 9.000000000000000000e+00
-4.165380001068115234e+00 2.791638374328612837e+00 -6.156839132308959961e-01 1.000000000000000000e+01
-5.778807640075683594e+00 3.874419689178466797e+00 -6.086956858634948730e-01 2.000000000000000000e+00
-9.166677474975585938e+00 6.150466918945313388e+00 -5.785216689109802246e-01 3.000000000000000000e+00
-3.343370819091796875e+01 2.244111824035644887e+01 9.296327590942382812e+00 1.200000000000000000e+01
-1.975674629211426003e+00 1.330603480339050071e+00 -6.382477879524230957e-01 1.900000000000000000e+01
-2.288197994232178178e+00 1.542247176170348899e+00 -6.370613574981689453e-01 1.500000000000000000e+01
-2.689131021499633789e+00 1.813158869743346946e+00 -6.304329037666320801e-01 1.300000000000000000e+01
-3.255287647247314009e+00 2.196546077728271040e+00 -6.219834089279174805e-01 9.000000000000000000e+00
-4.163836002349854404e+00 2.811715841293334961e+00 -6.169025897979736328e-01 9.000000000000000000e+00
-3.316993713378906250e+01 2.240711402893066051e+01 6.339975833892822266e+00 1.400000000000000000e+01
-5.761946201324462891e+00 3.892337322235106978e+00 -6.083470582962036133e-01 3.000000000000000000e+00
-9.145153045654296875e+00 6.182427406311035156e+00 -5.785216689109802246e-01 3.000000000000000000e+00
-1.979245066642761008e+00 1.342570066452025923e+00 -6.408359408378601074e-01 1.900000000000000000e+01
-2.283071279525756836e+00 1.549826622009276900e+00 -6.370613574981689453e-01 1.500000000000000000e+01
-2.678231000900268999e+00 1.818757534027100053e+00 -6.292880773544311523e-01 1.300000000000000000e+01
-3.241450548171997070e+00 2.202887535095214844e+00 -6.207319498062133789e-01 9.000000000000000000e+00
-3.322508239746093750e+01 2.258822059631348012e+01 4.933027267456054688e+00 2.200000000000000000e+01
-4.156130313873291016e+00 2.826624631881713867e+00 -6.171463727951049805e-01 1.000000000000000000e+01
-3.305364608764647727e+01 2.248010444641112926e+01 6.331215858459472656e+00 1.400000000000000000e+01
-5.755596160888671875e+00 3.915906190872191939e+00 -6.090443134307861328e-01 2.000000000000000000e+00
-9.042055130004882812e+00 6.156516075134277344e+00 -5.732880830764770508e-01 3.000000000000000000e+00
-1.977736473083496094e+00 1.351650834083556907e+00 -6.418712139129638672e-01 1.900000000000000000e+01
-2.263170719146728960e+00 1.547885417938231978e+00 -6.330122947692871094e-01 1.200000000000000000e+01
-2.689689397811890093e+00 1.840289950370789018e+00 -6.334858536720275879e-01 1.300000000000000000e+01
-3.230481624603271040e+00 2.211956977844237837e+00 -6.201062202453613281e-01 9.000000000000000000e+00
-3.310345077514647727e+01 2.267489242553710938e+01 4.926690101623535156e+00 2.200000000000000000e+01
-4.144600868225097656e+00 2.839993000030518022e+00 -6.169025897979736328e-01 1.000000000000000000e+01
-3.302059936523438211e+01 2.262660980224609020e+01 6.339975833892822266e+00 1.400000000000000000e+01
-5.733675479888916016e+00 3.930340528488159180e+00 -6.081727743148803711e-01 3.000000000000000000e+00
-9.043567657470703125e+00 6.203858852386474609e+00 -5.747534632682800293e-01 3.000000000000000000e+00
-3.238782501220703125e+01 2.222625923156737926e+01 9.068676948547363281e+00 1.200000000000000000e+01
-1.979370713233947976e+00 1.362928628921509011e+00 -6.439417600631713867e-01 1.900000000000000000e+01
-2.260963201522827148e+00 1.557987451553344949e+00 -6.339120864868164062e-01 1.400000000000000000e+01
-3.331415176391602273e+01 2.296473312377930043e+01 2.120548248291016069e+00 2.400000000000000000e+01
-2.673550605773925781e+00 1.842981934547424094e+00 -6.311961412429809570e-01 1.200000000000000000e+01
-3.222740650177001953e+00 2.223219871520996094e+00 -6.201062202453613281e-01 9.000000000000000000e+00
-3.303390121459960938e+01 2.279707336425780895e+01 4.928152561187744141e+00 2.200000000000000000e+01
-4.131394863128662109e+00 2.852187395095825195e+00 -6.164151430130004883e-01 1.000000000000000000e+01
-5.701887130737304688e+00 3.937876462936400923e+00 -6.062553524971008301e-01 2.000000000000000000e+00
-8.975852012634277344e+00 6.203593254089354581e+00 -5.718226432800292969e-01 3.000000000000000000e+00
