-2.458605766296387163e+00 3.976163625717163086e+00 -5.740045905113220215e-01 1.000000000000000000e+01
-3.232695579528809038e+00 5.230095863342285156e+00 -5.379252433776855469e-01 6.000000000000000000e+00
-4.803575515747070312e+00 7.777651309967041016e+00 -4.790833294391632080e-01 1.000000000000000000e+00
-9.470606803894042969e+00 1.534619903564452947e+01 -3.147715926170349121e-01 3.000000000000000000e+00
-3.226603317260742188e+01 5.228397750854492188e+01 1.646244430541991832e+01 2.600000000000000000e+01
-1.209654331207274947e+00 1.966265082359313965e+00 -6.185775399208068848e-01 1.900000000000000000e+01
-1.394047975540160911e+00 2.267765998840332031e+00 -6.145662665367126465e-01 1.300000000000000000e+01
-1.615767478942871094e+00 2.629476547241210938e+00 -5.999034643173217773e-01 1.200000000000000000e+01
-1.945236921310425027e+00 3.168128967285155806e+00 -5.888193249702453613e-01 9.000000000000000000e+00
-2.446787357330321822e+00 3.988105535507202148e+00 -5.744920969009399414e-01 1.000000000000000000e+01
-3.208169698715209961e+00 5.231157302856445312e+00 -5.368793606758117676e-01 8.000000000000000000e+00
-4.776397228240966797e+00 7.794371604919433594e+00 -4.790833294391632080e-01 1.000000000000000000e+00
-9.406538963317871094e+00 1.536211013793944957e+01 -3.144225478172302246e-01 3.000000000000000000e+00
-1.210835576057434082e+00 1.983667016029357910e+00 -6.227186322212219238e-01 1.900000000000000000e+01
-1.379020333290100098e+00 2.260972261428833008e+00 -6.114169359207153320e-01 1.300000000000000000e+01
-1.606579065322875977e+00 2.635100603103638139e+00 -5.999034643173217773e-01 1.100000000000000000e+01
-1.936221599578856978e+00 3.178273677825928178e+00 -5.894450545310974121e-01 9.000000000000000000e+00
-2.439044475555419922e+00 4.006795883178710938e+00 -5.759544968605041504e-01 1.000000000000000000e+01
-3.185747146606444868e+00 5.235516071319580078e+00 -5.361821055412292480e-01 4.000000000000000000e+00
-4.728408336639404297e+00 7.776865005493164062e+00 -4.769898951053618830e-01 1.000000000000000000e+00
-9.348704338073730469e+00 1.538801574707031072e+01 -3.142829239368439276e-01 3.000000000000000000e+00
-1.205905318260193093e+00 1.991186380386352983e+00 -6.237539052963256836e-01 1.900000000000000000e+01
-1.362039446830749956e+00 2.250767230987548828e+00 -6.073678731918334961e-01 1.200000000000000000e+01
-1.602451801300049050e+00 2.649091720581055132e+00 -6.018115878105163574e-01 1.200000000000000000e+01
-1.922050118446350098e+00 3.179941415786743164e+00 -5.885064601898193359e-01 8.000000000000000000e+00
-2.417859554290771040e+00 4.003390789031982422e+00 -5.742483735084533691e-01 1.000000000000000000e+01
-3.171571493148804155e+00 5.253427028656005859e+00 -5.368793606758117676e-01 8.000000000000000000e+00
-4.701232910156250000e+00 7.793323040008544922e+00 -4.769898951053618830e-01 1.000000000000000000e+00
-9.257769584655761719e+00 1.535890007019042969e+01 -3.130263686180114746e-01 3.000000000000000000e+00
-1.197952508926392046e+00 1.993727803230286089e+00 -6.232362389564514160e-01 2.000000000000000000e+01
-1.357183814048767090e+00 2.260520219802856001e+00 -6.087175607681274414e-01 1.300000000000000000e+01
-1.590164184570312944e+00 2.649619102478026900e+00 -6.006667017936706543e-01 1.200000000000000000e+01
-1.911954283714293990e+00 3.188325405120850053e+00 -5.888193249702453613e-01 9.000000000000000000e+00
-2.396728277206420898e+00 3.999886751174927202e+00 -5.725421905517578125e-01 1.000000000000000000e+01
-3.155261754989624023e+00 5.267884254455566406e+00 -5.372279882431030273e-01 6.000000000000000000e+00
-4.676052093505859375e+00 7.813113689422607422e+00 -4.771992564201354980e-01 3.000000000000000000e+00
-3.128759193420410156e+01 5.229846954345703125e+01 1.406978893280028942e+01 2.300000000000000000e+01
-9.204100608825683594e+00 1.539112186431884943e+01 -3.130263686180114746e-01 3.000000000000000000e+00
-1.188018202781677024e+00 1.992919087409972922e+00 -6.216833591461181641e-01 1.900000000000000000e+01
-1.353273868560791016e+00 2.271940708160399947e+00 -6.105171442031860352e-01 1.200000000000000000e+01
-1.576888084411621094e+00 2.648406028747559038e+00 -5.991402268409729004e-01 1.200000000000000000e+01
-1.904853343963623047e+00 3.201770544052124023e+00 -5.900707840919494629e-01 9.000000000000000000e+00
-2.386808872222899947e+00 4.015053749084472656e+00 -5.735171437263488770e-01 1.000000000000000000e+01
-3.134818553924560991e+00 5.275440692901611328e+00 -5.368793606758117676e-01 6.000000000000000000e+00
-4.646711349487304688e+00 7.825953483581542969e+00 -4.769898951053618830e-01 1.000000000000000000e+00
-9.099303245544433594e+00 1.533716678619384943e+01 -3.112811148166655939e-01 3.000000000000000000e+00
-1.174863576889038086e+00 1.985004186630249023e+00 -6.180598735809326172e-01 1.800000000000000000e+01
-1.348113656044005904e+00 2.279535770416260210e+00 -6.114169359207153320e-01 1.200000000000000000e+01
-1.566561937332153098e+00 2.649966955184936968e+00 -5.983769893646240234e-01 1.200000000000000000e+01
-1.890766620635986106e+00 3.200935602188109907e+00 -5.888193249702453613e-01 9.000000000000000000e+00
-2.374183416366577148e+00 4.022532463073729581e+00 -5.735171437263488770e-01 1.000000000000000000e+01
-3.117217540740966797e+00 5.283546924591063565e+00 -5.367050766944885254e-01 8.000000000000000000e+00
-4.622102260589599609e+00 7.840513229370117188e+00 -4.769898951053618830e-01 3.000000000000000000e+00
-9.040925979614257812e+00 1.534844684600830078e+01 -3.109320700168610174e-01 3.000000000000000000e+00
-3.157468223571776988e+01 5.360317230224608664e+01 1.666950035095214844e+01 2.700000000000000000e+01
-1.167927503585814986e+00 1.989093065261841042e+00 -6.180598735809326172e-01 1.900000000000000000e+01
-1.337190032005310059e+00 2.279185056686400923e+00 -6.100672483444213867e-01 1.200000000000000000e+01
-1.561274886131287065e+00 2.662193059921265093e+00 -5.999034643173217773e-01 1.100000000000000000e+01
-1.873589396476746050e+00 3.197290420532227007e+00 -5.869421362876892090e-01 9.000000000000000000e+00
-2.364139795303345171e+00 4.037647724151611328e+00 -5.744920969009399414e-01 1.000000000000000000e+01
-3.086678504943848100e+00 5.273761749267578125e+00 -5.346133112907409668e-01 8.000000000000000000e+00
-4.596722126007080078e+00 7.860047817230224609e+00 -4.771992564201354980e-01 3.000000000000000000e+00
-8.997384071350097656e+00 1.539717769622802912e+01 -3.112811148166655939e-01 3.000000000000000000e+00
-3.128991127014160156e+01 5.354626846313477273e+01 1.661773490905762074e+01 2.700000000000000000e+01
-1.166811227798461914e+00 2.003173589706420898e+00 -6.211656928062438965e-01 1.800000000000000000e+01
-1.326285243034363015e+00 2.278786182403564009e+00 -6.087175607681274414e-01 1.200000000000000000e+01
-1.549998164176940918e+00 2.664232969284058061e+00 -5.991402268409729004e-01 1.200000000000000000e+01
-1.862417459487915039e+00 3.203810930252075195e+00 -5.869421362876892090e-01 9.000000000000000000e+00
-2.341058015823363814e+00 4.030426502227783203e+00 -5.722984075546264648e-01 1.000000000000000000e+01
-3.065249443054199219e+00 5.279335021972656250e+00 -5.340903997421264648e-01 9.000000000000000000e+00
-4.571261882781982422e+00 7.879500389099121094e+00 -4.774085879325867254e-01 1.000000000000000000e+00
-8.893439292907714844e+00 1.534198856353759943e+01 -3.095358908176422119e-01 3.000000000000000000e+00
-1.159811735153198020e+00 2.007234334945679155e+00 -6.211656928062438965e-01 1.800000000000000000e+01
-1.312476515769958052e+00 2.273275852203369141e+00 -6.060181260108947754e-01 1.200000000000000000e+01
-1.535782098770142046e+00 2.661125183105469194e+00 -5.972321629524230957e-01 1.100000000000000000e+01
-1.853196263313293013e+00 3.213714838027954102e+00 -5.875678658485412598e-01 9.000000000000000000e+00
-2.328957080841064009e+00 4.042013645172119141e+00 -5.727859139442443848e-01 8.000000000000000000e+00
-3.055752038955688032e+00 5.305541038513183594e+00 -5.356591939926147461e-01 9.000000000000000000e+00
-4.533767700195313388e+00 7.878098487854003906e+00 -4.763618707656859796e-01 1.000000000000000000e+00
-8.875718116760253906e+00 1.543534564971924006e+01 -3.107924461364746094e-01 3.000000000000000000e+00
-1.149215698242187944e+00 2.006643772125244141e+00 -6.196128129959106445e-01 1.900000000000000000e+01
-1.310513257980346902e+00 2.290138483047484907e+00 -6.091674566268920898e-01 1.400000000000000000e+01
-1.530426740646362083e+00 2.675523281097412109e+00 -5.991402268409729004e-01 1.100000000000000000e+01
-1.842803239822387917e+00 3.224236965179442915e+00 -5.881935954093933105e-01 9.000000000000000000e+00
-2.315388441085814986e+00 4.054374217987061435e+00 -5.732734203338623047e-01 1.000000000000000000e+01
-3.034369945526123047e+00 5.315504550933837891e+00 -5.354849100112915039e-01 9.000000000000000000e+00
-4.503484249114990234e+00 7.895448684692382812e+00 -4.763618707656859796e-01 1.000000000000000000e+00
-8.731230735778808594e+00 1.531990051269531072e+01 -3.077906370162963867e-01 3.000000000000000000e+00
-1.138387322425842063e+00 2.003924131393433061e+00 -6.175422668457031250e-01 1.900000000000000000e+01
-1.305397152900696023e+00 2.299783229827880859e+00 -6.105171442031860352e-01 1.200000000000000000e+01
-1.521078109741210938e+00 2.680849075317382812e+00 -5.991402268409729004e-01 1.100000000000000000e+01
-1.827640533447266069e+00 3.223776340484619141e+00 -5.869421362876892090e-01 9.000000000000000000e+00
-2.299265146255493164e+00 4.058977127075195312e+00 -5.727859139442443848e-01 8.000000000000000000e+00
-3.000089645385742188e+00 5.298324584960938388e+00 -5.326958894729614258e-01 8.000000000000000000e+00
-4.483764648437500000e+00 7.925027370452880859e+00 -4.771992564201354980e-01 1.000000000000000000e+00
-8.691478729248046875e+00 1.537465667724609020e+01 -3.082793056964874268e-01 3.000000000000000000e+00
-1.132086157798767090e+00 2.007490634918212891e+00 -6.175422668457031250e-01 1.900000000000000000e+01
-1.295295715332031028e+00 2.298779726028441939e+00 -6.091674566268920898e-01 1.400000000000000000e+01
-1.511685013771056907e+00 2.683903932571411133e+00 -5.987586379051208496e-01 1.200000000000000000e+01
-1.811690807342529075e+00 3.219173192977904829e+00 -5.850648880004882812e-01 1.000000000000000000e+01
-2.292340040206909180e+00 4.076562404632568359e+00 -5.742483735084533691e-01 1.000000000000000000e+01
-2.981477260589600053e+00 5.304249763488770419e+00 -5.323472619056701660e-01 8.000000000000000000e+00
-4.441240787506104404e+00 7.907729148864746094e+00 -4.753151535987854004e-01 1.000000000000000000e+00
-8.615734100341796875e+00 1.535305690765381037e+01 -3.073019683361052912e-01 3.000000000000000000e+00
-1.126958012580872026e+00 2.014802217483520952e+00 -6.185775399208068848e-01 1.900000000000000000e+01
-1.282510042190551980e+00 2.294781684875487837e+00 -6.069179177284240723e-01 1.300000000000000000e+01
-1.505179762840270996e+00 2.694306135177611861e+00 -5.999034643173217773e-01 1.200000000000000000e+01
-1.804293990135193093e+00 3.232376813888549805e+00 -5.863163471221923828e-01 9.000000000000000000e+00
-2.266493082046508789e+00 4.063735008239746094e+00 -5.713234543800354004e-01 1.000000000000000000e+01
-2.978466749191284180e+00 5.342468261718750000e+00 -5.351362824440002441e-01 9.000000000000000000e+00
-4.415554523468017578e+00 7.926673412322998047e+00 -4.755244851112365723e-01 1.000000000000000000e+00
-8.527078628540039062e+00 1.532013607025145951e+01 -3.060454130172728937e-01 2.000000000000000000e+00
-1.122729659080504927e+00 2.023791551589965820e+00 -6.201304197311401367e-01 1.800000000000000000e+01
-1.276381492614746094e+00 2.302653312683105025e+00 -6.078177690505981445e-01 1.500000000000000000e+01
-1.487202167510986106e+00 2.684088468551636186e+00 -5.964689254760742188e-01 1.000000000000000000e+01
-1.792999863624572976e+00 3.238655328750609907e+00 -5.863163471221923828e-01 9.000000000000000000e+00
-2.251333236694335938e+00 4.069884777069091797e+00 -5.710797309875488281e-01 1.000000000000000000e+01
-2.947266578674315962e+00 5.330165386199951172e+00 -5.328702330589294434e-01 9.000000000000000000e+00
-4.383995056152343750e+00 7.935045242309570312e+00 -4.751058220863341730e-01 1.000000000000000000e+00
-8.448422431945800781e+00 1.530429077148438033e+01 -3.051378726959229071e-01 2.000000000000000000e+00
-1.114727258682250977e+00 2.026005744934082031e+00 -6.196128129959106445e-01 1.900000000000000000e+01
-1.267397165298461914e+00 2.305386781692504883e+00 -6.073678731918334961e-01 1.200000000000000000e+01
-1.478769421577454057e+00 2.690984010696411133e+00 -5.968505144119262695e-01 1.100000000000000000e+01
-1.784536123275757058e+00 3.250088930130004883e+00 -5.872550010681152344e-01 1.000000000000000000e+01
-2.235203504562377930e+00 4.074237823486328125e+00 -5.705922842025756836e-01 1.000000000000000000e+01
-2.929600715637207031e+00 5.342167854309082031e+00 -5.330445170402526855e-01 9.000000000000000000e+00
-4.344752788543701172e+00 7.929281234741210938e+00 -4.738497436046599787e-01 1.000000000000000000e+00
-8.394948959350585938e+00 1.533368778228759943e+01 -3.051378726959229071e-01 2.000000000000000000e+00
-1.103946924209594949e+00 2.023101329803466797e+00 -6.175422668457031250e-01 1.900000000000000000e+01
-1.264939188957213911e+00 2.320062637329102007e+00 -6.100672483444213867e-01 1.300000000000000000e+01
-1.467488050460814986e+00 2.692681789398192915e+00 -5.960872769355773926e-01 1.100000000000000000e+01
-1.772235631942749023e+00 3.254563570022583008e+00 -5.869421362876892090e-01 9.000000000000000000e+00
-2.221916675567626953e+00 4.083758831024169922e+00 -5.708360075950622559e-01 1.000000000000000000e+01
-2.902368068695067915e+00 5.336608886718750000e+00 -5.314757227897644043e-01 9.000000000000000000e+00
-4.328491687774658203e+00 7.965457916259765625e+00 -4.751058220863341730e-01 1.000000000000000000e+00
-8.341373443603515625e+00 1.536289787292479936e+01 -3.051378726959229071e-01 2.000000000000000000e+00
-1.095958828926085982e+00 2.025243520736693892e+00 -6.170246005058288574e-01 2.000000000000000000e+01
-1.254052400588989036e+00 2.319321393966674805e+00 -6.087175607681274414e-01 1.300000000000000000e+01
-1.456212997436522993e+00 2.694333553314208984e+00 -5.953240394592285156e-01 1.100000000000000000e+01
-1.757109761238097922e+00 3.253777503967285156e+00 -5.856906175613403320e-01 9.000000000000000000e+00
-2.196336746215819868e+00 4.070526123046875000e+00 -5.679111480712890625e-01 1.000000000000000000e+01
-2.880884885787963867e+00 5.341446876525878906e+00 -5.309528112411499023e-01 9.000000000000000000e+00
-4.298765659332275391e+00 7.977002143859863281e+00 -4.748964607715607245e-01 1.000000000000000000e+00
-8.247878074645996094e+00 1.531797218322754084e+01 -3.036718666553496759e-01 2.000000000000000000e+00
-1.087615370750427024e+00 2.027544260025023970e+00 -6.165069937705993652e-01 1.900000000000000000e+01
-1.241860866546631081e+00 2.317031860351562944e+00 -6.069179177284240723e-01 1.300000000000000000e+01
-1.454672217369080034e+00 2.715227603912353960e+00 -5.987586379051208496e-01 1.000000000000000000e+01
-1.743307828903198020e+00 3.256712675094604048e+00 -5.850648880004882812e-01 9.000000000000000000e+00
-2.187020063400268999e+00 4.089051246643066406e+00 -5.693735480308532715e-01 8.000000000000000000e+00
-2.864106178283690962e+00 5.357241153717041016e+00 -5.314757227897644043e-01 9.000000000000000000e+00
-4.239386081695556641e+00 7.936330795288085938e+00 -4.715469777584075928e-01 1.000000000000000000e+00
-8.180380821228027344e+00 1.532693004608153942e+01 -3.032530248165131170e-01 2.000000000000000000e+00
-1.086881995201111062e+00 2.043267488479613814e+00 -6.201304197311401367e-01 1.800000000000000000e+01
-1.234679937362670898e+00 2.323073387145996094e+00 -6.073678731918334961e-01 1.400000000000000000e+01
-1.438737869262695090e+00 2.708152294158935991e+00 -5.960872769355773926e-01 1.100000000000000000e+01
-1.731929063796997070e+00 3.262778043746947798e+00 -5.850648880004882812e-01 9.000000000000000000e+00
-2.171803236007689986e+00 4.094906806945800781e+00 -5.691298246383666992e-01 1.000000000000000000e+01
-2.843522071838378906e+00 5.363685607910156250e+00 -5.311270952224731445e-01 1.100000000000000000e+01
-4.217266559600830078e+00 7.961670398712158203e+00 -4.721750020980834961e-01 1.000000000000000000e+00
-8.108121871948242188e+00 1.532004261016846058e+01 -3.025549054145812988e-01 2.000000000000000000e+00
-1.075948119163512962e+00 2.038129806518555132e+00 -6.175422668457031250e-01 1.900000000000000000e+01
-1.229194045066833052e+00 2.330388069152832031e+00 -6.082676649093627930e-01 1.400000000000000000e+01
-1.432969689369202104e+00 2.717869043350220171e+00 -5.972321629524230957e-01 1.200000000000000000e+01
-1.726273655891418013e+00 3.276941537857056108e+00 -5.866292715072631836e-01 1.000000000000000000e+01
-2.158927917480469194e+00 4.101709365844726562e+00 -5.691298246383666992e-01 1.000000000000000000e+01
-2.824802160263061968e+00 5.369065761566162109e+00 -5.307784676551818848e-01 9.000000000000000000e+00
-4.188516139984130859e+00 7.967808723449707031e+00 -4.717563092708588202e-01 1.000000000000000000e+00
-8.041356086730957031e+00 1.531003284454346058e+01 -3.018568158149719238e-01 2.000000000000000000e+00
-1.066139459609984907e+00 2.036738634109497070e+00 -6.159893274307250977e-01 1.900000000000000000e+01
-1.221955180168152078e+00 2.336391448974608931e+00 -6.087175607681274414e-01 1.300000000000000000e+01
-1.418926000595092995e+00 2.714155197143555132e+00 -5.953240394592285156e-01 1.100000000000000000e+01
-1.713909864425658958e+00 3.281196355819702148e+00 -5.863163471221923828e-01 9.000000000000000000e+00
-2.146434068679810014e+00 4.112740516662597656e+00 -5.696173310279846191e-01 1.000000000000000000e+01
-2.796828031539916992e+00 5.361228942871093750e+00 -5.290353298187255859e-01 1.100000000000000000e+01
-4.156985282897949219e+00 7.975296020507813388e+00 -4.713376164436339777e-01 1.000000000000000000e+00
-7.982322692871093750e+00 1.532736682891846058e+01 -3.016473948955535889e-01 2.000000000000000000e+00
-1.058311104774475098e+00 2.040817260742187944e+00 -6.159893274307250977e-01 2.000000000000000000e+01
-1.211181998252869096e+00 2.337605476379394975e+00 -6.078177690505981445e-01 1.300000000000000000e+01
-1.413911223411560059e+00 2.730043411254882812e+00 -5.976137518882751465e-01 1.100000000000000000e+01
-1.694943547248840110e+00 3.275472402572631836e+00 -5.841262936592102051e-01 1.000000000000000000e+01
-2.126068115234375000e+00 4.112134933471679688e+00 -5.683985948562622070e-01 8.000000000000000000e+00
-2.778051376342772993e+00 5.375468254089354581e+00 -5.293839573860168457e-01 9.000000000000000000e+00
-4.109837532043457031e+00 7.959255695343017578e+00 -4.694535136222838800e-01 1.000000000000000000e+00
-7.855564117431640625e+00 1.522639656066895064e+01 -2.990644276142119806e-01 2.000000000000000000e+00
-1.052947521209717019e+00 2.047935009002685991e+00 -6.170246005058288574e-01 2.000000000000000000e+01
-1.196781635284424050e+00 2.329685211181641069e+00 -6.046684384346008301e-01 1.100000000000000000e+01
-1.406166553497314009e+00 2.738455057144165039e+00 -5.983769893646240234e-01 1.100000000000000000e+01
-1.685303092002869096e+00 3.284883975982666016e+00 -5.847520232200622559e-01 1.000000000000000000e+01
-2.105362415313721147e+00 4.107165813446044922e+00 -5.666924715042114258e-01 1.000000000000000000e+01
-2.755636453628540039e+00 5.378039836883544922e+00 -5.286867618560791016e-01 9.000000000000000000e+00
-4.074748039245604581e+00 7.959330558776854581e+00 -4.686161577701569159e-01 1.000000000000000000e+00
-7.826043128967285156e+00 1.530001354217528942e+01 -2.999719679355620783e-01 2.000000000000000000e+00
-1.046508550643920898e+00 2.051232814788817915e+00 -6.170246005058288574e-01 2.000000000000000000e+01
-1.189456820487976074e+00 2.333433628082274947e+00 -6.046684384346008301e-01 1.100000000000000000e+01
-1.393100023269653098e+00 2.734112739562987837e+00 -5.964689254760742188e-01 1.200000000000000000e+01
-1.678559780120850053e+00 3.297203779220581055e+00 -5.860034823417663574e-01 1.000000000000000000e+01
-2.096048831939696822e+00 4.120836734771729404e+00 -5.676674246788024902e-01 1.000000000000000000e+01
-2.740533113479613814e+00 5.390222549438476562e+00 -5.290353298187255859e-01 1.100000000000000000e+01
-4.044295787811279297e+00 7.961408138275145596e+00 -4.679881334304810125e-01 1.000000000000000000e+00
-7.754406929016113281e+00 1.527816200256348012e+01 -2.990644276142119806e-01 2.000000000000000000e+00
-1.037598252296447976e+00 2.051425695419311968e+00 -6.159893274307250977e-01 2.000000000000000000e+01
-1.187457084655761941e+00 2.349746227264403853e+00 -6.078177690505981445e-01 1.200000000000000000e+01
-1.376466274261475053e+00 2.724940061569213867e+00 -5.934159755706787109e-01 1.200000000000000000e+01
-1.667040109634398970e+00 3.303042888641356978e+00 -5.860034823417663574e-01 1.000000000000000000e+01
-2.077182769775391069e+00 4.119266033172607422e+00 -5.664486885070800781e-01 8.000000000000000000e+00
-2.715423583984375000e+00 5.387301921844482422e+00 -5.278151631355285645e-01 1.100000000000000000e+01
-4.009294033050537109e+00 7.961206436157226562e+00 -4.671507477760314941e-01 1.000000000000000000e+00
-7.701028823852539062e+00 1.530513668060302912e+01 -2.990644276142119806e-01 2.000000000000000000e+00
-1.026967406272887962e+00 2.048127412796020952e+00 -6.139187812805175781e-01 2.000000000000000000e+01
-1.178374767303467019e+00 2.352134704589844194e+00 -6.073678731918334961e-01 1.200000000000000000e+01
-1.373099446296691895e+00 2.742016315460205078e+00 -5.960872769355773926e-01 1.200000000000000000e+01
-1.651080846786499023e+00 3.300009012222290039e+00 -5.844391584396362305e-01 9.000000000000000000e+00
-2.063678741455078125e+00 4.128267288208007812e+00 -5.666924715042114258e-01 1.000000000000000000e+01
-2.690368175506591797e+00 5.384271621704101562e+00 -5.265949964523315430e-01 1.100000000000000000e+01
-3.988616704940795898e+00 7.989448547363281250e+00 -4.679881334304810125e-01 1.000000000000000000e+00
-7.624350547790527344e+00 1.528539943695068004e+01 -2.981569170951843262e-01 2.000000000000000000e+00
-1.021531581878662109e+00 2.055159568786621094e+00 -6.149540543556213379e-01 2.000000000000000000e+01
-1.171890735626220925e+00 2.359724283218383789e+00 -6.082676649093627930e-01 1.300000000000000000e+01
-1.365265607833862083e+00 2.750309705734252930e+00 -5.968505144119262695e-01 1.200000000000000000e+01
-1.636918544769287109e+00 3.300443172454833984e+00 -5.835005640983581543e-01 1.000000000000000000e+01
-2.054544210433959961e+00 4.146117687225341797e+00 -5.681548714637756348e-01 1.000000000000000000e+01
-2.671556949615478960e+00 5.393630027770996094e+00 -5.265949964523315430e-01 1.100000000000000000e+01
-3.948301792144774947e+00 7.978261947631835938e+00 -4.665227234363555908e-01 1.000000000000000000e+00
-7.549676418304443359e+00 1.526889896392822088e+01 -2.973192036151885986e-01 2.000000000000000000e+00
-1.017406344413757102e+00 2.065822124481201172e+00 -6.170246005058288574e-01 1.800000000000000000e+01
-1.155490517616271973e+00 2.348266839981079102e+00 -6.042185425758361816e-01 1.200000000000000000e+01
-1.355175971984863059e+00 2.755295038223267046e+00 -5.968505144119262695e-01 1.100000000000000000e+01
-1.624810814857482910e+00 3.306420564651488814e+00 -5.835005640983581543e-01 1.000000000000000000e+01
-2.032335042953491211e+00 4.139364719390869141e+00 -5.662049651145935059e-01 1.000000000000000000e+01
-2.655281543731689009e+00 5.410540103912354404e+00 -5.272922515869140625e-01 1.100000000000000000e+01
-3.919033527374268022e+00 7.992679595947265625e+00 -4.665227234363555908e-01 1.000000000000000000e+00
-7.467269897460938388e+00 1.524259471893311080e+01 -2.962720394134520929e-01 2.000000000000000000e+00
-1.011884093284606934e+00 2.072833061218262163e+00 -6.180598735809326172e-01 1.800000000000000000e+01
-1.148995041847229004e+00 2.355788946151732954e+00 -6.051183342933654785e-01 1.300000000000000000e+01
-1.345549941062927024e+00 2.760008811950684038e+00 -5.968505144119262695e-01 1.100000000000000000e+01
-1.615854382514954057e+00 3.317399740219116211e+00 -5.844391584396362305e-01 1.000000000000000000e+01
-2.017873525619506836e+00 4.146433830261229581e+00 -5.662049651145935059e-01 1.000000000000000000e+01
-2.638122081756591797e+00 5.423358917236328125e+00 -5.276408791542053223e-01 1.100000000000000000e+01
-3.880633592605590820e+00 7.984755039215087891e+00 -4.652666449546813965e-01 1.000000000000000000e+00
-7.424499511718750000e+00 1.529015350341797053e+01 -2.966909110546112061e-01 2.000000000000000000e+00
-1.000314950942992942e+00 2.065569639205933061e+00 -6.149540543556213379e-01 1.800000000000000000e+01
-1.142437219619750977e+00 2.361141204833983931e+00 -6.055682301521301270e-01 1.200000000000000000e+01
-1.330034375190735085e+00 2.750083208084106001e+00 -5.937975645065307617e-01 1.300000000000000000e+01
-1.601986765861511008e+00 3.315345287322998047e+00 -5.831876993179321289e-01 1.000000000000000000e+01
-2.002248048782349077e+00 4.147389888763427734e+00 -5.654737353324890137e-01 1.000000000000000000e+01
-2.615875720977783203e+00 5.420853614807128906e+00 -5.265949964523315430e-01 1.100000000000000000e+01
-3.862468719482421875e+00 8.011299133300781250e+00 -4.661040306091309149e-01 1.000000000000000000e+00
-7.366013526916503906e+00 1.529178333282471058e+01 -2.962720394134520929e-01 2.000000000000000000e+00
-9.897549152374267578e-01 2.062082290649414062e+00 -6.128835082054138184e-01 1.900000000000000000e+01
-1.137558937072753906e+00 2.372143268585205078e+00 -6.073678731918334961e-01 1.300000000000000000e+01
-1.323821067810059038e+00 2.761790513992310014e+00 -5.953240394592285156e-01 1.100000000000000000e+01
-1.592963933944701926e+00 3.326261997222899947e+00 -5.841262936592102051e-01 1.000000000000000000e+01
-1.992899656295775923e+00 4.165097713470458984e+00 -5.669361948966979980e-01 8.000000000000000000e+00
-2.591779708862305132e+00 5.419167518615722656e+00 -5.255491137504577637e-01 1.100000000000000000e+01
-3.832758426666260210e+00 8.021128654479980469e+00 -4.658946692943572998e-01 1.000000000000000000e+00
-7.295360088348388672e+00 1.528131103515625000e+01 -2.955739498138427734e-01 2.000000000000000000e+00
-9.833807349205017090e-01 2.067269086837768999e+00 -6.134011149406433105e-01 2.000000000000000000e+01
-1.128435134887695090e+00 2.374339580535889116e+00 -6.069179177284240723e-01 1.300000000000000000e+01
-1.312487721443176047e+00 2.762848138809204102e+00 -5.945608019828796387e-01 1.100000000000000000e+01
-1.573720455169677956e+00 3.315741062164307085e+00 -5.813104510307312012e-01 9.000000000000000000e+00
-1.974946498870850053e+00 4.164854049682617188e+00 -5.659612417221069336e-01 8.000000000000000000e+00
-2.576261043548583984e+00 5.435382843017578125e+00 -5.262463688850402832e-01 1.100000000000000000e+01
-3.804736137390137163e+00 8.034459114074707031e+00 -4.658946692943572998e-01 1.000000000000000000e+00
-7.209475517272949219e+00 1.523799419403075994e+01 -2.942475676536560059e-01 2.000000000000000000e+00
-9.794536828994750977e-01 2.077678680419921875e+00 -6.154716610908508301e-01 2.000000000000000000e+01
-1.117649316787719949e+00 2.372975111007689986e+00 -6.055682301521301270e-01 1.300000000000000000e+01
-1.308689117431641069e+00 2.779846429824829102e+00 -5.972321629524230957e-01 1.200000000000000000e+01
-1.560455203056335005e+00 3.317639112472534180e+00 -5.806847214698791504e-01 9.000000000000000000e+00
-1.957019329071044922e+00 4.164536476135253906e+00 -5.649862885475158691e-01 8.000000000000000000e+00
-2.559813499450684038e+00 5.449752807617188388e+00 -5.267692804336547852e-01 1.100000000000000000e+01
-3.766485452651977983e+00 8.025994300842285156e+00 -4.646386206150054932e-01 1.000000000000000000e+00
-7.146054267883300781e+00 1.524134063720702947e+01 -2.938287258148192804e-01 2.000000000000000000e+00
-9.726493954658508301e-01 2.083005189895629883e+00 -6.159893274307250977e-01 1.900000000000000000e+01
-1.108944416046143022e+00 2.377055644989014116e+00 -6.055682301521301270e-01 1.300000000000000000e+01
-1.294343113899230957e+00 2.775727748870850053e+00 -5.953240394592285156e-01 1.100000000000000000e+01
-1.553290247917175071e+00 3.334079742431641069e+00 -5.825619697570800781e-01 1.000000000000000000e+01
-1.938391566276550071e+00 4.164482116699218750e+00 -5.640113353729248047e-01 1.000000000000000000e+01
-2.533938884735106978e+00 5.446453094482421875e+00 -5.255491137504577637e-01 1.100000000000000000e+01
-3.743778228759766069e+00 8.054234504699707031e+00 -4.654760062694550116e-01 1.000000000000000000e+00
-7.074983596801757812e+00 1.523478412628174006e+01 -2.932004332542418878e-01 2.000000000000000000e+00
-9.629387259483337402e-01 2.081127882003784180e+00 -6.144363880157470703e-01 1.900000000000000000e+01
-1.099004745483397993e+00 2.377374410629272017e+00 -6.046684384346008301e-01 1.300000000000000000e+01
-1.281352162361145020e+00 2.773100137710570845e+00 -5.937975645065307617e-01 1.200000000000000000e+01
-1.544126510620116965e+00 3.344861745834351030e+00 -5.835005640983581543e-01 1.000000000000000000e+01
-1.923011660575866921e+00 4.169420719146729404e+00 -5.637676119804382324e-01 1.000000000000000000e+01
-2.515745878219604048e+00 5.457074642181395596e+00 -5.257234573364257812e-01 1.100000000000000000e+01
-3.708956718444824219e+00 8.052741050720214844e+00 -4.646386206150054932e-01 1.000000000000000000e+00
-7.048510551452636719e+00 1.531751823425292969e+01 -2.943173944950103760e-01 2.000000000000000000e+00
-9.520050287246704102e-01 2.075529813766479048e+00 -6.118482351303100586e-01 1.900000000000000000e+01
-1.095174193382262962e+00 2.389863491058350053e+00 -6.069179177284240723e-01 1.300000000000000000e+01
-1.275419473648071067e+00 2.784473896026610884e+00 -5.953240394592285156e-01 1.200000000000000000e+01
-1.528094053268433061e+00 3.339186668395996094e+00 -5.816233158111572266e-01 1.000000000000000000e+01
-1.908349394798279031e+00 4.173969268798828125e+00 -5.635238289833068848e-01 8.000000000000000000e+00
-2.495151281356811968e+00 5.459950447082520419e+00 -5.252004861831665039e-01 1.100000000000000000e+01
-3.688868522644042969e+00 8.079530715942382812e+00 -4.654760062694550116e-01 1.000000000000000000e+00
-6.971120357513427734e+00 1.528258895874023082e+01 -2.932004332542418878e-01 2.000000000000000000e+00
-9.471521377563476562e-01 2.084116458892821822e+00 -6.134011149406433105e-01 1.900000000000000000e+01
-1.085214018821716087e+00 2.390123128890991211e+00 -6.060181260108947754e-01 1.200000000000000000e+01
-1.264880776405334029e+00 2.787121057510375977e+00 -5.949424505233764648e-01 1.200000000000000000e+01
-1.515613079071044922e+00 3.342701196670531782e+00 -5.813104510307312012e-01 1.000000000000000000e+01
-1.896225214004517046e+00 4.186029911041259766e+00 -5.642550587654113770e-01 1.000000000000000000e+01
-2.476077318191527876e+00 5.468626976013183594e+00 -5.252004861831665039e-01 9.000000000000000000e+00
-3.649118900299071822e+00 8.066882133483886719e+00 -4.640105962753295898e-01 1.000000000000000000e+00
-6.924320220947265625e+00 1.532140731811523082e+01 -2.934796810150145929e-01 2.000000000000000000e+00
-9.398714303970336914e-01 2.087409973144530806e+00 -6.134011149406433105e-01 2.000000000000000000e+01
-1.072067618370055930e+00 2.383233308792113814e+00 -6.033187508583068848e-01 1.100000000000000000e+01
-1.260779857635498047e+00 2.804053544998168945e+00 -5.976137518882751465e-01 1.100000000000000000e+01
-1.501507282257080078e+00 3.342565536499022993e+00 -5.803718566894531250e-01 1.000000000000000000e+01
-1.876724958419800027e+00 4.181756973266601562e+00 -5.627925992012023926e-01 1.000000000000000000e+01
-2.460234880447388139e+00 5.484508514404296875e+00 -5.258977413177490234e-01 9.000000000000000000e+00
-3.604601621627808061e+00 8.043118476867675781e+00 -4.619171619415283203e-01 1.000000000000000000e+00
-6.838109493255615234e+00 1.527248001098632990e+01 -2.920834720134735107e-01 2.000000000000000000e+00
-9.341532588005065918e-01 2.094206571578979048e+00 -6.144363880157470703e-01 1.900000000000000000e+01
-1.065328598022460938e+00 2.390521049499512163e+00 -6.042185425758361816e-01 1.300000000000000000e+01
-1.242995858192444070e+00 2.790503501892089844e+00 -5.937975645065307617e-01 1.100000000000000000e+01
-1.491436719894408958e+00 3.351395845413208008e+00 -5.809975862503051758e-01 1.000000000000000000e+01
-1.862116456031799094e+00 4.188282489776611328e+00 -5.627925992012023926e-01 1.000000000000000000e+01
-2.445121049880981001e+00 5.502166271209716797e+00 -5.267692804336547852e-01 9.000000000000000000e+00
-3.597575664520264116e+00 8.103113174438476562e+00 -4.646386206150054932e-01 1.000000000000000000e+00
-6.784756660461425781e+00 1.529625606536865057e+01 -2.920834720134735107e-01 2.000000000000000000e+00
-9.252758026123046875e-01 2.093920707702637163e+00 -6.134011149406433105e-01 2.000000000000000000e+01
-1.058551669120789018e+00 2.397790670394897017e+00 -6.051183342933654785e-01 1.100000000000000000e+01
-1.234040141105652078e+00 2.796621561050415039e+00 -5.941792130470275879e-01 1.200000000000000000e+01
-1.482119679450988992e+00 3.362004041671752930e+00 -5.819361805915832520e-01 1.000000000000000000e+01
-1.844284772872925027e+00 4.187490463256835938e+00 -5.618176460266113281e-01 1.000000000000000000e+01
-2.417872428894042969e+00 5.492432594299316406e+00 -5.250262022018432617e-01 9.000000000000000000e+00
-3.566052198410034180e+00 8.108308792114257812e+00 -4.642199277877808172e-01 1.000000000000000000e+00
-6.731321334838867188e+00 1.531984615325927912e+01 -2.920834720134735107e-01 2.000000000000000000e+00
-9.133130908012390137e-01 2.086519241333007812e+00 -6.102952957153320312e-01 2.000000000000000000e+01
-1.053298592567444070e+00 2.408612966537476030e+00 -6.069179177284240723e-01 1.300000000000000000e+01
-1.221911668777466042e+00 2.795515298843383789e+00 -5.930343866348266602e-01 1.200000000000000000e+01
-1.468003392219543013e+00 3.361726284027100053e+00 -5.809975862503051758e-01 1.100000000000000000e+01
-1.831243991851807085e+00 4.197541236877441406e+00 -5.623051524162292480e-01 1.000000000000000000e+01
-2.394703626632689986e+00 5.491707801818847656e+00 -5.241546630859375000e-01 8.000000000000000000e+00
-3.523368835449219194e+00 8.087748527526855469e+00 -4.623358249664307196e-01 1.000000000000000000e+00
-6.677803993225097656e+00 1.534324932098389027e+01 -2.920834720134735107e-01 2.000000000000000000e+00
-9.086952805519104004e-01 2.094853401184082031e+00 -6.118482351303100586e-01 2.100000000000000000e+01
-1.039106488227844016e+00 2.397788286209106001e+00 -6.033187508583068848e-01 1.200000000000000000e+01
-1.214195370674133079e+00 2.803154945373535156e+00 -5.937975645065307617e-01 1.100000000000000000e+01
-1.453709363937377930e+00 3.359324216842650923e+00 -5.797461271286010742e-01 1.000000000000000000e+01
-1.823616385459899902e+00 4.218167781829833984e+00 -5.642550587654113770e-01 1.000000000000000000e+01
-2.378850221633911133e+00 5.505105495452880859e+00 -5.246775746345520020e-01 8.000000000000000000e+00
-3.499696016311645952e+00 8.106722831726074219e+00 -4.627545177936553955e-01 1.000000000000000000e+00
-6.647477626800537109e+00 1.541305065155028942e+01 -2.929910123348236084e-01 2.000000000000000000e+00
-9.013773202896118164e-01 2.098012447357178178e+00 -6.118482351303100586e-01 2.100000000000000000e+01
-1.028424501419066939e+00 2.396028518676757812e+00 -6.019690036773681641e-01 1.200000000000000000e+01
-1.212917566299438032e+00 2.827222824096680132e+00 -5.979954004287719727e-01 1.200000000000000000e+01
-1.441974282264709029e+00 3.364378213882445845e+00 -5.797461271286010742e-01 1.000000000000000000e+01
-1.803411483764647993e+00 4.211733818054199219e+00 -5.625488758087158203e-01 8.000000000000000000e+00
-2.365890741348267046e+00 5.528028964996337891e+00 -5.260720849037170410e-01 6.000000000000000000e+00
-3.449391365051269975e+00 8.067468643188476562e+00 -4.598236978054047186e-01 1.000000000000000000e+00
-6.573212146759033203e+00 1.538834857940674006e+01 -2.920834720134735107e-01 2.000000000000000000e+00
-8.955611586570739746e-01 2.104701519012451172e+00 -6.128835082054138184e-01 2.100000000000000000e+01
-1.017767429351807085e+00 2.394223451614379883e+00 -6.006193161010742188e-01 1.200000000000000000e+01
-1.193060755729675071e+00 2.807949542999268022e+00 -5.930343866348266602e-01 1.100000000000000000e+01
-1.433309078216552956e+00 3.376664400100708008e+00 -5.809975862503051758e-01 1.000000000000000000e+01
-1.784048795700073020e+00 4.207037925720214844e+00 -5.610864758491516113e-01 8.000000000000000000e+00
-2.338804721832274947e+00 5.517909526824951172e+00 -5.243289470672607422e-01 9.000000000000000000e+00
-3.447688341140747070e+00 8.141992568969726562e+00 -4.633825421333312988e-01 1.000000000000000000e+00
-6.519456863403320312e+00 1.541119956970215021e+01 -2.920834720134735107e-01 2.000000000000000000e+00
-8.882089257240295410e-01 2.107814788818358931e+00 -6.128835082054138184e-01 2.100000000000000000e+01
-1.016208767890929954e+00 2.413926124572753906e+00 -6.046684384346008301e-01 1.300000000000000000e+01
-1.177160501480102983e+00 2.797620296478271040e+00 -5.899814367294311523e-01 1.100000000000000000e+01
-1.424575448036194070e+00 3.388931274414062944e+00 -5.822491049766540527e-01 1.000000000000000000e+01
-1.766278147697448953e+00 4.205918788909912109e+00 -5.601115226745605469e-01 8.000000000000000000e+00
-2.318758249282836914e+00 5.524202823638916016e+00 -5.241546630859375000e-01 9.000000000000000000e+00
-3.411522865295410156e+00 8.135558128356933594e+00 -4.623358249664307196e-01 1.000000000000000000e+00
-6.419262409210205078e+00 1.532319927215575994e+01 -2.899891734123229980e-01 2.000000000000000000e+00
-8.778700828552246094e-01 2.103770732879639116e+00 -6.108129620552062988e-01 2.100000000000000000e+01
-1.006276726722717063e+00 2.413861274719237837e+00 -6.037686467170715332e-01 1.300000000000000000e+01
-1.171918511390686035e+00 2.812585592269897017e+00 -5.922711491584777832e-01 1.100000000000000000e+01
-1.406664252281188965e+00 3.379293680191040039e+00 -5.797461271286010742e-01 1.100000000000000000e+01
-1.756159305572509988e+00 4.223056316375732422e+00 -5.615739226341247559e-01 8.000000000000000000e+00
-2.297931671142578125e+00 5.528583526611328125e+00 -5.238060355186462402e-01 9.000000000000000000e+00
-3.370848894119263139e+00 8.117904663085937500e+00 -4.606610834598541260e-01 1.000000000000000000e+00
-6.373397350311279297e+00 1.536398410797118963e+01 -2.903382480144500732e-01 2.000000000000000000e+00
-8.719966411590576172e-01 2.110393285751343218e+00 -6.118482351303100586e-01 2.100000000000000000e+01
-9.985882043838500977e-01 2.419160604476929155e+00 -6.042185425758361816e-01 1.200000000000000000e+01
-1.165088653564452903e+00 2.823918819427489790e+00 -5.937975645065307617e-01 1.100000000000000000e+01
-1.397117972373961958e+00 3.389662265777587891e+00 -5.806847214698791504e-01 1.100000000000000000e+01
-1.744430661201477051e+00 4.236502647399902344e+00 -5.625488758087158203e-01 8.000000000000000000e+00
-2.275586128234862837e+00 5.529201507568359375e+00 -5.231087803840637207e-01 8.000000000000000000e+00
-3.347048521041870117e+00 8.140705108642578125e+00 -4.612891077995299738e-01 1.000000000000000000e+00
-6.309091567993164062e+00 1.536024093627930043e+01 -2.898495793342589777e-01 2.000000000000000000e+00
-8.646246790885925293e-01 2.113424301147460938e+00 -6.118482351303100586e-01 2.100000000000000000e+01
-9.871886372566223145e-01 2.415416002273560014e+00 -6.024188995361328125e-01 1.200000000000000000e+01
-1.155966639518738015e+00 2.829785823822021040e+00 -5.941792130470275879e-01 1.200000000000000000e+01
-1.380052685737610085e+00 3.381716012954711914e+00 -5.784946680068969727e-01 1.100000000000000000e+01
-1.726634263992310014e+00 4.235213279724121094e+00 -5.615739226341247559e-01 8.000000000000000000e+00
-2.261534690856934038e+00 5.550026893615722656e+00 -5.243289470672607422e-01 8.000000000000000000e+00
-3.311081409454346147e+00 8.133839607238769531e+00 -4.602423906326293945e-01 1.000000000000000000e+00
-6.284061431884765625e+00 1.545256137847900035e+01 -2.911759614944458008e-01 2.000000000000000000e+00
-8.586926460266113281e-01 2.120010614395142046e+00 -6.128835082054138184e-01 2.100000000000000000e+01
-9.802131652832031250e-01 2.422460079193114790e+00 -6.033187508583068848e-01 1.100000000000000000e+01
-1.143873572349547896e+00 2.828343629837036133e+00 -5.930343866348266602e-01 1.100000000000000000e+01
-1.372679829597472922e+00 3.397501707077025923e+00 -5.803718566894531250e-01 1.000000000000000000e+01
-1.708868145942687988e+00 4.233851432800292969e+00 -5.605989694595336914e-01 1.000000000000000000e+01
-2.240656852722167969e+00 5.554191589355468750e+00 -5.239803194999694824e-01 6.000000000000000000e+00
-3.285655021667480025e+00 8.152758598327636719e+00 -4.606610834598541260e-01 1.000000000000000000e+00
-6.222615242004395419e+00 1.545585250854492010e+01 -2.908268868923187256e-01 2.000000000000000000e+00
-8.505682349205017090e-01 2.121201992034912109e+00 -6.123658418655395508e-01 1.900000000000000000e+01
-9.710265398025512695e-01 2.424057960510253906e+00 -6.028688549995422363e-01 1.300000000000000000e+01
-1.131804704666137917e+00 2.826851367950439009e+00 -5.918895006179809570e-01 1.000000000000000000e+01
-1.361545562744141069e+00 3.404106855392456055e+00 -5.806847214698791504e-01 9.000000000000000000e+00
-1.691869139671325906e+00 4.234260559082031250e+00 -5.598677396774291992e-01 1.000000000000000000e+01
-2.215343952178955078e+00 5.547176837921142578e+00 -5.225858092308044434e-01 8.000000000000000000e+00
-3.255696296691894975e+00 8.160467147827148438e+00 -4.604517519474030096e-01 1.000000000000000000e+00
-6.136050701141357422e+00 1.539574527740479049e+01 -2.892910838127136230e-01 2.000000000000000000e+00
-8.367441296577453613e-01 2.107997894287108931e+00 -6.077071428298950195e-01 2.100000000000000000e+01
-9.654324054718017578e-01 2.434678792953491211e+00 -6.046684384346008301e-01 1.300000000000000000e+01
-1.125547051429748979e+00 2.839910507202147993e+00 -5.937975645065307617e-01 1.200000000000000000e+01
-1.348200321197509988e+00 3.405165433883666992e+00 -5.800589919090270996e-01 9.000000000000000000e+00
-1.680729150772094949e+00 4.249370098114013672e+00 -5.610864758491516113e-01 8.000000000000000000e+00
-2.183515071868896040e+00 5.523377418518066406e+00 -5.196225643157958984e-01 9.000000000000000000e+00
-3.219855070114136186e+00 8.153205871582031250e+00 -4.594050347805023193e-01 1.000000000000000000e+00
-6.082272052764892578e+00 1.541707038879395064e+01 -2.892910838127136230e-01 2.000000000000000000e+00
-8.329130411148071289e-01 2.119896173477172852e+00 -6.102952957153320312e-01 2.000000000000000000e+01
-9.547919034957885742e-01 2.432591915130614790e+00 -6.033187508583068848e-01 1.100000000000000000e+01
-1.115627050399780051e+00 2.843822240829468218e+00 -5.937975645065307617e-01 1.100000000000000000e+01
-1.336305856704711914e+00 3.409850835800170898e+00 -5.800589919090270996e-01 9.000000000000000000e+00
-1.663714766502379927e+00 4.249665737152099609e+00 -5.603552460670471191e-01 1.000000000000000000e+01
-2.172207593917847124e+00 5.551374912261962891e+00 -5.215399861335754395e-01 1.100000000000000000e+01
-3.187012672424315962e+00 8.153234481811523438e+00 -4.587769806385039728e-01 1.000000000000000000e+00
-6.013872146606445312e+00 1.540095329284667969e+01 -2.885929942131041925e-01 2.000000000000000000e+00
-8.262082934379577637e-01 2.124591112136840820e+00 -6.108129620552062988e-01 2.100000000000000000e+01
-9.448834657669067383e-01 2.432276964187622070e+00 -6.024188995361328125e-01 1.100000000000000000e+01
-1.106404066085814986e+00 2.849529266357421875e+00 -5.941792130470275879e-01 1.000000000000000000e+01
-1.320823431015015093e+00 3.405286073684691939e+00 -5.784946680068969727e-01 1.000000000000000000e+01
-1.646001696586609109e+00 4.248043537139892578e+00 -5.593802928924560547e-01 1.000000000000000000e+01
-2.155694723129272017e+00 5.566355228424072266e+00 -5.222371816635131836e-01 1.300000000000000000e+01
-3.168622016906737837e+00 8.190387725830078125e+00 -4.602423906326293945e-01 1.000000000000000000e+00
-5.960076332092285156e+00 1.542185115814208984e+01 -2.885929942131041925e-01 2.000000000000000000e+00
-8.180931806564331055e-01 2.125659227371215820e+00 -6.102952957153320312e-01 1.800000000000000000e+01
-9.349888563156127930e-01 2.431922435760498047e+00 -6.015191078186035156e-01 1.200000000000000000e+01
-1.094337940216064009e+00 2.847876071929932085e+00 -5.930343866348266602e-01 1.100000000000000000e+01
-1.311760306358336958e+00 3.417252540588378906e+00 -5.797461271286010742e-01 1.000000000000000000e+01
-1.634006261825561968e+00 4.261177062988281250e+00 -5.603552460670471191e-01 1.000000000000000000e+01
-2.138390302658081055e+00 5.579427719116210938e+00 -5.227601528167724609e-01 1.300000000000000000e+01
-3.125730276107788086e+00 8.164093971252441406e+00 -4.581489562988281250e-01 1.000000000000000000e+00
-5.870490550994873047e+00 1.534917449951172053e+01 -2.868477404117584229e-01 2.000000000000000000e+00
-8.092930912971496582e-01 2.124891281127930132e+00 -6.092600226402282715e-01 1.900000000000000000e+01
-9.292659759521484375e-01 2.442456722259521040e+00 -6.033187508583068848e-01 1.200000000000000000e+01
-1.080901384353637917e+00 2.842503547668457031e+00 -5.911262631416320801e-01 1.200000000000000000e+01
-1.299122452735901101e+00 3.419964075088500977e+00 -5.794332623481750488e-01 9.000000000000000000e+00
-1.613487839698791948e+00 4.252007007598876953e+00 -5.584053397178649902e-01 1.000000000000000000e+01
-2.113249301910399947e+00 5.571954727172851562e+00 -5.213656425476074219e-01 1.100000000000000000e+01
-3.101459026336669922e+00 8.186161041259765625e+00 -4.587769806385039728e-01 1.000000000000000000e+00
-5.795641422271729404e+00 1.531346607208251953e+01 -2.858006060123444159e-01 2.000000000000000000e+00
-8.005678057670593262e-01 2.122000694274901900e+00 -6.077071428298950195e-01 2.100000000000000000e+01
-9.243371486663818359e-01 2.452658176422119141e+00 -6.051183342933654785e-01 1.300000000000000000e+01
-1.071966052055359109e+00 2.845885276794434038e+00 -5.911262631416320801e-01 1.000000000000000000e+01
-1.291850209236145020e+00 3.433272600173950195e+00 -5.809975862503051758e-01 1.000000000000000000e+01
-1.604312419891356978e+00 4.268204212188720703e+00 -5.598677396774291992e-01 1.000000000000000000e+01
-2.090829372406005859e+00 5.565510272979736328e+00 -5.201454758644104004e-01 1.100000000000000000e+01
-3.081340074539185014e+00 8.210823059082031250e+00 -4.596143662929534912e-01 1.000000000000000000e+00
-5.758735179901123047e+00 1.536155700683593928e+01 -2.863590717315673828e-01 2.000000000000000000e+00
-7.951825857162475586e-01 2.130211830139160156e+00 -6.092600226402282715e-01 2.000000000000000000e+01
-9.123657941818237305e-01 2.446740150451660156e+00 -6.028688549995422363e-01 1.200000000000000000e+01
-1.063396692276000977e+00 2.853289127349853960e+00 -5.918895006179809570e-01 1.100000000000000000e+01
-1.273655176162719949e+00 3.421099901199340820e+00 -5.781818032264709473e-01 9.000000000000000000e+00
-1.590095758438109907e+00 4.275638580322265625e+00 -5.601115226745605469e-01 1.100000000000000000e+01
-2.073471784591674805e+00 5.578377246856688565e+00 -5.206683874130249023e-01 9.000000000000000000e+00
-3.048488855361938032e+00 8.210294723510742188e+00 -4.589863419532775879e-01 1.000000000000000000e+00
-5.680043697357177734e+00 1.531406879425049006e+01 -2.851025164127349854e-01 2.000000000000000000e+00
-7.867006659507751465e-01 2.131299734115601030e+00 -6.087424159049987793e-01 2.200000000000000000e+01
-8.986727595329284668e-01 2.437268972396851030e+00 -5.997195243835449219e-01 1.100000000000000000e+01
-1.057005047798156960e+00 2.868220329284667969e+00 -5.941792130470275879e-01 1.100000000000000000e+01
-1.262472510337830034e+00 3.429452657699584961e+00 -5.788075327873229980e-01 9.000000000000000000e+00
-1.572358727455138938e+00 4.275848865509033203e+00 -5.593802928924560547e-01 1.000000000000000000e+01
-2.047513484954833984e+00 5.570979118347167969e+00 -5.192739367485046387e-01 9.000000000000000000e+00
