-4.123352050781250000e+00 -1.011405658721924006e+01 -9.555755853652954102e-01 2.000000000000000000e+00
-1.018243789672851918e+01 -2.495130157470703125e+01 -1.412338137626647949e+00 1.200000000000000000e+01
-1.045333623886107954e+00 -2.548786640167235884e+00 -7.381519079208374023e-01 1.100000000000000000e+01
-1.229290723800658958e+00 -2.994343042373656782e+00 -7.472873926162719727e-01 1.200000000000000000e+01
-1.474683761596679910e+00 -3.590294599533081055e+00 -7.544587850570678711e-01 9.000000000000000000e+00
-1.876406311988831010e+00 -4.563803195953369141e+00 -7.815465927124023438e-01 1.000000000000000000e+01
-2.234009981155395952e+00 -5.428179740905761719e+00 -7.207353115081787109e-01 1.800000000000000000e+01
-1.030448246002197088e+01 -2.500054740905762074e+01 -1.417153000831604004e+00 1.200000000000000000e+01
-1.047570586204529031e+00 -2.529058933258057085e+00 -7.334931492805480957e-01 1.100000000000000000e+01
-1.242720961570739968e+00 -2.997234344482421875e+00 -7.490870356559753418e-01 1.100000000000000000e+01
-1.489463925361633079e+00 -3.590565443038939986e+00 -7.556036114692687988e-01 8.000000000000000000e+00
-1.883235096931457964e+00 -4.535333156585693359e+00 -7.777921557426452637e-01 1.000000000000000000e+01
-2.254467964172362837e+00 -5.424014568328857422e+00 -7.212227582931518555e-01 1.800000000000000000e+01
-4.137248992919921875e+00 -9.948888778686523438e+00 -9.426764845848083496e-01 2.000000000000000000e+00
-1.040243339538574041e+01 -2.499024009704589844e+01 -1.418618440628051980e+00 1.200000000000000000e+01
-1.059374332427978960e+00 -2.532515764236450195e+00 -7.355637550354003906e-01 1.200000000000000000e+01
-1.247154474258423074e+00 -2.978497982025146040e+00 -7.454878091812133789e-01 1.100000000000000000e+01
-1.506539821624756081e+00 -3.596209049224853960e+00 -7.578933238983154297e-01 9.000000000000000000e+00
-1.897527098655700906e+00 -4.525088787078857422e+00 -7.771664261817932129e-01 1.200000000000000000e+01
-2.269546270370482954e+00 -5.406960010528563565e+00 -7.200040817260742188e-01 2.400000000000000000e+01
-4.179666042327880859e+00 -9.952755928039550781e+00 -9.444196224212646484e-01 2.000000000000000000e+00
-1.051436901092528942e+01 -2.501269531250000000e+01 -1.421967983245850053e+00 1.300000000000000000e+01
-1.069711446762084961e+00 -2.532361507415771040e+00 -7.365990281105041504e-01 1.200000000000000000e+01
-1.254508018493651900e+00 -2.966946840286254883e+00 -7.436881661415100098e-01 1.100000000000000000e+01
-1.512199640274048074e+00 -3.574655294418334961e+00 -7.544587850570678711e-01 9.000000000000000000e+00
-1.911770582199096902e+00 -4.514799594879150391e+00 -7.765406966209411621e-01 1.300000000000000000e+01
-2.289180755615233931e+00 -5.400832653045654297e+00 -7.202478051185607910e-01 1.600000000000000000e+01
-4.186379432678222656e+00 -9.872072219848632812e+00 -9.381443858146667480e-01 2.000000000000000000e+00
-1.060785865783691051e+01 -2.499054908752441051e+01 -1.422805309295654075e+00 1.300000000000000000e+01
-1.080818295478821023e+00 -2.533943176269530806e+00 -7.381519079208374023e-01 1.300000000000000000e+01
-1.267917752265929954e+00 -2.969718694686890093e+00 -7.454878091812133789e-01 1.100000000000000000e+01
-1.525439500808716042e+00 -3.571160316467285156e+00 -7.548403739929199219e-01 9.000000000000000000e+00
-1.928295135498047097e+00 -4.509914875030517578e+00 -7.768535614013671875e-01 1.600000000000000000e+01
-2.293960332870482954e+00 -5.359959602355957031e+00 -7.158605456352233887e-01 2.200000000000000000e+01
-4.192581176757813388e+00 -9.791462898254394531e+00 -9.318692088127136230e-01 2.000000000000000000e+00
-1.071548461914063033e+01 -2.500109863281250000e+01 -1.425526738166809082e+00 1.300000000000000000e+01
-1.087246537208556907e+00 -2.526985883712768999e+00 -7.371166348457336426e-01 1.300000000000000000e+01
-1.279553532600403054e+00 -2.971090078353881836e+00 -7.468374967575073242e-01 1.200000000000000000e+01
-1.537428021430969016e+00 -3.568153381347655806e+00 -7.552220225334167480e-01 9.000000000000000000e+00
-1.949494600296020952e+00 -4.520159721374511719e+00 -7.796693444252014160e-01 1.300000000000000000e+01
-2.306853771209716797e+00 -5.343613624572753906e+00 -7.146418094635009766e-01 3.100000000000000000e+01
-4.196461200714111328e+00 -9.716054916381835938e+00 -9.259425997734069824e-01 2.000000000000000000e+00
-1.081299591064452947e+01 -2.501131057739258168e+01 -1.428038954734802024e+00 1.300000000000000000e+01
-1.092212200164794922e+00 -2.514315843582152876e+00 -7.345284223556518555e-01 1.200000000000000000e+01
-1.289139747619628906e+00 -2.964818477630614790e+00 -7.463876008987426758e-01 1.100000000000000000e+01
-1.551440119743346946e+00 -3.566365718841553178e+00 -7.559852600097656250e-01 9.000000000000000000e+00
-1.955797553062438965e+00 -4.491593360900878906e+00 -7.759149670600891113e-01 2.800000000000000000e+01
-2.324699401855469194e+00 -5.333709239959716797e+00 -7.143980860710144043e-01 2.800000000000000000e+01
-4.206459999084472656e+00 -9.646557807922363281e+00 -9.207132458686828613e-01 2.000000000000000000e+00
-1.090023612976074041e+01 -2.497341346740723012e+01 -1.428038954734802024e+00 1.300000000000000000e+01
-1.102196574211121050e+00 -2.512064933776855025e+00 -7.350460886955261230e-01 1.400000000000000000e+01
-1.299997687339782937e+00 -2.960073471069335938e+00 -7.463876008987426758e-01 1.100000000000000000e+01
-1.564501047134398970e+00 -3.560655355453491211e+00 -7.559852600097656250e-01 9.000000000000000000e+00
-1.966680049896240012e+00 -4.471737384796142578e+00 -7.737248539924621582e-01 2.400000000000000000e+01
-2.349031686782836914e+00 -5.336053848266601562e+00 -7.158605456352233887e-01 2.600000000000000000e+01
-4.248212814331054688e+00 -9.645662307739257812e+00 -9.221077561378479004e-01 2.000000000000000000e+00
-1.100297451019286932e+01 -2.495887947082519887e+01 -1.429504275321960005e+00 1.300000000000000000e+01
-1.114870309829711914e+00 -2.517033815383911133e+00 -7.376343011856079102e-01 1.400000000000000000e+01
-1.305583357810973899e+00 -2.944828748703002930e+00 -7.436881661415100098e-01 1.100000000000000000e+01
-1.578512549400330034e+00 -3.558761835098267046e+00 -7.567484974861145020e-01 9.000000000000000000e+00
-1.983078956604003906e+00 -4.466650485992431641e+00 -7.740377187728881836e-01 2.200000000000000000e+01
-2.365225076675415039e+00 -5.322379589080811435e+00 -7.151293158531188965e-01 2.200000000000000000e+01
-4.304520130157470703e+00 -9.681750297546386719e+00 -9.269884824752807617e-01 2.000000000000000000e+00
-1.109977436065674006e+01 -2.494221687316894887e+01 -1.430760383605957031e+00 1.300000000000000000e+01
-1.125575661659240945e+00 -2.518614292144774947e+00 -7.391871809959411621e-01 1.300000000000000000e+01
-1.316933035850524902e+00 -2.944040775299071822e+00 -7.445880174636840820e-01 1.200000000000000000e+01
-1.588701248168945090e+00 -3.549923658370972124e+00 -7.559852600097656250e-01 9.000000000000000000e+00
-2.001110076904296875e+00 -4.467260837554931641e+00 -7.752892374992370605e-01 1.800000000000000000e+01
-2.373928070068358931e+00 -5.294581890106201172e+00 -7.124481797218322754e-01 1.600000000000000000e+01
-4.307245731353759766e+00 -9.601980209350585938e+00 -9.207132458686828613e-01 2.000000000000000000e+00
-9.996199607849121094e+00 -2.226333427429198863e+01 -1.278986096382140891e+00 1.000000000000000000e+01
-1.132771730422974077e+00 -2.511147975921630859e+00 -7.381519079208374023e-01 1.200000000000000000e+01
-1.329607486724853960e+00 -2.944754123687744141e+00 -7.459377050399780273e-01 1.300000000000000000e+01
-1.600274920463562012e+00 -3.542567253112792969e+00 -7.556036114692687988e-01 9.000000000000000000e+00
-2.017505407333374023e+00 -4.462048530578613281e+00 -7.756021022796630859e-01 1.600000000000000000e+01
-2.393213748931885210e+00 -5.288071632385253906e+00 -7.126919031143188477e-01 1.600000000000000000e+01
-4.294716358184813565e+00 -9.485245704650878906e+00 -9.109518527984619141e-01 2.000000000000000000e+00
-1.136362195014954057e+00 -2.494673013687133789e+00 -7.345284223556518555e-01 1.200000000000000000e+01
-1.344433784484863059e+00 -2.948726892471313032e+00 -7.481871843338012695e-01 1.200000000000000000e+01
-1.612433552742003950e+00 -3.534892082214355025e+00 -7.552220225334167480e-01 1.000000000000000000e+01
-2.029743909835814986e+00 -4.445639133453369141e+00 -7.740377187728881836e-01 1.600000000000000000e+01
-2.409278869628905806e+00 -5.272042751312255859e+00 -7.117169499397277832e-01 1.800000000000000000e+01
-4.321167945861816406e+00 -9.451320648193359375e+00 -9.092087149620056152e-01 2.000000000000000000e+00
-1.147484183311461958e+00 -2.495956897735596147e+00 -7.360813617706298828e-01 1.200000000000000000e+01
-1.351460099220276101e+00 -2.936934709548950195e+00 -7.463876008987426758e-01 1.100000000000000000e+01
-1.628046751022339089e+00 -3.536375522613524947e+00 -7.567484974861145020e-01 1.000000000000000000e+01
-1.367692756652832031e+01 -2.969480705261230113e+01 2.860277175903319868e+00 3.400000000000000000e+01
-2.046076536178588867e+00 -4.440320968627929688e+00 -7.743505835533142090e-01 1.600000000000000000e+01
-2.419353246688843218e+00 -5.245574474334716797e+00 -7.092795968055725098e-01 1.600000000000000000e+01
-4.075321674346923828e+00 -8.831946372985839844e+00 -8.509886860847473145e-01 1.000000000000000000e+00
-1.160631299018860085e+00 -2.502653360366820845e+00 -7.391871809959411621e-01 1.300000000000000000e+01
-1.357909917831420898e+00 -2.925366640090941939e+00 -7.445880174636840820e-01 1.100000000000000000e+01
-1.635630369186400923e+00 -3.522054195404053178e+00 -7.548403739929199219e-01 1.000000000000000000e+01
-2.062455177307128906e+00 -4.437094211578369141e+00 -7.749763131141662598e-01 1.900000000000000000e+01
-2.435060024261475053e+00 -5.233922958374023438e+00 -7.087920904159545898e-01 1.600000000000000000e+01
-4.356814861297607422e+00 -9.360274314880371094e+00 -9.032821059226989746e-01 2.000000000000000000e+00
-1.170997858047484907e+00 -2.502086162567139116e+00 -7.402224540710449219e-01 1.300000000000000000e+01
-1.368939757347106934e+00 -2.922373533248900923e+00 -7.450379133224487305e-01 1.200000000000000000e+01
-1.652080178260803001e+00 -3.525211811065673828e+00 -7.567484974861145020e-01 1.000000000000000000e+01
-2.085480928421020952e+00 -4.445963859558104581e+00 -7.777921557426452637e-01 1.600000000000000000e+01
-1.410131740570068004e+01 -3.004846191406250000e+01 4.075554370880126953e+00 1.700000000000000000e+01
-2.448253154754639116e+00 -5.214610099792479581e+00 -7.073296904563903809e-01 2.000000000000000000e+01
-4.389461517333984375e+00 -9.345009803771972656e+00 -9.032821059226989746e-01 2.000000000000000000e+00
-1.177249670028686968e+00 -2.492742776870727983e+00 -7.386695742607116699e-01 1.500000000000000000e+01
-1.379965186119080034e+00 -2.919338941574097124e+00 -7.454878091812133789e-01 1.100000000000000000e+01
-1.654303550720215066e+00 -3.498126029968262163e+00 -7.521690726280212402e-01 1.000000000000000000e+01
-2.104367971420288086e+00 -4.445798873901367188e+00 -7.790436148643493652e-01 1.800000000000000000e+01
-2.440093517303466797e+00 -5.150419712066650391e+00 -6.997737884521484375e-01 1.700000000000000000e+01
-4.362320423126220703e+00 -9.203602790832519531e+00 -8.910803198814392090e-01 1.000000000000000000e+00
-1.181788444519042969e+00 -2.479898452758789062e+00 -7.360813617706298828e-01 1.500000000000000000e+01
-1.391825079917907937e+00 -2.918021917343140093e+00 -7.463876008987426758e-01 1.100000000000000000e+01
-1.672422885894774947e+00 -3.504733085632324219e+00 -7.548403739929199219e-01 9.000000000000000000e+00
-2.118171215057373047e+00 -4.434861183166503906e+00 -7.784178853034973145e-01 1.300000000000000000e+01
-1.409678649902343928e+01 -2.950150489807128906e+01 4.014619827270507812e+00 1.600000000000000000e+01
-2.472611665725708008e+00 -5.172317504882813388e+00 -7.039173245429992676e-01 1.600000000000000000e+01
-4.454594612121582031e+00 -9.314137458801269531e+00 -9.032821059226989746e-01 2.000000000000000000e+00
-1.191707253456115945e+00 -2.477291107177733931e+00 -7.365990281105041504e-01 1.400000000000000000e+01
-1.400820016860961914e+00 -2.909389495849608931e+00 -7.454878091812133789e-01 1.300000000000000000e+01
-1.684405088424683061e+00 -3.496811151504517046e+00 -7.544587850570678711e-01 1.100000000000000000e+01
-2.128406524658203125e+00 -4.414612293243408203e+00 -7.762278318405151367e-01 1.200000000000000000e+01
-1.411340427398681996e+01 -2.926011466979980113e+01 3.988783597946166992e+00 1.600000000000000000e+01
-2.497591733932495117e+00 -5.175734996795654297e+00 -7.056235074996948242e-01 2.000000000000000000e+01
-2.931256294250487837e+00 -6.071705818176270419e+00 -5.898700952529907227e-01 1.000000000000000000e+00
-1.212801074981688920e+01 -2.509917259216308949e+01 -1.460905909538269043e+00 1.300000000000000000e+01
-1.203721523284912109e+00 -2.480068206787108931e+00 -7.386695742607116699e-01 1.500000000000000000e+01
-1.405858039855957031e+00 -2.893964767456055132e+00 -7.427883744239807129e-01 1.200000000000000000e+01
-1.700891852378844993e+00 -3.499738931655883789e+00 -7.563668489456176758e-01 1.100000000000000000e+01
-2.146395683288574219e+00 -4.412484645843505859e+00 -7.771664261817932129e-01 1.300000000000000000e+01
-1.419460773468017933e+01 -2.916783332824707031e+01 3.982933998107910156e+00 1.600000000000000000e+01
-2.521725893020629883e+00 -5.179478645324707031e+00 -7.073296904563903809e-01 2.000000000000000000e+01
-4.451333045959472656e+00 -9.138727188110351562e+00 -8.893371820449829102e-01 1.000000000000000000e+00
-1.215953445434569957e+01 -2.494178771972655895e+01 -1.454206824302672896e+00 1.300000000000000000e+01
-1.214070439338684082e+00 -2.479321241378784180e+00 -7.397048473358154297e-01 1.500000000000000000e+01
-1.417666554450988992e+00 -2.892539501190185991e+00 -7.436881661415100098e-01 1.100000000000000000e+01
-1.709640502929687944e+00 -3.486729383468627930e+00 -7.548403739929199219e-01 1.200000000000000000e+01
-2.162655353546143022e+00 -4.406738758087158203e+00 -7.774792909622192383e-01 1.300000000000000000e+01
-2.524036884307860884e+00 -5.138573169708251953e+00 -7.029423713684082031e-01 1.600000000000000000e+01
-1.438383007049561080e+01 -2.928339195251464844e+01 5.167343139648438388e+00 1.300000000000000000e+01
-4.499022960662841797e+00 -9.155320167541503906e+00 -8.924748301506042480e-01 2.000000000000000000e+00
-1.221831607818604049e+01 -2.484184074401855113e+01 -1.450857400894165039e+00 1.300000000000000000e+01
-1.221006155014038086e+00 -2.471604108810424805e+00 -7.386695742607116699e-01 1.300000000000000000e+01
-1.432073473930359109e+00 -2.896307706832886186e+00 -7.459377050399780273e-01 1.200000000000000000e+01
-1.716578245162964089e+00 -3.470181941986083984e+00 -7.525506615638732910e-01 1.200000000000000000e+01
-2.177148103713988814e+00 -4.397392749786376953e+00 -7.771664261817932129e-01 1.300000000000000000e+01
-2.560467958450316939e+00 -5.167083740234375000e+00 -7.080608606338500977e-01 2.200000000000000000e+01
-1.439103984832764027e+01 -2.902871513366698863e+01 5.131676197052001953e+00 1.200000000000000000e+01
-4.515024662017822266e+00 -9.107428550720214844e+00 -8.893371820449829102e-01 1.000000000000000000e+00
-1.231738376617431996e+01 -2.482408714294433949e+01 -1.452322840690613015e+00 1.300000000000000000e+01
-1.457448673248291016e+01 -2.934725189208984020e+01 -5.719502568244934082e-01 5.000000000000000000e+00
-1.223594427108765093e+00 -2.455223798751831055e+00 -7.350460886955261230e-01 1.200000000000000000e+01
-1.445654034614562988e+00 -2.898266553878784180e+00 -7.477372884750366211e-01 1.300000000000000000e+01
-1.726927757263184038e+00 -3.460655450820922852e+00 -7.517874240875244141e-01 1.200000000000000000e+01
-1.424872207641601918e+01 -2.854108047485351918e+01 2.790901184082030806e+00 3.200000000000000000e+01
-2.192484617233275923e+00 -4.389766216278076172e+00 -7.771664261817932129e-01 1.300000000000000000e+01
-1.458444881439208984e+01 -2.918806266784667969e+01 4.006332874298095703e+00 1.600000000000000000e+01
-2.571388006210327148e+00 -5.143909931182861328e+00 -7.061109542846679688e-01 2.800000000000000000e+01
-4.521834850311279297e+00 -9.041717529296875000e+00 -8.844564557075500488e-01 1.000000000000000000e+00
-1.244329643249512074e+01 -2.485952568054198863e+01 -1.456928372383117898e+00 1.300000000000000000e+01
-1.233892798423767090e+00 -2.454389810562133789e+00 -7.360813617706298828e-01 1.100000000000000000e+01
-1.451382517814636008e+00 -2.884498596191405806e+00 -7.454878091812133789e-01 1.200000000000000000e+01
-1.453190898895264027e+01 -2.886837577819823863e+01 1.693800926208496094e+00 1.700000000000000000e+01
-1.746059060096740945e+00 -3.468635082244873047e+00 -7.548403739929199219e-01 1.100000000000000000e+01
-1.439306926727294922e+01 -2.858014297485351918e+01 2.799616813659667969e+00 3.200000000000000000e+01
-2.202461481094359907e+00 -4.371501445770263672e+00 -7.752892374992370605e-01 1.300000000000000000e+01
-1.409833049774169922e+01 -2.797057533264160156e+01 3.845952749252318892e+00 1.600000000000000000e+01
-2.592903137207030806e+00 -5.141992568969726562e+00 -7.070859074592590332e-01 2.800000000000000000e+01
-1.478374767303466975e+01 -2.930496406555176137e+01 5.198630332946777344e+00 1.300000000000000000e+01
-4.551574230194091797e+00 -9.022320747375488281e+00 -8.841078281402587891e-01 1.000000000000000000e+00
-1.254800033569335938e+01 -2.485159683227539062e+01 -1.459021806716918945e+00 1.300000000000000000e+01
-1.245518803596497026e+00 -2.457176923751831055e+00 -7.381519079208374023e-01 1.300000000000000000e+01
-1.455649852752685991e+00 -2.869242668151855025e+00 -7.427883744239807129e-01 1.200000000000000000e+01
-1.469987487792968928e+01 -2.896250724792480113e+01 1.702174663543700950e+00 1.700000000000000000e+01
-1.756663322448730025e+00 -3.461075305938721147e+00 -7.544587850570678711e-01 1.000000000000000000e+01
-1.453286743164063033e+01 -2.862108230590819957e+01 2.808332443237305132e+00 3.300000000000000000e+01
-2.217840433120727983e+00 -4.365935325622558594e+00 -7.756021022796630859e-01 1.200000000000000000e+01
-1.423057842254639027e+01 -2.800153541564941051e+01 3.856677293777465820e+00 1.600000000000000000e+01
-2.614438772201538086e+00 -5.142213344573974609e+00 -7.083046436309814453e-01 2.400000000000000000e+01
-1.487215805053710938e+01 -2.925133132934569957e+01 5.197378635406494141e+00 1.300000000000000000e+01
-4.579661369323729581e+00 -9.003624916076660156e+00 -8.837592601776123047e-01 1.000000000000000000e+00
-1.261221981048583984e+01 -2.477425003051758168e+01 -1.456928372383117898e+00 1.300000000000000000e+01
-1.256726622581481934e+00 -2.457974433898925781e+00 -7.397048473358154297e-01 1.300000000000000000e+01
-1.469207406044005904e+00 -2.871083021163939986e+00 -7.445880174636840820e-01 1.200000000000000000e+01
-1.480998516082764027e+01 -2.892879676818848012e+01 1.703221321105957031e+00 1.700000000000000000e+01
-1.767839312553405984e+00 -3.453174829483031782e+00 -7.540771365165710449e-01 1.000000000000000000e+01
-2.236670017242432085e+00 -4.365199089050292969e+00 -7.768535614013671875e-01 1.300000000000000000e+01
-2.637807369232178178e+00 -5.143654346466063565e+00 -7.097670435905456543e-01 3.100000000000000000e+01
-1.484040546417235973e+01 -2.892596054077148082e+01 5.149196624755859375e+00 1.300000000000000000e+01
-4.621975898742675781e+00 -9.008856773376464844e+00 -8.858509659767150879e-01 1.000000000000000000e+00
-1.273146533966063920e+01 -2.479403686523437855e+01 -1.460696578025818093e+00 1.300000000000000000e+01
-1.264841437339782937e+00 -2.451635122299193892e+00 -7.391871809959411621e-01 1.400000000000000000e+01
-1.479720592498779075e+00 -2.865678787231444868e+00 -7.445880174636840820e-01 1.200000000000000000e+01
-1.772374510765075906e+00 -3.430973768234252930e+00 -7.506425976753234863e-01 1.000000000000000000e+01
-2.258097648620605025e+00 -4.367500305175781250e+00 -7.787307500839233398e-01 1.300000000000000000e+01
-2.672151327133179155e+00 -5.163923263549804688e+00 -7.139106392860412598e-01 2.000000000000000000e+01
-1.493039131164550959e+01 -2.885292816162109020e+01 5.145442485809326172e+00 1.300000000000000000e+01
-4.654963970184326172e+00 -8.991855621337890625e+00 -8.858509659767150879e-01 1.000000000000000000e+00
-1.284063148498534979e+01 -2.478267478942871094e+01 -1.462790012359618919e+00 1.300000000000000000e+01
-1.268041133880615012e+00 -2.436922550201416016e+00 -7.360813617706298828e-01 1.300000000000000000e+01
-1.493315219879149947e+00 -2.867409944534302202e+00 -7.463876008987426758e-01 1.200000000000000000e+01
-1.791597127914428933e+00 -3.438694953918457031e+00 -7.536955475807189941e-01 1.000000000000000000e+01
-2.268762588500977007e+00 -4.350833415985107422e+00 -7.771664261817932129e-01 1.500000000000000000e+01
-1.514488220214843928e+01 -2.903116416931151988e+01 4.020469665527343750e+00 1.600000000000000000e+01
-2.665362358093262163e+00 -5.107048511505126953e+00 -7.073296904563903809e-01 1.800000000000000000e+01
-1.520466899871825994e+01 -2.913336944580078125e+01 5.204887390136718750e+00 1.300000000000000000e+01
-4.686323165893554688e+00 -8.975552558898925781e+00 -8.858509659767150879e-01 1.000000000000000000e+00
-1.297701168060302912e+01 -2.483328819274901988e+01 -1.468442201614380105e+00 1.300000000000000000e+01
-1.280130624771117942e+00 -2.439323902130126953e+00 -7.381519079208374023e-01 1.400000000000000000e+01
-1.501502990722656028e+00 -2.858729124069213867e+00 -7.454878091812133789e-01 1.300000000000000000e+01
-1.514685916900634943e+01 -2.882606315612792969e+01 1.706570863723755105e+00 1.700000000000000000e+01
-1.806329131126404031e+00 -3.437633991241455078e+00 -7.548403739929199219e-01 9.000000000000000000e+00
-2.283016443252563032e+00 -4.341139316558837891e+00 -7.768535614013671875e-01 1.600000000000000000e+01
-1.515369892120360973e+01 -2.880244255065917969e+01 3.996095657348632812e+00 1.600000000000000000e+01
-2.636018753051757812e+00 -5.008125782012938565e+00 -6.948990225791931152e-01 2.900000000000000000e+01
-1.531502723693848012e+01 -2.908443641662598012e+01 5.206139087677001953e+00 1.300000000000000000e+01
-4.680492877960205078e+00 -8.888622283935546875e+00 -8.788785338401794434e-01 1.000000000000000000e+00
-1.307292842864990057e+01 -2.480550765991210938e+01 -1.469488978385925071e+00 1.300000000000000000e+01
-1.290445089340209961e+00 -2.438255548477172852e+00 -7.391871809959411621e-01 1.400000000000000000e+01
-1.508736133575439009e+00 -2.848304510116577148e+00 -7.441380620002746582e-01 1.300000000000000000e+01
-1.524177837371825994e+01 -2.876242637634276988e+01 1.705942869186400923e+00 1.700000000000000000e+01
-1.821994781494141069e+00 -3.438246726989746094e+00 -7.563668489456176758e-01 9.000000000000000000e+00
-2.298156023025513139e+00 -4.333143711090087891e+00 -7.768535614013671875e-01 1.600000000000000000e+01
-1.523181533813476918e+01 -2.870728683471680043e+01 3.990246057510375977e+00 1.600000000000000000e+01
-2.672098636627196822e+00 -5.033961772918701172e+00 -6.997737884521484375e-01 2.900000000000000000e+01
-3.236931085586547852e+00 -6.095479488372802734e+00 -6.038149595260620117e-01 1.000000000000000000e+00
-1.315943622589110973e+01 -2.475972366333008168e+01 -1.469488978385925071e+00 1.300000000000000000e+01
-1.300767540931702104e+00 -2.437144756317139116e+00 -7.402224540710449219e-01 1.600000000000000000e+01
-1.515914797782897949e+00 -2.837863922119141069e+00 -7.427883744239807129e-01 1.100000000000000000e+01
-1.831209421157836914e+00 -3.426671266555786133e+00 -7.552220225334167480e-01 1.000000000000000000e+01
-2.315130710601807085e+00 -4.328578948974609375e+00 -7.774792909622192383e-01 1.800000000000000000e+01
-1.553422069549561080e+01 -2.903200531005859020e+01 4.042893409729003906e+00 1.700000000000000000e+01
-2.700896263122559038e+00 -5.045605182647705078e+00 -7.026986479759216309e-01 2.800000000000000000e+01
-4.685997486114501953e+00 -8.750347137451171875e+00 -8.684198260307312012e-01 1.000000000000000000e+00
-1.326654052734375000e+01 -2.475236511230469105e+01 -1.471791744232177956e+00 1.300000000000000000e+01
-1.308351278305053933e+00 -2.430888175964355025e+00 -7.397048473358154297e-01 1.600000000000000000e+01
-1.528584122657776101e+00 -2.837702035903931108e+00 -7.441380620002746582e-01 1.300000000000000000e+01
-1.834777355194092019e+00 -3.404703855514525923e+00 -7.517874240875244141e-01 1.200000000000000000e+01
-2.331163883209228960e+00 -4.322209835052490234e+00 -7.777921557426452637e-01 1.500000000000000000e+01
-2.716606378555297852e+00 -5.032652854919433594e+00 -7.022111415863037109e-01 2.400000000000000000e+01
-4.750595092773438388e+00 -8.797047615051269531e+00 -8.746950626373291016e-01 1.000000000000000000e+00
-1.336615657806395951e+01 -2.473050498962401988e+01 -1.473257184028625044e+00 1.300000000000000000e+01
-1.311299681663512962e+00 -2.416119098663330078e+00 -7.365990281105041504e-01 1.500000000000000000e+01
-1.544061183929442915e+00 -2.842623710632324219e+00 -7.468374967575073242e-01 1.300000000000000000e+01
-1.846650838851928933e+00 -3.398278474807738814e+00 -7.517874240875244141e-01 1.100000000000000000e+01
-2.343405723571776900e+00 -4.308840274810791016e+00 -7.768535614013671875e-01 1.600000000000000000e+01
-2.746494293212891069e+00 -5.045805454254150391e+00 -7.053797841072082520e-01 2.600000000000000000e+01
-4.746971607208251953e+00 -8.717419624328613281e+00 -8.684198260307312012e-01 1.000000000000000000e+00
-1.349254322052001953e+01 -2.475735473632812855e+01 -1.477653384208678977e+00 1.300000000000000000e+01
-1.319725513458251953e+00 -2.411526918411254883e+00 -7.365990281105041504e-01 1.600000000000000000e+01
-1.552102088928223100e+00 -2.833798170089722124e+00 -7.459377050399780273e-01 1.200000000000000000e+01
-1.864162206649780051e+00 -3.402142047882080078e+00 -7.540771365165710449e-01 1.100000000000000000e+01
-2.354632854461669922e+00 -4.293705940246582031e+00 -7.756021022796630859e-01 1.600000000000000000e+01
-2.775552034378052202e+00 -5.057070255279541016e+00 -7.083046436309814453e-01 1.800000000000000000e+01
-4.777372360229492188e+00 -8.700796127319335938e+00 -8.684198260307312012e-01 1.000000000000000000e+00
-1.357888031005859020e+01 -2.471010589599609020e+01 -1.477653384208678977e+00 1.300000000000000000e+01
-1.331025958061218040e+00 -2.414136171340941939e+00 -7.386695742607116699e-01 1.600000000000000000e+01
-1.555348038673401101e+00 -2.818670749664307085e+00 -7.432382702827453613e-01 1.500000000000000000e+01
-1.876738786697387917e+00 -3.399706363677978960e+00 -7.548403739929199219e-01 1.100000000000000000e+01
-2.368110179901123047e+00 -4.286287307739257812e+00 -7.756021022796630859e-01 1.600000000000000000e+01
-2.794307470321654829e+00 -5.053537368774414062e+00 -7.090358138084411621e-01 2.000000000000000000e+01
-4.804683208465576172e+00 -8.685745239257812500e+00 -8.684198260307312012e-01 1.000000000000000000e+00
-1.361774635314941051e+01 -2.459743118286133168e+01 -1.473466515541077104e+00 1.300000000000000000e+01
-1.344138026237488015e+00 -2.417917728424071822e+00 -7.412577271461486816e-01 1.600000000000000000e+01
-1.562335252761841042e+00 -2.808115720748900923e+00 -7.418885827064514160e-01 1.300000000000000000e+01
-1.884775280952454057e+00 -3.386272907257080078e+00 -7.533138990402221680e-01 1.100000000000000000e+01
-2.384980440139770952e+00 -4.281446456909179688e+00 -7.762278318405151367e-01 1.600000000000000000e+01
-2.820630073547362837e+00 -5.059357166290283203e+00 -7.112295031547546387e-01 2.200000000000000000e+01
-3.377299308776855025e+00 -6.055367946624755859e+00 -6.066039800643920898e-01 2.000000000000000000e+00
-1.375998592376708984e+01 -2.465089607238769887e+01 -1.479537487030029075e+00 1.300000000000000000e+01
-1.350680828094481978e+00 -2.409840583801269975e+00 -7.402224540710449219e-01 1.600000000000000000e+01
-1.580708384513854980e+00 -2.817941427230834961e+00 -7.459377050399780273e-01 1.500000000000000000e+01
-1.900427222251892090e+00 -3.386521577835083008e+00 -7.548403739929199219e-01 1.100000000000000000e+01
-2.403780221939086914e+00 -4.279984474182128906e+00 -7.774792909622192383e-01 1.600000000000000000e+01
-2.848000288009643999e+00 -5.066784858703613281e+00 -7.136668562889099121e-01 2.600000000000000000e+01
-3.421853303909302202e+00 -6.085221767425537109e+00 -6.107874512672424316e-01 5.000000000000000000e+00
-1.386162281036376953e+01 -2.463056373596191051e+01 -1.481212258338928001e+00 1.300000000000000000e+01
-1.355282902717590110e+00 -2.398383617401123047e+00 -7.381519079208374023e-01 1.700000000000000000e+01
-1.588616609573364036e+00 -2.809014081954956055e+00 -7.450379133224487305e-01 1.300000000000000000e+01
-1.910303354263306108e+00 -3.376449823379517046e+00 -7.540771365165710449e-01 1.200000000000000000e+01
-2.421625375747681108e+00 -4.276724338531494141e+00 -7.784178853034973145e-01 1.900000000000000000e+01
-2.880349874496459961e+00 -5.082718372344970703e+00 -7.173229455947875977e-01 2.800000000000000000e+01
-3.436195611953734907e+00 -6.061107635498046875e+00 -6.095672845840454102e-01 7.000000000000000000e+00
-1.387655067443848012e+01 -2.445695304870605113e+01 -1.473675847053528054e+00 1.300000000000000000e+01
-1.363646507263184038e+00 -2.393638134002685991e+00 -7.381519079208374023e-01 1.800000000000000000e+01
-1.596481680870055930e+00 -2.800065755844116211e+00 -7.441380620002746582e-01 1.300000000000000000e+01
-1.919159531593322976e+00 -3.364645004272460938e+00 -7.529323101043701172e-01 1.100000000000000000e+01
-2.437518596649169922e+00 -4.269960880279541016e+00 -7.787307500839233398e-01 1.300000000000000000e+01
-2.879364490509033203e+00 -5.039884567260742188e+00 -7.126919031143188477e-01 2.200000000000000000e+01
-3.457331895828247070e+00 -6.049076080322265625e+00 -6.095672845840454102e-01 6.000000000000000000e+00
-1.403522109985351918e+01 -2.453665924072265980e+01 -1.481421589851378950e+00 1.300000000000000000e+01
-1.375842094421386941e+00 -2.395564556121826172e+00 -7.402224540710449219e-01 1.700000000000000000e+01
-1.605274915695189986e+00 -2.792786598205565962e+00 -7.436881661415100098e-01 1.400000000000000000e+01
-1.938722014427185059e+00 -3.371540784835814986e+00 -7.559852600097656250e-01 1.100000000000000000e+01
-2.440584897994995117e+00 -4.240880966186523438e+00 -7.749763131141662598e-01 1.000000000000000000e+01
-2.896939277648925781e+00 -5.029802799224854404e+00 -7.126919031143188477e-01 1.800000000000000000e+01
-3.484394073486328125e+00 -6.047328948974609375e+00 -6.106131076812744141e-01 8.000000000000000000e+00
-1.415470695495604936e+01 -2.454634284973144887e+01 -1.484980463981627974e+00 1.300000000000000000e+01
-9.495050907135009766e-01 -1.644591093063354048e+00 5.088382363319396973e-01 1.000000000000000000e+00
-1.383227825164794922e+00 -2.389075517654418945e+00 -7.397048473358154297e-01 1.900000000000000000e+01
-1.614036798477173074e+00 -2.785479784011840820e+00 -7.432382702827453613e-01 1.200000000000000000e+01
-1.943586826324462891e+00 -3.352863311767578125e+00 -7.533138990402221680e-01 1.100000000000000000e+01
-2.463303804397583008e+00 -4.246005058288574219e+00 -7.774792909622192383e-01 1.000000000000000000e+01
-2.931423664093018022e+00 -5.048843860626220703e+00 -7.168354988098144531e-01 2.400000000000000000e+01
-3.525496006011962891e+00 -6.069586277008056641e+00 -6.140993833541870117e-01 8.000000000000000000e+00
-1.431056594848632990e+01 -2.461765480041503906e+01 -1.492307424545288086e+00 1.400000000000000000e+01
-9.481532573699951172e-01 -1.629744648933411089e+00 5.052147507667541504e-01 9.000000000000000000e+00
-1.390585064888000044e+00 -2.382564067840576172e+00 -7.391871809959411621e-01 1.700000000000000000e+01
-1.624732971191406028e+00 -2.781511545181273970e+00 -7.436881661415100098e-01 1.400000000000000000e+01
-1.955278754234313965e+00 -3.346058368682860884e+00 -7.533138990402221680e-01 1.100000000000000000e+01
-2.476115703582764116e+00 -4.233970642089843750e+00 -7.768535614013671875e-01 1.000000000000000000e+01
-2.956048727035522017e+00 -5.050573348999023438e+00 -7.185416221618652344e-01 1.800000000000000000e+01
-3.546661376953125000e+00 -6.057242870330811435e+00 -6.140993833541870117e-01 1.000000000000000000e+01
-1.441458702087401988e+01 -2.459856796264648082e+01 -1.494191527366637962e+00 1.400000000000000000e+01
-1.735926818847655895e+01 -2.959999084472655895e+01 -5.989665985107421875e-01 6.000000000000000000e+00
-9.326133728027343750e-01 -1.589601039886475053e+00 4.938267469406127930e-01 2.300000000000000000e+01
-1.395802378654479980e+00 -2.370548248291016069e+00 -7.371166348457336426e-01 1.500000000000000000e+01
-1.640347957611083984e+00 -2.783647060394287109e+00 -7.459377050399780273e-01 1.200000000000000000e+01
-1.970106244087219016e+00 -3.341908693313599077e+00 -7.540771365165710449e-01 1.100000000000000000e+01
-2.485328197479248047e+00 -4.212522506713867188e+00 -7.746634483337402344e-01 9.000000000000000000e+00
-2.979456901550292969e+00 -5.046022891998291016e+00 -7.195165753364562988e-01 3.300000000000000000e+01
-3.521254539489746094e+00 -5.961237907409667969e+00 -6.057324409484863281e-01 7.000000000000000000e+00
-1.457194805145264027e+01 -2.464963531494140980e+01 -1.500681161880492942e+00 1.400000000000000000e+01
-9.344985485076904297e-01 -1.579521536827086958e+00 4.917561709880828857e-01 2.800000000000000000e+01
-1.406040668487549050e+00 -2.368983983993529829e+00 -7.381519079208374023e-01 1.500000000000000000e+01
-1.646073937416077104e+00 -2.771202564239501953e+00 -7.441380620002746582e-01 1.300000000000000000e+01
-1.980756759643554910e+00 -3.333323478698730025e+00 -7.536955475807189941e-01 1.300000000000000000e+01
-2.499007701873778853e+00 -4.202123165130615234e+00 -7.743505835533142090e-01 1.000000000000000000e+01
-3.001113653182982954e+00 -5.042415618896484375e+00 -7.204915285110473633e-01 3.500000000000000000e+01
-3.568543195724486861e+00 -5.993419647216796875e+00 -6.102645397186279297e-01 6.000000000000000000e+00
-1.467835044860840021e+01 -2.463293457031250000e+01 -1.502774596214293990e+00 1.400000000000000000e+01
-9.392917752265930176e-01 -1.574426770210265891e+00 4.912385344505310059e-01 4.000000000000000000e+01
-1.418268561363219993e+00 -2.370692968368529829e+00 -7.402224540710449219e-01 1.700000000000000000e+01
-1.650731921195984109e+00 -2.757079839706420898e+00 -7.418885827064514160e-01 1.200000000000000000e+01
-1.996415376663208008e+00 -3.333126068115233931e+00 -7.552220225334167480e-01 1.500000000000000000e+01
-2.508582592010498047e+00 -4.184903144836425781e+00 -7.727862596511840820e-01 1.000000000000000000e+01
-3.005420923233031782e+00 -5.009779453277587891e+00 -7.173229455947875977e-01 3.900000000000000000e+01
-3.575088739395142046e+00 -5.957009792327880859e+00 -6.078241467475891113e-01 7.000000000000000000e+00
-1.478481292724609020e+01 -2.461579132080078125e+01 -1.504868030548095925e+00 1.400000000000000000e+01
-9.504791498184204102e-01 -1.581237792968750000e+00 4.943443834781646729e-01 4.500000000000000000e+01
-1.421547293663024902e+00 -2.357455968856811968e+00 -7.376343011856079102e-01 1.500000000000000000e+01
-1.660345792770385964e+00 -2.751301050186156782e+00 -7.418885827064514160e-01 1.300000000000000000e+01
-2.001950025558472124e+00 -3.316052675247191939e+00 -7.529323101043701172e-01 1.500000000000000000e+01
-2.527261495590209961e+00 -4.182884216308593750e+00 -7.740377187728881836e-01 9.000000000000000000e+00
-3.009536981582642046e+00 -4.977174758911132812e+00 -7.141543626785278320e-01 3.900000000000000000e+01
-3.605141878128052202e+00 -5.959836959838867188e+00 -6.093929409980773926e-01 6.000000000000000000e+00
-1.491202163696289062e+01 -2.463237571716308949e+01 -1.509055018424988015e+00 1.400000000000000000e+01
-9.502603411674499512e-01 -1.567830920219420943e+00 4.912385344505310059e-01 5.000000000000000000e+01
-1.427943706512450950e+00 -2.351327180862427202e+00 -7.371166348457336426e-01 1.500000000000000000e+01
-1.675053834915160911e+00 -2.756062984466553178e+00 -7.445880174636840820e-01 1.400000000000000000e+01
-2.009297847747803178e+00 -3.304714441299438032e+00 -7.517874240875244141e-01 1.600000000000000000e+01
-2.546550989151000977e+00 -4.185049057006835938e+00 -7.759149670600891113e-01 9.000000000000000000e+00
-3.040645599365233931e+00 -4.993127346038818359e+00 -7.178104519844055176e-01 3.300000000000000000e+01
-3.644578695297241211e+00 -5.982511997222900391e+00 -6.128791570663452148e-01 7.000000000000000000e+00
-1.501012706756591975e+01 -2.461951255798339844e+01 -1.511148452758789062e+00 1.400000000000000000e+01
-9.549080133438110352e-01 -1.565004587173461914e+00 4.912385344505310059e-01 5.500000000000000000e+01
-1.431100010871886985e+00 -2.338089942932128906e+00 -7.345284223556518555e-01 1.500000000000000000e+01
-1.679574489593506081e+00 -2.741890430450439009e+00 -7.423384785652160645e-01 1.300000000000000000e+01
-2.020821332931518999e+00 -3.297680616378784180e+00 -7.517874240875244141e-01 1.700000000000000000e+01
-2.552882194519042969e+00 -4.162662982940673828e+00 -7.734119892120361328e-01 9.000000000000000000e+00
-3.066363573074340820e+00 -4.996017932891845703e+00 -7.197603583335876465e-01 2.000000000000000000e+01
-3.672736883163452148e+00 -5.981638908386229581e+00 -6.140993833541870117e-01 1.000000000000000000e+01
-1.511688613891601918e+01 -2.460100173950194957e+01 -1.513241887092590110e+00 1.400000000000000000e+01
-9.555763006210327148e-01 -1.553267121315001997e+00 4.886503517627716064e-01 6.400000000000000000e+01
-1.445338368415832964e+00 -2.342945337295531782e+00 -7.376343011856079102e-01 1.600000000000000000e+01
-1.692206382751465066e+00 -2.740985393524169922e+00 -7.436881661415100098e-01 1.400000000000000000e+01
-2.036446571350098100e+00 -3.297287940979003906e+00 -7.533138990402221680e-01 1.600000000000000000e+01
-2.566358566284180132e+00 -4.152046203613281250e+00 -7.730991244316101074e-01 1.000000000000000000e+01
-3.080651283264160156e+00 -4.980219364166259766e+00 -7.190291285514831543e-01 2.200000000000000000e+01
-3.687303781509398970e+00 -5.958616733551025391e+00 -6.130535006523132324e-01 1.000000000000000000e+01
-1.526576232910156072e+01 -2.464996337890625000e+01 -1.519522190093993919e+00 1.400000000000000000e+01
-9.597041606903076172e-01 -1.548447728157043013e+00 4.881327152252197266e-01 6.600000000000000000e+01
-1.454527974128722922e+00 -2.339526414871215820e+00 -7.381519079208374023e-01 1.500000000000000000e+01
-1.695586919784545898e+00 -2.725134372711182085e+00 -7.409887909889221191e-01 1.400000000000000000e+01
-2.052093744277954102e+00 -3.296826362609862837e+00 -7.548403739929199219e-01 1.600000000000000000e+01
-2.576658487319945845e+00 -4.136355876922607422e+00 -7.718476653099060059e-01 1.000000000000000000e+01
-3.077013254165648970e+00 -4.935744285583496094e+00 -7.141543626785278320e-01 4.300000000000000000e+01
-3.718624114990233931e+00 -5.962615013122558594e+00 -6.147966384887695312e-01 1.100000000000000000e+01
-1.535171413421631037e+01 -2.459652519226073863e+01 -1.519522190093993919e+00 1.400000000000000000e+01
-1.853705024719237926e+01 -2.967700767517089844e+01 -6.107644438743591309e-01 7.000000000000000000e+00
-9.633256196975708008e-01 -1.541643261909485085e+00 4.870974421501160223e-01 6.500000000000000000e+01
-1.460634112358093040e+00 -2.331160783767700195e+00 -7.371166348457336426e-01 1.600000000000000000e+01
-1.710265398025512917e+00 -2.727453947067261186e+00 -7.432382702827453613e-01 1.500000000000000000e+01
-2.057329654693603960e+00 -3.279664278030395952e+00 -7.525506615638732910e-01 1.600000000000000000e+01
-2.601584196090697798e+00 -4.144066333770751953e+00 -7.749763131141662598e-01 1.000000000000000000e+01
-3.075214624404906782e+00 -4.894717693328857422e+00 -7.097670435905456543e-01 2.800000000000000000e+01
-3.756378412246704102e+00 -5.976588249206542969e+00 -6.175855994224548340e-01 1.100000000000000000e+01
-1.870657730102539062e+01 -2.971704292297362926e+01 -6.129285097122192383e-01 7.000000000000000000e+00
-9.756366610527038574e-01 -1.549884557723999023e+00 4.907208979129791260e-01 6.400000000000000000e+01
-1.466699600219727007e+00 -2.322781085968018022e+00 -7.360813617706298828e-01 1.500000000000000000e+01
-1.723939657211303933e+00 -2.728056907653809038e+00 -7.450379133224487305e-01 1.500000000000000000e+01
-2.066667079925537109e+00 -3.269144058227539062e+00 -7.517874240875244141e-01 1.700000000000000000e+01
-2.609697103500366211e+00 -4.124944210052490234e+00 -7.730991244316101074e-01 1.000000000000000000e+01
-3.120953083038330078e+00 -4.929237365722656250e+00 -7.163479924201965332e-01 4.100000000000000000e+01
-3.758027791976929155e+00 -5.933142662048339844e+00 -6.144480109214782715e-01 1.100000000000000000e+01
-1.876734733581542969e+01 -2.958402061462401988e+01 -6.115323305130004883e-01 7.000000000000000000e+00
-9.758665561676025391e-01 -1.538313031196594016e+00 4.881327152252197266e-01 6.000000000000000000e+01
-1.474394202232361062e+00 -2.317904710769652876e+00 -7.360813617706298828e-01 1.500000000000000000e+01
-1.735069751739501953e+00 -2.725612878799438032e+00 -7.459377050399780273e-01 1.500000000000000000e+01
-2.079605817794799805e+00 -3.265584707260131836e+00 -7.525506615638732910e-01 1.600000000000000000e+01
-2.623361587524414062e+00 -4.116267204284667969e+00 -7.730991244316101074e-01 1.000000000000000000e+01
-3.145821571350098100e+00 -4.932250022888183594e+00 -7.182978987693786621e-01 2.800000000000000000e+01
-3.754105091094971147e+00 -5.883696079254150391e+00 -6.106131076812744141e-01 1.300000000000000000e+01
-1.890842056274414062e+01 -2.958902359008789062e+01 -6.129285097122192383e-01 7.000000000000000000e+00
-9.768013954162597656e-01 -1.528557062149048074e+00 4.860621690750122070e-01 5.700000000000000000e+01
-1.483518719673156960e+00 -2.314370393753052202e+00 -7.365990281105041504e-01 1.600000000000000000e+01
-1.738260030746459961e+00 -2.709698438644409180e+00 -7.432382702827453613e-01 1.400000000000000000e+01
-2.094173192977904829e+00 -3.263262510299683061e+00 -7.536955475807189941e-01 1.500000000000000000e+01
-2.633444070816040039e+00 -4.100436687469482422e+00 -7.718476653099060059e-01 1.000000000000000000e+01
-3.155506134033203125e+00 -4.909549713134765625e+00 -7.165917158126831055e-01 3.000000000000000000e+01
-3.804791450500487837e+00 -5.917480468750000000e+00 -6.154938340187072754e-01 1.200000000000000000e+01
-1.905056571960448863e+01 -2.958336639404296875e+01 -6.141850948333740234e-01 7.000000000000000000e+00
-9.803048372268676758e-01 -1.521718502044677956e+00 4.850268959999083918e-01 5.900000000000000000e+01
-1.497638106346129927e+00 -2.316768884658813032e+00 -7.391871809959411621e-01 1.600000000000000000e+01
-1.744417667388916016e+00 -2.696459054946898970e+00 -7.414386868476867676e-01 1.400000000000000000e+01
-2.110954284667969194e+00 -3.261790275573730025e+00 -7.552220225334167480e-01 1.300000000000000000e+01
-2.653464555740356001e+00 -4.096926689147949219e+00 -7.730991244316101074e-01 1.000000000000000000e+01
-3.159218311309814009e+00 -4.874076366424561435e+00 -7.131794095039367676e-01 2.600000000000000000e+01
-3.825316905975341797e+00 -5.899484157562255859e+00 -6.151452064514160156e-01 1.300000000000000000e+01
-1.911174011230469105e+01 -2.942949867248535156e+01 -6.125096678733825684e-01 7.000000000000000000e+00
-9.911364316940307617e-01 -1.526216268539428933e+00 4.876150786876677912e-01 5.100000000000000000e+01
-1.505716085433959961e+00 -2.311527013778686968e+00 -7.391871809959411621e-01 1.400000000000000000e+01
-1.754883646965027078e+00 -2.691986083984375000e+00 -7.418885827064514160e-01 1.500000000000000000e+01
-2.118037462234497070e+00 -3.247823953628540039e+00 -7.536955475807189941e-01 1.200000000000000000e+01
-2.665590047836304155e+00 -4.084330558776854581e+00 -7.724733948707580566e-01 1.000000000000000000e+01
-3.154502391815185991e+00 -4.829778671264648438e+00 -7.083046436309814453e-01 2.000000000000000000e+01
-3.891657829284667969e+00 -5.956148147583007812e+00 -6.224663257598876953e-01 1.000000000000000000e+01
-1.924939155578612926e+01 -2.941615295410155895e+01 -6.136265993118286133e-01 7.000000000000000000e+00
-9.975156784057617188e-01 -1.524363756179810014e+00 4.881327152252197266e-01 2.300000000000000000e+01
-1.511253476142883079e+00 -2.303290843963623047e+00 -7.381519079208374023e-01 1.400000000000000000e+01
-1.764870524406433105e+00 -2.687780857086182085e+00 -7.423384785652160645e-01 1.400000000000000000e+01
-2.125562429428101030e+00 -3.235859632492064986e+00 -7.525506615638732910e-01 1.200000000000000000e+01
-2.685630321502685991e+00 -4.085372924804688388e+00 -7.743505835533142090e-01 1.000000000000000000e+01
-3.195594787597655806e+00 -4.857434749603270596e+00 -7.139106392860412598e-01 2.400000000000000000e+01
-3.885100126266479048e+00 -5.903266906738281250e+00 -6.182828545570373535e-01 1.100000000000000000e+01
-1.914434051513671875e+01 -2.904494476318359020e+01 -6.072041392326354980e-01 6.000000000000000000e+00
-1.015323162078856978e+00 -1.540403366088866965e+00 4.943443834781646729e-01 2.200000000000000000e+01
-1.515022635459899902e+00 -2.291555643081665039e+00 -7.360813617706298828e-01 1.400000000000000000e+01
-1.780693650245666948e+00 -2.691355228424071822e+00 -7.450379133224487305e-01 1.400000000000000000e+01
-2.130343198776245117e+00 -3.218597650527954102e+00 -7.502609491348266602e-01 1.200000000000000000e+01
-2.696601867675780806e+00 -4.071033000946044922e+00 -7.734119892120361328e-01 1.000000000000000000e+01
-3.187304496765137163e+00 -4.808195114135742188e+00 -7.083046436309814453e-01 3.300000000000000000e+01
-3.925503015518188032e+00 -5.919557571411132812e+00 -6.214204430580139160e-01 1.300000000000000000e+01
-1.931641387939453125e+01 -2.908455085754394887e+01 -6.094380617141723633e-01 7.000000000000000000e+00
-1.018824100494384988e+00 -1.533453464508057085e+00 4.933091104030609131e-01 2.200000000000000000e+01
-1.519799351692199929e+00 -2.281429767608643022e+00 -7.345284223556518555e-01 1.300000000000000000e+01
-1.784672617912292036e+00 -2.677015781402587891e+00 -7.427883744239807129e-01 1.500000000000000000e+01
-2.150279760360718218e+00 -3.224208354949951172e+00 -7.533138990402221680e-01 1.200000000000000000e+01
-2.697636842727661133e+00 -4.041878700256347656e+00 -7.696575522422790527e-01 1.200000000000000000e+01
-3.190837860107421875e+00 -4.777231216430664062e+00 -7.053797841072082520e-01 2.800000000000000000e+01
-3.927324533462523970e+00 -5.877656459808349609e+00 -6.184571385383605957e-01 8.000000000000000000e+00
-1.948899650573730113e+01 -2.912331008911133168e+01 -6.116719245910644531e-01 7.000000000000000000e+00
-1.023903608322143999e+00 -1.530066490173340066e+00 4.933091104030609131e-01 2.100000000000000000e+01
-1.535290241241455078e+00 -2.287338972091674805e+00 -7.381519079208374023e-01 1.300000000000000000e+01
-1.795092821121216042e+00 -2.672387361526488814e+00 -7.432382702827453613e-01 1.400000000000000000e+01
-2.164806127548218218e+00 -3.221571445465087891e+00 -7.544587850570678711e-01 1.300000000000000000e+01
-2.721650123596190962e+00 -4.047190189361572266e+00 -7.724733948707580566e-01 1.200000000000000000e+01
-3.228552341461182085e+00 -4.797354698181152344e+00 -7.100107669830322266e-01 3.500000000000000000e+01
-3.980085611343383789e+00 -5.911841392517089844e+00 -6.235122084617614746e-01 1.200000000000000000e+01
-1.981859397888183949e+01 -2.939333915710448863e+01 -6.187925338745117188e-01 7.000000000000000000e+00
-1.035718321800231934e+00 -1.536093711853026900e+00 4.964149296283721924e-01 1.700000000000000000e+01
-1.550440549850464089e+00 -2.293438434600830078e+00 -7.417753934860229492e-01 1.400000000000000000e+01
-1.797393083572387917e+00 -2.656735658645629883e+00 -7.405388951301574707e-01 1.400000000000000000e+01
-2.168874979019165039e+00 -3.204619646072388139e+00 -7.521690726280212402e-01 1.300000000000000000e+01
-2.731732845306396040e+00 -4.033236026763916016e+00 -7.715348005294799805e-01 1.000000000000000000e+01
-3.235532760620117188e+00 -4.773476600646972656e+00 -7.080608606338500977e-01 1.800000000000000000e+01
-4.025385856628417969e+00 -5.936538219451904297e+00 -6.275213360786437988e-01 2.000000000000000000e+00
-2.006424903869628906e+01 -2.954582405090332031e+01 -6.233999729156494141e-01 7.000000000000000000e+00
