-7.917038351297378540e-02 -1.485850334167480025e+00 7.798057794570922852e-02 8.500000000000000000e+01
-8.530869334936141968e-02 -1.595810413360595925e+00 -3.106370568275452215e-01 1.000000000000000000e+01
-7.864110916852951050e-02 -1.466283679008484109e+00 1.284675598144530972e-01 9.000000000000000000e+01
-8.671432733535766602e-02 -1.611551523208617942e+00 -2.556139230728148859e-01 6.900000000000000000e+01
-7.950507104396820068e-02 -1.472779154777527078e+00 1.810978502035140991e-01 7.200000000000000000e+01
-8.405617624521255493e-02 -1.552052736282349077e+00 -1.908473968505859097e-01 5.700000000000000000e+01
-8.080639690160751343e-02 -1.487240433692931907e+00 2.359031736850739081e-01 8.300000000000000000e+01
-8.290754258632659912e-02 -1.525912046432494895e+00 -1.336969137191771906e-01 9.800000000000000000e+01
-7.789712399244308472e-02 -1.429090976715087891e+00 2.781995236873627264e-01 1.000000000000000000e+02
-8.429844677448272705e-02 -1.541578173637389915e+00 -8.091139048337936401e-02 7.700000000000000000e+01
-7.867033779621124268e-02 -1.434065222740172896e+00 3.315778672695159912e-01 8.700000000000000000e+01
-8.362143486738204956e-02 -1.519468903541564941e+00 -2.656256221234798084e-02 8.600000000000000000e+01
-7.880426943302154541e-02 -1.427396535873413086e+00 3.830522000789641779e-01 1.000000000000000000e+02
-4.136253893375396729e-02 -7.329374551773071289e-01 -1.967024803161621094e-01 7.000000000000000000e+00
-8.465187251567840576e-02 -1.495377779006958008e+00 2.614370547235012054e-02 8.200000000000000000e+01
-1.832855045795440951e-01 -3.227760314941405806e+00 -7.463876008987426758e-01 9.000000000000000000e+00
-8.446972072124481201e-02 -1.487558960914612038e+00 7.808524370193481445e-02 7.300000000000000000e+01
-2.206094563007355014e-01 -3.873112916946411133e+00 -7.540771365165710449e-01 8.000000000000000000e+00
-8.398620784282684326e-02 -1.469978451728821023e+00 1.288161873817444125e-01 8.800000000000000000e+01
-9.222614765167236328e-02 -1.609266877174376997e+00 -2.553010582923889160e-01 6.600000000000000000e+01
-8.532908558845520020e-02 -1.484383583068848100e+00 1.825602799654006958e-01 6.500000000000000000e+01
-9.038749337196350098e-02 -1.567604303359984907e+00 -1.927973031997680942e-01 5.100000000000000000e+01
-8.687492460012435913e-02 -1.506685256958008035e+00 2.390318661928176880e-01 8.500000000000000000e+01
-8.903872966766357422e-02 -1.539536833763123003e+00 -1.349170953035354892e-01 1.000000000000000000e+02
-8.243031799793243408e-02 -1.420970559120178001e+00 2.766730487346649170e-01 1.000000000000000000e+02
-8.898296207189559937e-02 -1.529311180114746094e+00 -8.028335869312286377e-02 7.900000000000000000e+01
-8.458396792411804199e-02 -1.449345350265502930e+00 3.351770639419556219e-01 8.100000000000000000e+01
-8.985968679189682007e-02 -1.535138010978698953e+00 -2.684180065989493977e-02 8.400000000000000000e+01
-8.378633111715316772e-02 -1.427112817764282005e+00 3.830522000789641779e-01 1.000000000000000000e+02
-4.438304156064987183e-02 -7.405021190643310547e-01 -1.987730264663696012e-01 6.000000000000000000e+00
-9.035114943981170654e-02 -1.503057479858397993e+00 2.628332376480102886e-02 8.000000000000000000e+01
-1.937304884195328036e-01 -3.213484287261962891e+00 -7.432382702827453613e-01 1.000000000000000000e+01
-8.966175466775894165e-02 -1.487254977226257102e+00 7.808524370193481445e-02 7.500000000000000000e+01
-2.353126555681228915e-01 -3.891916036605834961e+00 -7.578933238983154297e-01 8.000000000000000000e+00
-8.911687880754470825e-02 -1.469676375389098899e+00 1.288161873817444125e-01 8.200000000000000000e+01
-9.736335277557373047e-02 -1.601048111915587935e+00 -2.540495693683624268e-01 2.700000000000000000e+01
-9.051003307104110718e-02 -1.484076738357543945e+00 1.825602799654006958e-01 7.200000000000000000e+01
-9.598009288311004639e-02 -1.569260597229003906e+00 -1.930410414934158048e-01 1.900000000000000000e+01
-9.261608868837356567e-02 -1.514259576797484907e+00 2.402833402156830112e-01 1.000000000000000000e+02
-9.380227327346801758e-02 -1.529273390769958052e+00 -1.340455263853073120e-01 1.000000000000000000e+02
-8.726938813924789429e-02 -1.418714642524719016e+00 2.762914299964904785e-01 9.400000000000000000e+01
-9.345989674329757690e-02 -1.515036940574645996e+00 -7.955065369606018066e-02 8.200000000000000000e+01
-8.916130661964416504e-02 -1.441261172294616921e+00 3.333774507045745850e-01 8.000000000000000000e+01
-9.546540677547454834e-02 -1.538806676864624023e+00 -2.691161073744297028e-02 8.800000000000000000e+01
-8.924719691276550293e-02 -1.434524059295654075e+00 3.851227462291718084e-01 1.000000000000000000e+02
-4.647836089134216309e-02 -7.326307892799377441e-01 -1.967024803161621094e-01 7.000000000000000000e+00
-9.559725224971771240e-02 -1.502732992172240989e+00 2.628332376480102886e-02 8.400000000000000000e+01
-2.045742720365524014e-01 -3.206954002380371094e+00 -7.418885827064514160e-01 9.000000000000000000e+00
-9.421695023775100708e-02 -1.476966977119446023e+00 7.756188511848449707e-02 7.700000000000000000e+01
-2.483952492475509921e-01 -3.883233785629272017e+00 -7.563668489456176758e-01 6.000000000000000000e+00
-9.526672959327697754e-02 -1.485262751579284890e+00 1.302106827497482022e-01 8.200000000000000000e+01
-3.177295029163361151e-01 -4.940086841583251953e+00 -7.840495109558105469e-01 9.000000000000000000e+00
-9.594538807868957520e-02 -1.487713694572448953e+00 1.830477565526962003e-01 8.500000000000000000e+01
-4.579667448997498114e-01 -7.081912517547607422e+00 -8.713657855987548828e-01 1.000000000000000000e+00
-9.764632582664489746e-02 -1.509984612464905007e+00 2.396575957536697110e-01 9.400000000000000000e+01
-1.003001481294631958e-01 -1.546830534934998003e+00 -1.356143355369567871e-01 8.800000000000000000e+01
-9.374962002038955688e-02 -1.441910743713378906e+00 2.808708548545836847e-01 9.000000000000000000e+01
-9.978724271059036255e-02 -1.530645728111267090e+00 -8.038803189992904663e-02 8.300000000000000000e+01
-9.393747150897979736e-02 -1.437052011489867942e+00 3.324776589870452881e-01 7.400000000000000000e+01
-1.000515446066855968e-01 -1.526491641998291016e+00 -2.670218236744403839e-02 8.400000000000000000e+01
-9.514090418815612793e-02 -1.451569676399230957e+00 3.897814750671387274e-01 9.200000000000000000e+01
-4.774503037333487770e-02 -7.131887078285217285e-01 -1.915261000394820889e-01 7.000000000000000000e+00
-1.011100262403488020e-01 -1.506380558013916016e+00 2.635313384234904896e-02 8.400000000000000000e+01
-2.166833281517029086e-01 -3.219830989837646040e+00 -7.450379133224487305e-01 8.000000000000000000e+00
-9.964016824960708618e-02 -1.480614542961121050e+00 7.777123153209686279e-02 7.700000000000000000e+01
-2.606271207332611084e-01 -3.862755060195922852e+00 -7.525506615638732910e-01 5.000000000000000000e+00
-9.964384883642196655e-02 -1.472994089126586914e+00 1.291648149490355890e-01 8.400000000000000000e+01
-3.343033492565155029e-01 -4.929093360900878906e+00 -7.824851870536804199e-01 9.000000000000000000e+00
-1.016765758395195007e-01 -1.495291829109191895e+00 1.840227097272872925e-01 8.200000000000000000e+01
-4.845746755599976141e-01 -7.107997894287109375e+00 -8.747781515121459961e-01 1.000000000000000000e+00
-1.026478484272956987e-01 -1.505692958831787109e+00 2.390318661928176880e-01 9.400000000000000000e+01
-1.063782796263695041e-01 -1.556409716606139915e+00 -1.364858895540236872e-01 5.800000000000000000e+01
-9.972176700830459595e-02 -1.455285310745239036e+00 2.835421562194824219e-01 9.400000000000000000e+01
-1.052664741873741011e-01 -1.532280564308166948e+00 -8.049269765615463257e-02 7.400000000000000000e+01
-9.881924837827682495e-02 -1.434771180152893066e+00 3.320277631282805841e-01 6.500000000000000000e+01
-1.051038876175880016e-01 -1.522143244743346946e+00 -2.663237228989601135e-02 8.800000000000000000e+01
-1.005939468741416931e-01 -1.453138470649719016e+00 3.902991116046906073e-01 9.000000000000000000e+01
-5.023423209786415100e-02 -7.130177021026611328e-01 -1.915261000394820889e-01 7.000000000000000000e+00
-1.066494286060332974e-01 -1.510007858276366965e+00 2.642294391989707947e-02 8.000000000000000000e+01
-2.283342182636260986e-01 -3.224886417388916016e+00 -7.463876008987426758e-01 6.000000000000000000e+00
-1.057732626795769015e-01 -1.490200638771056907e+00 7.829459011554718018e-02 7.300000000000000000e+01
-2.750820517539978027e-01 -3.875530004501343218e+00 -7.552220225334167480e-01 7.000000000000000000e+00
-1.050677672028541981e-01 -1.476611971855164018e+00 1.295134276151657104e-01 8.400000000000000000e+01
-3.520692288875579834e-01 -4.935778141021729404e+00 -7.837366461753845215e-01 9.000000000000000000e+00
-1.074618399143218994e-01 -1.502847909927367942e+00 1.849976629018784124e-01 7.900000000000000000e+01
-5.093832612037658691e-01 -7.106263160705566406e+00 -8.747781515121459961e-01 1.000000000000000000e+00
-1.079030707478522977e-01 -1.505325436592102051e+00 2.390318661928176880e-01 9.000000000000000000e+01
-1.113821268081665039e-01 -1.550067067146301047e+00 -1.359629631042479914e-01 1.000000000000000000e+01
-1.048010513186455051e-01 -1.454928398132323997e+00 2.835421562194824219e-01 8.800000000000000000e+01
-1.113336980342864990e-01 -1.541864156723022017e+00 -8.101606369018554688e-02 6.100000000000000000e+01
-1.039676219224929948e-01 -1.436361193656920943e+00 3.324776589870452881e-01 6.200000000000000000e+01
-1.109953746199607988e-01 -1.529744863510132058e+00 -2.677199058234691967e-02 8.200000000000000000e+01
-1.042937412858009061e-01 -1.437382578849792036e+00 3.861580193042755127e-01 8.400000000000000000e+01
-1.113283038139342984e-01 -1.501649498939513938e+00 2.628332376480102886e-02 7.800000000000000000e+01
-2.391565144062041959e-01 -3.218239784240723100e+00 -7.450379133224487305e-01 4.000000000000000000e+00
-1.115678325295448026e-01 -1.497789263725280984e+00 7.871327549219131470e-02 7.500000000000000000e+01
-2.886084914207457941e-01 -3.874546289443970171e+00 -7.552220225334167480e-01 7.000000000000000000e+00
-1.097764298319817006e-01 -1.470275640487670898e+00 1.289905011653899869e-01 7.800000000000000000e+01
-3.681167960166931152e-01 -4.918759822845458984e+00 -7.812337279319763184e-01 9.000000000000000000e+00
-1.130040884017944058e-01 -1.506422638893126997e+00 1.854851394891738892e-01 7.900000000000000000e+01
-5.341856479644775391e-01 -7.104441642761229581e+00 -8.747781515121459961e-01 1.000000000000000000e+00
-1.140134558081627031e-01 -1.512799024581908958e+00 2.402833402156830112e-01 9.000000000000000000e+01
-1.094354018568993031e-01 -1.448680639266967995e+00 2.823973000049591064e-01 9.000000000000000000e+01
-1.167151257395744046e-01 -1.541466236114501953e+00 -8.101606369018554688e-02 3.200000000000000000e+01
-1.107504665851593018e-01 -1.459307312965393066e+00 3.378764688968657892e-01 5.700000000000000000e+01
-1.161828264594078064e-01 -1.527354121208190918e+00 -2.673708647489548076e-02 7.800000000000000000e+01
-1.104425042867660939e-01 -1.448548316955565962e+00 3.892638385295867920e-01 7.100000000000000000e+01
-1.173433884978293956e-01 -1.511220216751099077e+00 2.645784802734851837e-02 7.400000000000000000e+01
-2.502376139163970947e-01 -3.215442419052124023e+00 -7.445880174636840820e-01 2.000000000000000000e+00
-1.172613501548766951e-01 -1.503364324569701926e+00 7.902729511260986328e-02 7.700000000000000000e+01
-3.028947710990905762e-01 -3.883301734924315962e+00 -7.571300864219665527e-01 8.000000000000000000e+00
-1.161502301692963063e-01 -1.485774159431457964e+00 1.303849965333938876e-01 7.600000000000000000e+01
-3.855928182601929266e-01 -4.921383857727050781e+00 -7.818594574928283691e-01 9.000000000000000000e+00
-1.174847781658173024e-01 -1.496124029159545898e+00 1.842664480209350863e-01 7.700000000000000000e+01
-5.602275133132934570e-01 -7.118365764617919922e+00 -8.767280578613281250e-01 1.000000000000000000e+00
-1.199593693017960011e-01 -1.524228334426880105e+00 2.421605587005614957e-01 8.700000000000000000e+01
-1.149557307362556041e-01 -1.454161286354064941e+00 2.835421562194824219e-01 8.300000000000000000e+01
-1.164607405662537037e-01 -1.466682314872741921e+00 3.396760821342468262e-01 5.600000000000000000e+01
-1.216722130775451938e-01 -1.528932690620421919e+00 -2.677199058234691967e-02 5.800000000000000000e+01
-1.164714694023132047e-01 -1.463580131530761941e+00 3.934049606323242188e-01 6.200000000000000000e+01
-1.234266459941864014e-01 -1.520767092704772949e+00 2.663237228989601135e-02 6.900000000000000000e+01
-2.619340121746063232e-01 -3.220376253128052202e+00 -7.459377050399780273e-01 3.000000000000000000e+00
-1.216970458626746993e-01 -1.492992639541625977e+00 7.850393652915954590e-02 6.900000000000000000e+01
-3.148531913757324219e-01 -3.862653255462646040e+00 -7.533138990402221680e-01 8.000000000000000000e+00
-1.224713325500488004e-01 -1.499260067939758079e+00 1.316051781177521030e-01 7.200000000000000000e+01
-4.035751819610596258e-01 -4.929851531982421875e+00 -7.834237813949584961e-01 7.000000000000000000e+00
-1.233557537198066989e-01 -1.503618597984313965e+00 1.852414011955260953e-01 7.400000000000000000e+01
-5.821440219879150391e-01 -7.080755233764648438e+00 -8.723407387733459473e-01 1.000000000000000000e+00
-1.255451440811156949e-01 -1.523778438568115012e+00 2.421605587005614957e-01 8.100000000000000000e+01
-1.216464936733245988e-01 -1.473317146301269975e+00 2.873583436012268066e-01 7.500000000000000000e+01
-2.069058895111083984e+00 -2.500611305236816051e+01 -1.314993262290955034e+00 1.100000000000000000e+01
-1.207745447754860063e-01 -1.456556439399719016e+00 3.374265730381011963e-01 5.100000000000000000e+01
-1.293267160654067993e-01 -1.556398272514343040e+00 -2.726065926253795971e-02 4.900000000000000000e+01
-1.231174543499947011e-01 -1.478544950485229048e+00 3.975460529327393133e-01 6.100000000000000000e+01
-1.287343651056289950e-01 -1.520326972007751021e+00 2.663237228989601135e-02 6.400000000000000000e+01
-2.716907858848571777e-01 -3.201966524124145952e+00 -7.418885827064514160e-01 6.000000000000000000e+00
-1.279230862855910977e-01 -1.504499197006226030e+00 7.913196831941604614e-02 6.700000000000000000e+01
-3.288334310054779053e-01 -3.867399215698242188e+00 -7.544587850570678711e-01 9.000000000000000000e+00
-1.280422657728194913e-01 -1.502793908119202104e+00 1.319537907838821134e-01 6.600000000000000000e+01
-4.216213226318358820e-01 -4.938253879547119141e+00 -7.849881649017333984e-01 9.000000000000000000e+00
-1.294496804475784024e-01 -1.513068199157715066e+00 1.864600926637650091e-01 7.000000000000000000e+01
-6.078743338584899902e-01 -7.090547084808349609e+00 -8.738031983375549316e-01 1.000000000000000000e+00
-1.294163614511489868e-01 -1.509576678276062012e+00 2.399704754352570135e-01 7.700000000000000000e+01
-1.291458755731582919e-01 -1.500267744064331055e+00 2.927010059356688898e-01 7.700000000000000000e+01
-2.156333923339844194e+00 -2.499873733520508168e+01 -1.314993262290955034e+00 1.100000000000000000e+01
-1.268649995326996127e-01 -1.467774987220763938e+00 3.401260077953339178e-01 4.800000000000000000e+01
-1.416606307029724121e-01 -1.635626792907715066e+00 -2.865685150027275085e-02 2.300000000000000000e+01
-1.283531934022902887e-01 -1.481977820396422896e+00 3.985813260078430176e-01 6.200000000000000000e+01
-1.349188834428786954e-01 -1.529828190803528054e+00 2.680689655244350086e-02 4.700000000000000000e+01
-2.844099402427672785e-01 -3.218469142913817915e+00 -7.459377050399780273e-01 8.000000000000000000e+00
-1.335262954235076904e-01 -1.508022427558898926e+00 7.934130728244781494e-02 5.700000000000000000e+01
-3.425043225288391113e-01 -3.868183374404906782e+00 -7.548403739929199219e-01 9.000000000000000000e+00
-1.324068605899811069e-01 -1.492414832115172896e+00 1.310822367668152133e-01 5.800000000000000000e+01
-4.379819035530089777e-01 -4.926914215087890625e+00 -7.834237813949584961e-01 7.000000000000000000e+00
-1.354349702596663874e-01 -1.520516157150268999e+00 1.874350458383559903e-01 6.500000000000000000e+01
-6.333270668983459473e-01 -7.096291065216063565e+00 -8.747781515121459961e-01 1.000000000000000000e+00
-1.363559216260910034e-01 -1.524832367897033913e+00 2.424734234809874933e-01 7.500000000000000000e+01
-1.354332268238067905e-01 -1.511540412902832031e+00 2.949907183647155762e-01 7.700000000000000000e+01
-2.251083374023437944e+00 -2.507460784912109020e+01 -1.319389462471008079e+00 1.100000000000000000e+01
-1.330352425575256070e-01 -1.478968739509582964e+00 3.428254127502440851e-01 4.700000000000000000e+01
-1.511386632919312079e-01 -1.676946401596068892e+00 -2.938985265791416168e-02 1.000000000000000000e+00
-1.336103081703186035e-01 -1.479573488235474077e+00 3.980636894702910822e-01 6.500000000000000000e+01
-1.448238492012023926e-01 -1.579131364822387917e+00 2.767951600253582001e-02 3.700000000000000000e+01
-2.956427633762360174e-01 -3.217456817626953125e+00 -7.459377050399780273e-01 8.000000000000000000e+00
-1.404373645782470981e-01 -1.525446772575377974e+00 8.028335869312286377e-02 5.300000000000000000e+01
-3.560047149658203125e-01 -3.866964340209960938e+00 -7.548403739929199219e-01 9.000000000000000000e+00
-1.383475512266159058e-01 -1.499879360198975053e+00 1.317794770002365112e-01 5.200000000000000000e+01
-4.535413682460784912e-01 -4.907652378082275391e+00 -7.806079983711242676e-01 9.000000000000000000e+00
-1.405587196350097934e-01 -1.518057584762573020e+00 1.871913075447083075e-01 6.200000000000000000e+01
-6.606609821319580078e-01 -7.121709346771240234e+00 -8.781905174255371094e-01 1.000000000000000000e+00
-1.419591009616852084e-01 -1.530272603034972922e+00 2.434120327234267911e-01 6.700000000000000000e+01
-1.408907026052474976e-01 -1.513013243675231934e+00 2.953723371028900146e-01 7.800000000000000000e+01
-2.342678070068358931e+00 -2.511034584045410156e+01 -1.321692228317260964e+00 1.100000000000000000e+01
-1.396478861570357999e-01 -1.494017601013184038e+00 3.464246094226837158e-01 4.600000000000000000e+01
-4.056418418884277344e+00 -4.331584930419921875e+01 -7.593891024589538574e-01 1.100000000000000000e+01
-1.388762593269347867e-01 -1.482969164848328081e+00 3.990989625453948975e-01 6.600000000000000000e+01
-1.520413756370543878e-01 -1.596532464027405007e+00 2.799366042017937053e-02 2.500000000000000000e+01
-3.061316311359406073e-01 -3.208645582199097124e+00 -7.441380620002746582e-01 8.000000000000000000e+00
-1.463314294815062921e-01 -1.530911922454833984e+00 8.059737086296081543e-02 3.700000000000000000e+01
-3.704347908496857245e-01 -3.875469684600830078e+00 -7.567484974861145020e-01 9.000000000000000000e+00
-1.454814970493316928e-01 -1.519220471382140891e+00 1.335225999355315885e-01 4.600000000000000000e+01
-4.714240729808806818e-01 -4.913904666900634766e+00 -7.818594574928283691e-01 9.000000000000000000e+00
-1.462367027997971136e-01 -1.521509647369384988e+00 1.876787841320038119e-01 5.400000000000000000e+01
-6.839942932128906250e-01 -7.103552341461181641e+00 -8.762405514717102051e-01 1.000000000000000000e+00
-1.488945931196213046e-01 -1.543505787849426047e+00 2.456021159887314120e-01 6.100000000000000000e+01
-1.474931985139847079e-01 -1.526191234588623047e+00 2.980436384677886963e-01 7.500000000000000000e+01
-2.426465749740601030e+00 -2.506225776672362926e+01 -1.319598793983459029e+00 1.100000000000000000e+01
-1.452383995056152066e-01 -1.497400283813477007e+00 3.473244309425354004e-01 4.500000000000000000e+01
-1.459952443838120062e-01 -1.499755024909972922e+00 4.037577211856842041e-01 7.000000000000000000e+01
-7.959938794374465942e-02 -8.074637651443481445e-01 -2.174080014228821078e-01 5.000000000000000000e+00
-3.182893097400664728e-01 -3.217253684997559038e+00 -7.463876008987426758e-01 9.000000000000000000e+00
-1.556140184402466098e-01 -1.570142149925231934e+00 8.269081264734268188e-02 2.500000000000000000e+01
-3.831859529018402100e-01 -3.866338253021239790e+00 -7.552220225334167480e-01 9.000000000000000000e+00
-1.519647538661957065e-01 -1.530599236488342063e+00 1.345684677362442017e-01 4.100000000000000000e+01
-4.872053861618041992e-01 -4.898469448089599609e+00 -7.796693444252014160e-01 9.000000000000000000e+00
-1.521373093128204068e-01 -1.526915788650512917e+00 1.884099990129471103e-01 5.100000000000000000e+01
-7.076032161712646484e-01 -7.089269638061523438e+00 -8.747781515121459961e-01 1.000000000000000000e+00
-1.544046103954314908e-01 -1.546934723854064941e+00 2.462278455495834073e-01 6.100000000000000000e+01
-1.539937406778336126e-01 -1.537387967109679954e+00 3.003333508968353271e-01 6.300000000000000000e+01
-2.517524003982543945e+00 -2.508940505981444957e+01 -1.321482896804810014e+00 1.100000000000000000e+01
-1.508542150259017944e-01 -1.500762104988097922e+00 3.482242226600646973e-01 4.500000000000000000e+01
-1.511613577604294101e-01 -1.501184701919556108e+00 4.042753577232360840e-01 6.500000000000000000e+01
-7.888529449701309204e-02 -7.725874781608581543e-01 -2.080905139446259100e-01 6.000000000000000000e+00
-3.291204273700714111e-01 -3.212245941162108931e+00 -7.454878091812133789e-01 9.000000000000000000e+00
-1.635408848524093905e-01 -1.593431353569030984e+00 8.394687622785568237e-02 1.100000000000000000e+01
-3.958778977394104004e-01 -3.857165336608887163e+00 -7.536955475807189941e-01 9.000000000000000000e+00
-1.591404974460602084e-01 -1.547896981239319070e+00 1.361372768878937045e-01 2.600000000000000000e+01
-5.075391530990600586e-01 -4.928178787231445312e+00 -7.846753001213073730e-01 7.000000000000000000e+00
-1.597070991992949884e-01 -1.548096179962157981e+00 1.910911351442337036e-01 4.300000000000000000e+01
-7.319369316101074219e-01 -7.082807540893554688e+00 -8.742906451225280762e-01 1.000000000000000000e+00
-1.604126393795012873e-01 -1.552281022071837935e+00 2.471664547920227051e-01 5.500000000000000000e+01
-1.609791964292525968e-01 -1.552463293075561968e+00 3.033863008022307794e-01 5.800000000000000000e+01
-2.603848934173583984e+00 -2.506854438781737926e+01 -1.320854902267456055e+00 1.100000000000000000e+01
-1.575036197900772095e-01 -1.513794302940369096e+00 3.513735532760620117e-01 4.500000000000000000e+01
-1.572015732526778897e-01 -1.508333683013916016e+00 4.063459038734436035e-01 6.500000000000000000e+01
-3.417145907878875732e-01 -3.218769550323485884e+00 -7.472873926162719727e-01 9.000000000000000000e+00
-4.102200567722321112e-01 -3.857640504837036133e+00 -7.540771365165710449e-01 9.000000000000000000e+00
-5.243409872055053711e-01 -4.914499759674072266e+00 -7.827980518341064453e-01 9.000000000000000000e+00
-1.670676469802855890e-01 -1.563291311264038086e+00 1.930410414934158048e-01 2.600000000000000000e+01
-7.562015056610107422e-01 -7.064286708831787109e+00 -8.723407387733459473e-01 1.000000000000000000e+00
-1.701625287532806119e-01 -1.587007880210876021e+00 2.527981102466583252e-01 4.800000000000000000e+01
-1.685549914836884100e-01 -1.569431185722351074e+00 3.068208694458007812e-01 6.000000000000000000e+01
-2.698703050613402876e+00 -2.508663368225098012e+01 -1.322320222854614036e+00 1.100000000000000000e+01
-1.661824733018875122e-01 -1.542269706726073997e+00 3.581220805644989014e-01 4.500000000000000000e+01
-1.621069461107254028e-01 -1.501985311508178933e+00 4.047929942607880194e-01 6.100000000000000000e+01
-3.520981669425963800e-01 -3.209808588027954102e+00 -7.454878091812133789e-01 9.000000000000000000e+00
-4.245408773422241211e-01 -3.863991260528564009e+00 -7.556036114692687988e-01 9.000000000000000000e+00
-5.397612452507019043e-01 -4.896931648254395419e+00 -7.802951335906982422e-01 7.000000000000000000e+00
-7.847830653190612793e-01 -7.097119331359863281e+00 -8.767280578613281250e-01 1.000000000000000000e+00
-1.793978661298752109e-01 -1.619781494140625000e+00 2.581168711185454767e-01 4.900000000000000000e+01
-1.751145869493483942e-01 -1.578589677810668945e+00 3.087289631366729736e-01 7.600000000000000000e+01
-2.785814046859741211e+00 -2.507309150695801137e+01 -1.322110891342163086e+00 1.100000000000000000e+01
-1.758756637573241910e-01 -1.580415964126586914e+00 3.671201169490814209e-01 4.600000000000000000e+01
-1.686825901269912997e-01 -1.510980725288390891e+00 4.073811769485474188e-01 5.700000000000000000e+01
-3.623025119304656982e-01 -3.204750537872314009e+00 -7.445880174636840820e-01 9.000000000000000000e+00
-4.375728964805603027e-01 -3.864512920379639116e+00 -7.559852600097656250e-01 9.000000000000000000e+00
-5.555512309074401855e-01 -4.891189575195313388e+00 -7.796693444252014160e-01 7.000000000000000000e+00
-8.074147701263427734e-01 -7.086588382720947266e+00 -8.757531046867370605e-01 1.000000000000000000e+00
-1.840963810682297030e-01 -1.613289713859558105e+00 2.571782469749451239e-01 3.900000000000000000e+01
-1.805713474750519076e-01 -1.579950809478759988e+00 3.091105818748474121e-01 7.700000000000000000e+01
-2.874395370483397993e+00 -2.511133766174316051e+01 -1.324623107910156028e+00 1.100000000000000000e+01
-1.743101030588150024e-01 -1.518120288848876953e+00 4.094517230987548828e-01 5.700000000000000000e+01
-3.730356097221375067e-01 -3.199594974517821822e+00 -7.436881661415100098e-01 9.000000000000000000e+00
-4.499214291572570801e-01 -3.853211879730225053e+00 -7.540771365165710449e-01 8.000000000000000000e+00
-5.749191045761108398e-01 -4.908840179443359375e+00 -7.827980518341064453e-01 9.000000000000000000e+00
-8.312202095985412598e-01 -7.075840473175048828e+00 -8.747781515121459961e-01 1.000000000000000000e+00
-1.894958764314650934e-01 -1.610675454139709029e+00 2.568653821945189875e-01 2.700000000000000000e+01
-1.872339844703674039e-01 -1.589059710502624956e+00 3.110186755657196045e-01 4.200000000000000000e+01
-2.961096525192261186e+00 -2.509321784973144887e+01 -1.324204325675963911e+00 1.100000000000000000e+01
-1.823330521583557129e-01 -1.540524125099181907e+00 4.156633913516997736e-01 7.200000000000000000e+01
-3.842020034790039062e-01 -3.198273420333861861e+00 -7.436881661415100098e-01 9.000000000000000000e+00
-4.633688926696776789e-01 -3.851618051528931108e+00 -7.540771365165710449e-01 8.000000000000000000e+00
-5.922873020172119141e-01 -4.908764362335205078e+00 -7.831109166145324707e-01 9.000000000000000000e+00
-8.559144735336303711e-01 -7.072896003723145419e+00 -8.747781515121459961e-01 1.000000000000000000e+00
-1.919882446527481079e-01 -1.586505413055419922e+00 2.531109750270844061e-01 6.000000000000000000e+00
-3.048188209533690962e+00 -2.507876396179198863e+01 -1.323994994163512962e+00 1.100000000000000000e+01
-1.893456876277923862e-01 -1.553301930427551047e+00 4.192868471145629883e-01 9.000000000000000000e+01
-3.967988193035125732e-01 -3.208516836166381836e+00 -7.463876008987426758e-01 9.000000000000000000e+00
-4.784998297691345215e-01 -3.863615512847899947e+00 -7.567484974861145020e-01 9.000000000000000000e+00
-6.074706315994262695e-01 -4.890984535217285156e+00 -7.806079983711242676e-01 9.000000000000000000e+00
-8.815796971321105957e-01 -7.077744483947753906e+00 -8.757531046867370605e-01 1.000000000000000000e+00
-3.136206626892089844e+00 -2.507193374633789062e+01 -1.324204325675963911e+00 1.100000000000000000e+01
-2.051579207181931097e-01 -1.637783288955688032e+00 3.810670971870421808e-01 8.000000000000000000e+00
-1.945559829473494928e-01 -1.548763871192931907e+00 4.182515740394591730e-01 8.600000000000000000e+01
-4.094717800617218018e-01 -3.218711137771606001e+00 -7.490870356559753418e-01 9.000000000000000000e+00
-4.902467727661132812e-01 -3.848289251327515093e+00 -7.540771365165710449e-01 9.000000000000000000e+00
-6.222867965698242188e-01 -4.871199131011962891e+00 -7.777921557426452637e-01 7.000000000000000000e+00
-1.949638724327087125e-01 -1.524041652679442915e+00 1.886537373065947931e-01 3.000000000000000000e+00
-9.098115563392639160e-01 -7.102190494537354404e+00 -8.791654706001281738e-01 1.000000000000000000e+00
-2.046144306659697931e-01 -1.592853665351867898e+00 3.121635019779204767e-01 1.000000000000000000e+00
-3.230839967727661133e+00 -2.511630058288573863e+01 -1.327135205268860085e+00 2.300000000000000000e+01
-2.071391195058822909e-01 -1.608065605163573997e+00 3.743185400962830145e-01 3.900000000000000000e+01
-5.609650135040283203e+00 -4.348901748657227273e+01 -7.653927206993103027e-01 1.100000000000000000e+01
-2.031507790088654120e-01 -1.574933886528014915e+00 4.254985153675078791e-01 8.400000000000000000e+01
-4.184305965900421143e-01 -3.199871540069580078e+00 -7.450379133224487305e-01 9.000000000000000000e+00
-5.052061676979064941e-01 -3.858234405517578125e+00 -7.563668489456176758e-01 8.000000000000000000e+00
-2.007441222667694092e-01 -1.530997037887573020e+00 1.350913941860198975e-01 1.000000000000000000e+00
-6.418582201004028320e-01 -4.888583183288574219e+00 -7.809208631515502930e-01 7.000000000000000000e+00
-1.958836168050765991e-01 -1.489893198013306108e+00 1.845101863145827970e-01 2.300000000000000000e+01
-9.320062398910522461e-01 -7.079289913177490234e+00 -8.767280578613281250e-01 1.000000000000000000e+00
-2.086096107959747037e-01 -1.582413077354430930e+00 2.527981102466583252e-01 1.000000000000000000e+00
-2.058053761720657071e-01 -1.559041500091552956e+00 3.056760132312775213e-01 1.100000000000000000e+01
-3.319539308547974077e+00 -2.511278915405273082e+01 -1.327553868293761985e+00 1.100000000000000000e+01
-2.109610885381698886e-01 -1.593809485435486062e+00 3.711692392826079767e-01 5.600000000000000000e+01
-5.768777847290039062e+00 -4.352467727661132812e+01 -7.663700580596923828e-01 1.100000000000000000e+01
-2.109315544366837103e-01 -1.591451048851012962e+00 4.301572442054749090e-01 7.300000000000000000e+01
-4.290788471698760986e-01 -3.194528818130493164e+00 -7.441380620002746582e-01 9.000000000000000000e+00
-5.186708569526672363e-01 -3.856447219848632812e+00 -7.563668489456176758e-01 8.000000000000000000e+00
-2.031619697809219083e-01 -1.508566856384276900e+00 1.331739723682404120e-01 8.000000000000000000e+00
-6.599746346473693848e-01 -4.894143581390380859e+00 -7.821723222732543945e-01 7.000000000000000000e+00
-2.021456509828568060e-01 -1.497069239616394043e+00 1.854851394891738892e-01 4.700000000000000000e+01
-9.567118883132934570e-01 -7.075993537902832031e+00 -8.767280578613281250e-01 1.000000000000000000e+00
-2.061804085969924927e-01 -1.524943232536315918e+00 2.437248975038527887e-01 7.000000000000000000e+00
-2.115099132061004916e-01 -1.560258984565735085e+00 3.060576319694519043e-01 4.500000000000000000e+01
-3.407716512680054155e+00 -2.510500717163085938e+01 -1.327763199806212935e+00 1.100000000000000000e+01
-2.131113559007644931e-01 -1.567960619926453081e+00 3.653205037117003839e-01 5.600000000000000000e+01
-2.170239388942719061e-01 -1.592581510543823020e+00 4.306748807430266779e-01 8.200000000000000000e+01
-4.410257041454315186e-01 -3.198802947998046875e+00 -7.454878091812133789e-01 9.000000000000000000e+00
-5.305183529853820801e-01 -3.842944383621215820e+00 -7.540771365165710449e-01 8.000000000000000000e+00
-2.037888467311859131e-01 -1.474296927452086958e+00 1.302106827497482022e-01 2.600000000000000000e+01
-6.754294037818908691e-01 -4.880069732666015625e+00 -7.802951335906982422e-01 7.000000000000000000e+00
-2.081876546144484919e-01 -1.502253413200377974e+00 1.862163543701171875e-01 5.700000000000000000e+01
-9.830428957939147949e-01 -7.084408283233642578e+00 -8.781905174255371094e-01 1.000000000000000000e+00
-2.098653018474579135e-01 -1.510481238365172896e+00 2.415348142385483066e-01 2.800000000000000000e+01
-2.164139151573180875e-01 -1.555622220039367898e+00 3.052943944931030273e-01 7.700000000000000000e+01
-3.494777441024779829e+00 -2.508900260925292969e+01 -1.327553868293761985e+00 1.100000000000000000e+01
-2.177756875753402988e-01 -1.561416983604430930e+00 3.639708161354064941e-01 5.900000000000000000e+01
-2.215116620063782016e-01 -1.584161281585692915e+00 4.286043345928192139e-01 9.700000000000000000e+01
-4.532805085182189941e-01 -3.204962253570557085e+00 -7.472873926162719727e-01 9.000000000000000000e+00
-5.447552800178527832e-01 -3.846900701522827148e+00 -7.552220225334167480e-01 9.000000000000000000e+00
-2.083744704723357877e-01 -1.469631195068358931e+00 1.298620551824569980e-01 4.200000000000000000e+01
-6.946811079978942871e-01 -4.893328189849854404e+00 -7.827980518341064453e-01 7.000000000000000000e+00
-2.148270308971405029e-01 -1.511344194412231001e+00 1.874350458383559903e-01 4.700000000000000000e+01
-1.007766127586364968e+00 -7.080934047698974609e+00 -8.781905174255371094e-01 1.000000000000000000e+00
-2.151514142751694003e-01 -1.511732578277587891e+00 2.418476790189743042e-01 4.700000000000000000e+01
-2.215654253959656039e-01 -1.552913665771483931e+00 3.049127757549285889e-01 7.600000000000000000e+01
-3.584592580795288086e+00 -2.509246826171875000e+01 -1.328391194343566895e+00 1.100000000000000000e+01
-2.246043533086777011e-01 -1.570292830467223899e+00 3.662203252315521240e-01 7.100000000000000000e+01
-2.251206487417221069e-01 -1.569992303848267046e+00 4.249808788299561102e-01 9.500000000000000000e+01
-4.639059007167816162e-01 -3.199503183364868164e+00 -7.463876008987426758e-01 9.000000000000000000e+00
-5.587442517280578613e-01 -3.848861455917357954e+00 -7.559852600097656250e-01 9.000000000000000000e+00
-2.149360775947571078e-01 -1.478753209114074929e+00 1.307336091995238980e-01 4.300000000000000000e+01
-7.094820141792297363e-01 -4.875235080718994141e+00 -7.802951335906982422e-01 9.000000000000000000e+00
-2.186702042818068903e-01 -1.500763416290282981e+00 1.862163543701171875e-01 9.000000000000000000e+00
-1.033050179481505904e+00 -7.081301689147949219e+00 -8.786779642105102539e-01 1.000000000000000000e+00
-2.198567241430282870e-01 -1.507063031196594016e+00 2.412219494581223089e-01 4.700000000000000000e+01
-2.247120738029479980e-01 -1.536590099334717019e+00 3.018598258495330811e-01 7.300000000000000000e+01
-3.669266462326049805e+00 -2.506004142761230113e+01 -1.327344536781311035e+00 1.100000000000000000e+01
-2.300843298435210904e-01 -1.569499254226685014e+00 3.662203252315521240e-01 7.100000000000000000e+01
-2.308804392814635953e-01 -1.571108341217041016e+00 4.254985153675078791e-01 1.000000000000000000e+02
-4.733359813690186102e-01 -3.182361125946044922e+00 -7.427883744239807129e-01 9.000000000000000000e+00
-5.737147927284240723e-01 -3.852613210678101030e+00 -7.571300864219665527e-01 8.000000000000000000e+00
-2.221173793077468872e-01 -1.489779233932494895e+00 1.317794770002365112e-01 3.400000000000000000e+01
-7.279291152954101562e-01 -4.876509666442871094e+00 -7.809208631515502930e-01 7.000000000000000000e+00
-2.232890576124191007e-01 -1.494061946868896040e+00 1.854851394891738892e-01 2.000000000000000000e+00
-1.056647419929503950e+00 -7.061761856079101562e+00 -8.767280578613281250e-01 1.000000000000000000e+00
-2.259635478258132935e-01 -1.510154366493225098e+00 2.418476790189743042e-01 5.000000000000000000e+01
-2.288864254951477051e-01 -1.526048421859740989e+00 2.999517321586608887e-01 7.100000000000000000e+01
-3.763464212417602983e+00 -2.506222534179687855e+01 -1.328181862831115945e+00 1.100000000000000000e+01
-2.340969443321228027e-01 -1.557082891464232954e+00 3.635208904743195135e-01 7.100000000000000000e+01
-2.360756844282149991e-01 -1.568382501602173074e+00 4.249808788299561102e-01 1.000000000000000000e+02
-4.847350120544434149e-01 -3.182615995407104048e+00 -7.432382702827453613e-01 9.000000000000000000e+00
-5.865675210952758789e-01 -3.846705675125122070e+00 -7.563668489456176758e-01 8.000000000000000000e+00
-2.291204184293746948e-01 -1.500812172889709029e+00 1.328253448009490967e-01 3.800000000000000000e+01
-7.458422780036926270e-01 -4.879796981811523438e+00 -7.818594574928283691e-01 9.000000000000000000e+00
-2.282026857137680054e-01 -1.491311192512511985e+00 1.852414011955260953e-01 1.100000000000000000e+01
-1.080088734626770020e+00 -7.050181388854979581e+00 -8.757531046867370605e-01 1.000000000000000000e+00
-2.306353151798248013e-01 -1.505451202392577903e+00 2.412219494581223089e-01 5.100000000000000000e+01
-2.345099151134490967e-01 -1.527180671691894975e+00 3.003333508968353271e-01 7.600000000000000000e+01
-3.858815193176269975e+00 -2.510026168823241832e+01 -1.330903410911560059e+00 1.100000000000000000e+01
-2.365662604570389072e-01 -1.536995649337768999e+00 3.590218722820281982e-01 7.400000000000000000e+01
-2.435897886753081998e-01 -1.578962206840514915e+00 4.280866980552672785e-01 1.000000000000000000e+02
-4.967853426933289129e-01 -3.190618753433227983e+00 -7.454878091812133789e-01 9.000000000000000000e+00
-5.978085398674011230e-01 -3.835040092468262163e+00 -7.544587850570678711e-01 9.000000000000000000e+00
-2.356320917606354037e-01 -1.509886980056762917e+00 1.336969137191771906e-01 3.500000000000000000e+01
-7.611053586006164551e-01 -4.871441841125488281e+00 -7.809208631515502930e-01 7.000000000000000000e+00
-2.319197058677673062e-01 -1.482701301574707031e+00 1.842664480209350863e-01 3.700000000000000000e+01
-1.102233529090880904e+00 -7.038716316223145419e+00 -8.747781515121459961e-01 1.000000000000000000e+00
-2.331814169883728027e-01 -1.489065408706665039e+00 2.387189865112304965e-01 4.900000000000000000e+01
-2.401817589998244962e-01 -1.530273675918579102e+00 3.010965883731842041e-01 7.300000000000000000e+01
-3.943269729614257812e+00 -2.509522056579589844e+01 -1.331322073936461958e+00 1.100000000000000000e+01
-2.419646531343460083e-01 -1.538127779960632102e+00 3.594717979431151789e-01 8.000000000000000000e+01
-2.470463216304779053e-01 -1.568647503852844016e+00 4.254985153675078791e-01 1.000000000000000000e+02
-5.091457962989807129e-01 -3.196563243865966797e+00 -7.472873926162719727e-01 9.000000000000000000e+00
-6.111916899681091309e-01 -3.832930088043212891e+00 -7.544587850570678711e-01 9.000000000000000000e+00
-2.405870705842972079e-01 -1.507087826728821023e+00 1.335225999355315885e-01 3.400000000000000000e+01
-7.768582701683044434e-01 -4.860952854156494141e+00 -7.796693444252014160e-01 7.000000000000000000e+00
-2.386619746685028076e-01 -1.491683483123779075e+00 1.854851394891738892e-01 5.000000000000000000e+01
-1.131191968917846902e+00 -7.062267303466796875e+00 -8.781905174255371094e-01 1.000000000000000000e+00
-2.405141144990921021e-01 -1.499903440475464089e+00 2.405962049961090088e-01 5.000000000000000000e+01
-2.430325001478194913e-01 -1.513918519020081010e+00 2.980436384677886963e-01 8.300000000000000000e+01
-4.028943061828613281e+00 -2.506947135925292969e+01 -1.330694079399109109e+00 1.100000000000000000e+01
-2.491895556449890137e-01 -1.548817753791809082e+00 3.621712028980255127e-01 8.300000000000000000e+01
-2.509488165378571112e-01 -1.556288242340087891e+00 4.223926961421967108e-01 9.700000000000000000e+01
-5.203689932823181152e-01 -3.198704004287720171e+00 -7.481871843338012695e-01 9.000000000000000000e+00
-6.261078119277954102e-01 -3.844446182250977007e+00 -7.571300864219665527e-01 9.000000000000000000e+00
-2.465452402830123901e-01 -1.512180924415587935e+00 1.340455263853073120e-01 2.800000000000000000e+01
-7.948827743530273438e-01 -4.870047569274902344e+00 -7.815465927124023438e-01 9.000000000000000000e+00
-2.426469177007674893e-01 -1.485006570816040039e+00 1.847539246082305908e-01 5.400000000000000000e+01
-1.155886888504028098e+00 -7.066313743591308594e+00 -8.791654706001281738e-01 1.000000000000000000e+00
-2.458627820014953891e-01 -1.503039360046386941e+00 2.412219494581223089e-01 5.000000000000000000e+01
-2.483690977096557895e-01 -1.515041589736938032e+00 2.984252572059630793e-01 8.500000000000000000e+01
-4.109466552734375000e+00 -2.504020500183105113e+01 -1.329856634140015093e+00 1.100000000000000000e+01
-2.562198340892791748e-01 -1.559520721435547097e+00 3.648706078529357910e-01 8.300000000000000000e+01
-2.570908963680266779e-01 -1.563117146492003950e+00 4.244632422924041748e-01 1.000000000000000000e+02
-5.292940139770507812e-01 -3.183411836624145952e+00 -7.450379133224487305e-01 9.000000000000000000e+00
-6.388789415359497070e-01 -3.838364124298096147e+00 -7.563668489456176758e-01 8.000000000000000000e+00
-2.521497011184691828e-01 -1.513276457786560059e+00 1.342198401689528864e-01 7.000000000000000000e+00
-8.099274635314941406e-01 -4.855552196502686435e+00 -7.796693444252014160e-01 7.000000000000000000e+00
-2.461943179368973056e-01 -1.474360585212707964e+00 1.835352331399917880e-01 4.400000000000000000e+01
-1.179236769676208052e+00 -7.054404258728027344e+00 -8.781905174255371094e-01 1.000000000000000000e+00
-2.523481547832489014e-01 -1.507973074913024902e+00 2.421605587005614957e-01 4.600000000000000000e+01
-2.539804279804229736e-01 -1.516101717948914018e+00 2.988068759441375732e-01 8.300000000000000000e+01
-4.205436706542968750e+00 -2.507692146301269887e+01 -1.332578063011168990e+00 1.100000000000000000e+01
-2.597261667251586914e-01 -1.547085762023926003e+00 3.621712028980255127e-01 8.100000000000000000e+01
-2.631388008594512939e-01 -1.564069390296936035e+00 4.249808788299561102e-01 9.500000000000000000e+01
-5.404029488563537598e-01 -3.181544780731201172e+00 -7.450379133224487305e-01 9.000000000000000000e+00
-6.506279706954956055e-01 -3.826433181762694868e+00 -7.544587850570678711e-01 9.000000000000000000e+00
-8.288624286651611328e-01 -4.864379405975341797e+00 -7.815465927124023438e-01 6.000000000000000000e+00
-2.550109326839447021e-01 -1.495017409324645996e+00 1.862163543701171875e-01 4.700000000000000000e+01
-1.199844479560852051e+00 -7.026763439178466797e+00 -8.752655982971191406e-01 1.000000000000000000e+00
-2.583448588848114014e-01 -1.512969493865967019e+00 2.430991530418395996e-01 4.600000000000000000e+01
-2.589399516582489014e-01 -1.513270735740662065e+00 2.984252572059630793e-01 7.900000000000000000e+01
-4.295643329620361328e+00 -2.507783699035644887e+01 -1.333415508270263894e+00 1.100000000000000000e+01
-2.651249170303344727e-01 -1.546169757843018022e+00 3.621712028980255127e-01 7.400000000000000000e+01
-2.693044841289520264e-01 -1.568900227546691895e+00 4.265337884426116943e-01 9.000000000000000000e+01
-5.508392453193664551e-01 -3.175798892974853960e+00 -7.441380620002746582e-01 9.000000000000000000e+00
-6.646524667739868164e-01 -3.828007459640502930e+00 -7.552220225334167480e-01 9.000000000000000000e+00
-8.454986214637756348e-01 -4.859510421752929688e+00 -7.812337279319763184e-01 1.000000000000000000e+00
-2.615903913974761963e-01 -1.501940727233886941e+00 1.871913075447083075e-01 5.700000000000000000e+01
-1.228456616401671919e+00 -7.045999526977539062e+00 -8.781905174255371094e-01 1.000000000000000000e+00
-2.604921758174896240e-01 -1.492552876472472922e+00 2.399704754352570135e-01 3.800000000000000000e+01
-2.662479579448699951e-01 -1.523961424827575906e+00 3.007149696350098211e-01 7.700000000000000000e+01
-4.381778717041015625e+00 -2.505482101440430043e+01 -1.332996845245361106e+00 1.100000000000000000e+01
-2.691762447357177734e-01 -1.537556648254394975e+00 3.603715896606444757e-01 6.900000000000000000e+01
-2.757205665111541748e-01 -1.571708321571350098e+00 4.275690615177155096e-01 8.600000000000000000e+01
-5.632804632186889648e-01 -3.181532382965087891e+00 -7.459377050399780273e-01 9.000000000000000000e+00
-6.769828200340270996e-01 -3.819864749908446822e+00 -7.540771365165710449e-01 8.000000000000000000e+00
-8.783445954322814941e-01 -4.945997238159179688e+00 -7.956256866455078125e-01 1.000000000000000000e+00
-2.671789824962615967e-01 -1.502972841262816939e+00 1.874350458383559903e-01 5.100000000000000000e+01
-1.253044247627258079e+00 -7.041668891906738281e+00 -8.781905174255371094e-01 1.000000000000000000e+00
-2.695931196212769110e-01 -1.515018701553344949e+00 2.437248975038527887e-01 2.700000000000000000e+01
-2.719105780124663752e-01 -1.524955511093140093e+00 3.010965883731842041e-01 6.800000000000000000e+01
-4.467806339263916016e+00 -2.503150749206542969e+01 -1.332578063011168990e+00 1.100000000000000000e+01
-2.779691815376281738e-01 -1.555791258811950906e+00 3.648706078529357910e-01 6.600000000000000000e+01
-2.792304754257202148e-01 -1.561276912689208984e+00 4.249808788299561102e-01 7.300000000000000000e+01
-5.764612555503845215e-01 -3.191052913665771040e+00 -7.486370801925659180e-01 9.000000000000000000e+00
-6.903125047683715820e-01 -3.817478179931641069e+00 -7.540771365165710449e-01 6.000000000000000000e+00
-8.822210431098937988e-01 -4.869039058685302734e+00 -7.837366461753845215e-01 3.000000000000000000e+00
-2.745492756366729736e-01 -1.513750433921813965e+00 1.888974756002425870e-01 3.700000000000000000e+01
-1.276198267936706987e+00 -7.029438972473145419e+00 -8.772155046463012695e-01 1.000000000000000000e+00
-2.793825566768646240e-01 -1.537342905998229980e+00 2.474793195724487027e-01 2.200000000000000000e+01
-1.881678938865662065e+00 -1.035420989990234020e+01 -9.207132458686828613e-01 2.000000000000000000e+00
-2.754751443862915039e-01 -1.514339327812195046e+00 2.991884946823120117e-01 7.800000000000000000e+01
-4.560164451599121094e+00 -2.504326820373535156e+01 -1.334043502807616965e+00 2.300000000000000000e+01
-2.833982110023499090e-01 -1.554811477661133035e+00 3.648706078529357910e-01 6.000000000000000000e+01
-2.866863608360291082e-01 -1.569745063781738059e+00 4.275690615177155096e-01 6.900000000000000000e+01
-5.840653777122497559e-01 -3.169856548309326172e+00 -7.441380620002746582e-01 9.000000000000000000e+00
-6.922389268875122070e-01 -3.753263235092163086e+00 -7.418653964996337891e-01 1.000000000000000000e+00
-8.963400125503540039e-01 -4.850389957427979404e+00 -7.812337279319763184e-01 4.000000000000000000e+00
-2.794705033302307129e-01 -1.510830879211426003e+00 1.886537373065947931e-01 1.900000000000000000e+01
-1.297836542129517046e+00 -7.009326457977294922e+00 -8.752655982971191406e-01 1.000000000000000000e+00
-2.866369187831879217e-01 -1.548062205314636008e+00 2.493565380573272983e-01 3.300000000000000000e+01
-1.917810320854187012e+00 -1.034757900238036932e+01 -9.207132458686828613e-01 2.000000000000000000e+00
-2.839824855327606201e-01 -1.530741453170775923e+00 3.026230633258820135e-01 7.300000000000000000e+01
-4.647553920745849609e+00 -2.502719879150390980e+01 -1.334043502807616965e+00 1.100000000000000000e+01
-2.895360589027404785e-01 -1.557644605636596902e+00 3.657703995704650879e-01 5.900000000000000000e+01
-2.933037579059600830e-01 -1.576382756233215110e+00 4.296396076679229736e-01 6.400000000000000000e+01
-5.944070219993591309e-01 -3.163967847824097124e+00 -7.432382702827453613e-01 9.000000000000000000e+00
-9.143628478050231934e-01 -4.853055477142333984e+00 -7.821723222732543945e-01 7.000000000000000000e+00
-2.895250618457794189e-01 -1.535205364227294922e+00 1.918223500251770020e-01 1.000000000000000000e+00
-1.324136853218079057e+00 -7.014506340026854581e+00 -8.764843344688415527e-01 1.000000000000000000e+00
-2.931381762027739923e-01 -1.552875518798827903e+00 2.502951323986052912e-01 7.000000000000000000e+00
-1.939121723175049050e+00 -1.026251125335693004e+01 -9.137408137321472168e-01 2.000000000000000000e+00
-2.907834351062775213e-01 -1.537456989288330078e+00 3.041495382785797119e-01 7.000000000000000000e+01
-4.750490188598632812e+00 -2.509324455261230113e+01 -1.338439702987670898e+00 1.100000000000000000e+01
-2.927945852279663086e-01 -1.545136451721190962e+00 3.630709946155548096e-01 5.900000000000000000e+01
-2.984445691108704168e-01 -1.573451399803162065e+00 4.291219711303710938e-01 4.800000000000000000e+01
-6.058142185211181641e-01 -3.163787841796875000e+00 -7.436881661415100098e-01 5.000000000000000000e+00
-9.301800131797790527e-01 -4.844014167785645419e+00 -7.812337279319763184e-01 9.000000000000000000e+00
-1.345613718032836914e+00 -6.994246959686279297e+00 -8.745344281196594238e-01 1.000000000000000000e+00
-1.958355665206908958e+00 -1.016959667205811080e+01 -9.060711264610290527e-01 8.000000000000000000e+00
-2.987494468688964844e-01 -1.549926996231079102e+00 3.068208694458007812e-01 6.600000000000000000e+01
-4.828215599060058594e+00 -2.502552032470703125e+01 -1.335718274116515891e+00 1.100000000000000000e+01
-3.015118241310120184e-01 -1.561325550079345925e+00 3.671201169490814209e-01 5.100000000000000000e+01
-3.083346486091613770e-01 -1.595160961151123047e+00 4.353336393833159845e-01 2.800000000000000000e+01
-9.451866745948791504e-01 -4.831044673919677734e+00 -7.796693444252014160e-01 9.000000000000000000e+00
-1.370020031929015891e+00 -6.989507198333740234e+00 -8.745344281196594238e-01 1.000000000000000000e+00
