2.361840248107910156e+00 -5.967603325843811035e-01 -6.527416110038757324e-01 1.800000000000000000e+01
2.712887048721313032e+00 -6.864659190177917480e-01 -6.460594534873962402e-01 1.400000000000000000e+01
3.197348594665526900e+00 -8.096473813056945801e-01 -6.411182284355163574e-01 1.100000000000000000e+01
3.879315376281737837e+00 -9.837792515754699707e-01 -6.338724493980407715e-01 1.100000000000000000e+01
4.988965034484863281e+00 -1.267035722732543945e+00 -6.320143938064575195e-01 9.000000000000000000e+00
6.714086055755615234e+00 -1.706408143043518066e+00 -6.060810089111328125e-01 5.000000000000000000e+00
1.069777107238770064e+01 -2.722851276397705078e+00 -5.785216689109802246e-01 3.000000000000000000e+00
3.575768280029296875e+01 -9.107872962951660156e+00 8.518896102905273438e+00 1.100000000000000000e+01
3.658064651489257812e+01 -9.324290275573730469e+00 1.011516571044922053e+01 8.000000000000000000e+00
2.365356683731079102e+00 -6.064403653144836426e-01 -6.542945504188537598e-01 1.900000000000000000e+01
2.731236934661864790e+00 -7.012624740600585938e-01 -6.510083675384521484e-01 1.500000000000000000e+01
3.198306083679199219e+00 -8.217804431915283203e-01 -6.418814659118652344e-01 1.200000000000000000e+01
3.879683971405028853e+00 -9.982991218566894531e-01 -6.344981789588928223e-01 1.100000000000000000e+01
3.621575164794921875e+01 -9.325579643249511719e+00 4.591793060302734375e+00 1.900000000000000000e+01
5.005657196044921875e+00 -1.289891600608825906e+00 -6.346955299377441406e-01 1.000000000000000000e+01
6.710018157958984375e+00 -1.730331778526305930e+00 -6.062553524971008301e-01 6.000000000000000000e+00
1.066886329650879084e+01 -2.755182743072510210e+00 -5.774749517440795898e-01 3.000000000000000000e+00
3.566907119750977273e+01 -9.218007087707519531e+00 8.505399703979492188e+00 1.100000000000000000e+01
3.631057739257813211e+01 -9.397315025329589844e+00 1.004994392395020064e+01 8.000000000000000000e+00
2.353770494461060014e+00 -6.126726269721984863e-01 -6.517063379287719727e-01 1.700000000000000000e+01
2.730534076690673828e+00 -7.117597460746765137e-01 -6.514582633972167969e-01 1.400000000000000000e+01
3.197172164916992188e+00 -8.339928388595581055e-01 -6.422630548477172852e-01 1.200000000000000000e+01
3.887466430664062944e+00 -1.015507817268372026e+00 -6.363754272460937500e-01 1.100000000000000000e+01
3.593165588378906250e+01 -9.392987251281738281e+00 4.560107231140136719e+00 1.900000000000000000e+01
5.006657600402832031e+00 -1.309736847877501997e+00 -6.354267597198486328e-01 9.000000000000000000e+00
3.640201568603516336e+01 -9.522732734680175781e+00 5.959527492523193359e+00 1.300000000000000000e+01
6.697848796844482422e+00 -1.753399848937988059e+00 -6.057324409484863281e-01 5.000000000000000000e+00
1.067801284790039062e+01 -2.799332380294799805e+00 -5.785216689109802246e-01 3.000000000000000000e+00
3.629249954223632812e+01 -9.527930259704589844e+00 1.005408477783202947e+01 8.000000000000000000e+00
2.353485345840454102e+00 -6.213782429695129395e-01 -6.522240042686462402e-01 1.900000000000000000e+01
2.712960958480834961e+00 -7.173017859458923340e-01 -6.478590369224548340e-01 1.400000000000000000e+01
3.198037385940552202e+00 -8.461523056030273438e-01 -6.430262923240661621e-01 1.200000000000000000e+01
3.880078792572021040e+00 -1.028059482574462891e+00 -6.357496380805969238e-01 1.100000000000000000e+01
3.596772766113281250e+01 -9.536669731140136719e+00 4.568881511688232422e+00 1.900000000000000000e+01
5.005892276763916016e+00 -1.328223466873168945e+00 -6.359142065048217773e-01 9.000000000000000000e+00
3.601557159423828125e+01 -9.562812805175781250e+00 5.901959419250488281e+00 1.300000000000000000e+01
6.689761638641357422e+00 -1.776257753372191939e+00 -6.055580973625183105e-01 5.000000000000000000e+00
1.066817665100098012e+01 -2.836588621139525923e+00 -5.785216689109802246e-01 3.000000000000000000e+00
3.610053253173828125e+01 -9.619103431701660156e+00 1.001060295104979936e+01 8.000000000000000000e+00
2.356900215148925781e+00 -6.310886740684509277e-01 -6.537768840789794922e-01 1.900000000000000000e+01
4.230690383911132812e+01 -1.133610057830811080e+01 7.645201086997985840e-01 4.500000000000000000e+01
2.702911615371704102e+00 -7.247486114501953125e-01 -6.460594534873962402e-01 1.400000000000000000e+01
3.202649116516112837e+00 -8.593455553054809570e-01 -6.445527672767639160e-01 1.200000000000000000e+01
3.872651100158690962e+00 -1.040572047233581987e+00 -6.351239085197448730e-01 1.100000000000000000e+01
5.005059242248535156e+00 -1.346720814704895020e+00 -6.364017128944396973e-01 9.000000000000000000e+00
3.579291152954102273e+01 -9.630866050720214844e+00 5.870672702789306641e+00 1.300000000000000000e+01
6.695064067840576172e+00 -1.802706718444823997e+00 -6.066039800643920898e-01 5.000000000000000000e+00
1.067749404907226918e+01 -2.879009962081909180e+00 -5.795683860778808594e-01 3.000000000000000000e+00
2.618611907958984020e+01 -7.070460319519042969e+00 -4.734488725662230890e-01 4.000000000000000000e+00
3.613184738159179688e+01 -9.755886077880859375e+00 1.002820301055908025e+01 8.000000000000000000e+00
2.360275983810424805e+00 -6.408304572105407715e-01 -6.553298234939575195e-01 1.900000000000000000e+01
2.711647987365723100e+00 -7.372466921806335449e-01 -6.487588286399841309e-01 1.400000000000000000e+01
4.019764328002929688e+01 -1.093652629852294922e+01 2.183246850967406782e+00 2.700000000000000000e+01
3.195841073989868164e+00 -8.694888353347778320e-01 -6.437895298004150391e-01 1.200000000000000000e+01
3.876619100570679155e+00 -1.056160807609558105e+00 -6.363754272460937500e-01 1.100000000000000000e+01
3.641354370117188211e+01 -9.927471160888671875e+00 4.634203433990479404e+00 1.900000000000000000e+01
5.006073474884033203e+00 -1.365750908851623979e+00 -6.371329426765441895e-01 1.000000000000000000e+01
6.723327159881591797e+00 -1.835510969161987083e+00 -6.097415685653686523e-01 5.000000000000000000e+00
1.071747016906737926e+01 -2.929957628250122070e+00 -5.822898745536804199e-01 3.000000000000000000e+00
3.840805435180664062e+01 -1.051446056365966975e+01 1.067007350921631037e+01 9.000000000000000000e+00
2.352437019348144975e+00 -6.475273966789245605e-01 -6.537768840789794922e-01 1.900000000000000000e+01
2.718451499938964844e+00 -7.492967844009399414e-01 -6.510083675384521484e-01 1.500000000000000000e+01
3.181431055068970171e+00 -8.775070309638977051e-01 -6.414998173713684082e-01 1.200000000000000000e+01
3.878620862960814986e+00 -1.071264028549193892e+00 -6.373140215873718262e-01 1.200000000000000000e+01
4.985969543457031250e+00 -1.378983855247498003e+00 -6.351830363273620605e-01 1.000000000000000000e+01
3.819802856445313211e+01 -1.057171535491943004e+01 6.277402400970458984e+00 1.400000000000000000e+01
6.688076019287109375e+00 -1.850996971130371094e+00 -6.071268916130065918e-01 5.000000000000000000e+00
3.611894226074218750e+01 -1.000309276580811080e+01 7.285087585449218750e+00 6.200000000000000000e+01
1.075337028503417969e+01 -2.980152368545531782e+00 -5.848019719123840332e-01 3.000000000000000000e+00
3.565705108642578125e+01 -9.895277976989746094e+00 9.915357589721679688e+00 7.000000000000000000e+00
2.350162506103516069e+00 -6.557350158691406250e-01 -6.537768840789794922e-01 2.000000000000000000e+01
4.638077163696289062e+01 -1.294974422454833984e+01 8.405427932739257812e-01 5.800000000000000000e+01
2.715819358825684038e+00 -7.587813735008239746e-01 -6.510083675384521484e-01 1.500000000000000000e+01
3.184020757675170898e+00 -8.901928067207336426e-01 -6.426447033882141113e-01 1.300000000000000000e+01
3.872955560684204102e+00 -1.084263801574707031e+00 -6.370011568069458008e-01 1.100000000000000000e+01
3.673711776733397727e+01 -1.029175472259520951e+01 4.684413909912109375e+00 2.000000000000000000e+01
4.998328208923339844e+00 -1.401202201843261941e+00 -6.373766660690307617e-01 9.000000000000000000e+00
6.691165924072265625e+00 -1.877022147178649902e+00 -6.079984903335571289e-01 6.000000000000000000e+00
1.075059318542479936e+01 -3.019831180572510210e+00 -5.852206349372863770e-01 3.000000000000000000e+00
3.823924255371093750e+01 -1.074856662750243963e+01 9.170354843139648438e+00 1.200000000000000000e+01
3.547177505493164062e+01 -9.984027862548828125e+00 9.873946189880371094e+00 7.000000000000000000e+00
2.349718093872069868e+00 -6.644603013992309570e-01 -6.542945504188537598e-01 1.900000000000000000e+01
2.722529411315917969e+00 -7.709113955497741699e-01 -6.532578468322753906e-01 1.400000000000000000e+01
3.188449621200561968e+00 -9.034425020217895508e-01 -6.441711783409118652e-01 1.200000000000000000e+01
3.869147300720214844e+00 -1.097776412963866965e+00 -6.370011568069458008e-01 1.100000000000000000e+01
3.692248535156250000e+01 -1.048281955718993963e+01 4.712687492370604581e+00 2.000000000000000000e+01
5.006772994995117188e+00 -1.422438621520996094e+00 -6.390828490257263184e-01 1.000000000000000000e+01
6.699904918670654297e+00 -1.904725909233093040e+00 -6.093929409980773926e-01 5.000000000000000000e+00
3.519847869873046875e+01 -1.001326847076416016e+01 7.113359451293945312e+00 6.100000000000000000e+01
1.080914115905762074e+01 -3.077025175094604048e+00 -5.889888405799865723e-01 3.000000000000000000e+00
3.801407241821289062e+01 -1.082859325408936080e+01 9.125364303588867188e+00 1.200000000000000000e+01
3.852993392944335938e+01 -1.098281097412109020e+01 1.073529624938965021e+01 9.000000000000000000e+00
2.349241495132445845e+00 -6.731904745101928711e-01 -6.548121571540832520e-01 1.800000000000000000e+01
4.628923416137695312e+01 -1.327322483062743963e+01 8.405427932739257812e-01 5.800000000000000000e+01
2.701090097427368164e+00 -7.750353813171386719e-01 -6.487588286399841309e-01 1.400000000000000000e+01
3.192824602127075195e+00 -9.167339801788330078e-01 -6.456976532936096191e-01 1.200000000000000000e+01
3.859596252441405806e+00 -1.109638094902039018e+00 -6.360625624656677246e-01 1.100000000000000000e+01
3.685514450073242188e+01 -1.060285854339599965e+01 4.708787918090820312e+00 2.000000000000000000e+01
5.003684997558593750e+00 -1.440456032752990945e+00 -6.393265724182128906e-01 9.000000000000000000e+00
6.714274883270263672e+00 -1.934167981147765891e+00 -6.113103628158569336e-01 3.000000000000000000e+00
1.079833412170409979e+01 -3.114737510681151900e+00 -5.889888405799865723e-01 3.000000000000000000e+00
3.751882171630858664e+01 -1.083634567260742010e+01 1.046405410766601918e+01 9.000000000000000000e+00
2.347115039825439009e+00 -6.805675029754638672e-01 -6.548121571540832520e-01 1.800000000000000000e+01
2.700513362884521040e+00 -7.840605974197387695e-01 -6.492087244987487793e-01 1.300000000000000000e+01
3.180502414703369141e+00 -9.240213632583618164e-01 -6.437895298004150391e-01 1.200000000000000000e+01
3.873162031173706055e+00 -1.126723885536194070e+00 -6.388783454895019531e-01 1.100000000000000000e+01
3.634515762329102273e+01 -1.057988452911376953e+01 4.647852897644042969e+00 1.900000000000000000e+01
4.991511344909667969e+00 -1.453947782516479048e+00 -6.383516192436218262e-01 9.000000000000000000e+00
6.710078239440917969e+00 -1.955809473991394043e+00 -6.114847064018249512e-01 2.000000000000000000e+00
3.541400527954102273e+01 -1.032894706726074041e+01 7.170601844787597656e+00 6.100000000000000000e+01
1.078849601745604936e+01 -3.148645877838135210e+00 -5.889888405799865723e-01 3.000000000000000000e+00
2.709063911437987926e+01 -7.916725158691406250e+00 -4.926465153694152832e-01 4.000000000000000000e+00
3.845624542236328125e+01 -1.123810768127441051e+01 1.073529624938965021e+01 9.000000000000000000e+00
2.342871665954589844e+00 -6.882117986679077148e-01 -6.542945504188537598e-01 1.900000000000000000e+01
2.703368663787841797e+00 -7.951320409774780273e-01 -6.505584716796875000e-01 1.400000000000000000e+01
3.173490762710570845e+00 -9.340091347694396973e-01 -6.430262923240661621e-01 1.200000000000000000e+01
3.865415811538695845e+00 -1.139120101928710938e+00 -6.382526159286499023e-01 1.100000000000000000e+01
3.626611709594727273e+01 -1.069433593750000000e+01 4.642490863800048828e+00 1.900000000000000000e+01
4.994021415710449219e+00 -1.473609805107116921e+00 -6.393265724182128906e-01 9.000000000000000000e+00
6.680280208587645596e+00 -1.972449660301208052e+00 -6.093929409980773926e-01 2.000000000000000000e+00
3.523464202880858664e+01 -1.041022491455077947e+01 7.141599178314208984e+00 6.100000000000000000e+01
1.081574535369873047e+01 -3.197610616683959961e+00 -5.910822749137878418e-01 3.000000000000000000e+00
3.825920486450195312e+01 -1.133289241790770951e+01 1.069181442260742010e+01 9.000000000000000000e+00
2.342306613922119141e+00 -6.969367265701293945e-01 -6.548121571540832520e-01 1.900000000000000000e+01
2.708047151565552202e+00 -8.067893385887145996e-01 -6.523580551147460938e-01 1.300000000000000000e+01
3.179618358612060991e+00 -9.478853940963745117e-01 -6.449344158172607422e-01 1.300000000000000000e+01
3.865201711654663086e+00 -1.153735876083374023e+00 -6.388783454895019531e-01 1.100000000000000000e+01
5.002161026000976562e+00 -1.495012283325195090e+00 -6.410327553749084473e-01 1.100000000000000000e+01
3.645817565917968750e+01 -1.090330696105957031e+01 6.027107238769531250e+00 1.300000000000000000e+01
6.684807777404785156e+00 -1.999181389808655007e+00 -6.104388236999511719e-01 3.000000000000000000e+00
1.080451774597167969e+01 -3.235345125198363814e+00 -5.910822749137878418e-01 3.000000000000000000e+00
3.893939590454102273e+01 -1.167497062683104936e+01 1.089265823364257990e+01 1.000000000000000000e+01
2.341709375381470171e+00 -7.056660652160644531e-01 -6.553298234939575195e-01 1.900000000000000000e+01
2.708945751190185991e+00 -8.173630833625793457e-01 -6.532578468322753906e-01 1.400000000000000000e+01
3.181928634643555132e+00 -9.606809020042419434e-01 -6.460792422294616699e-01 1.200000000000000000e+01
3.849805593490601030e+00 -1.163791298866271973e+00 -6.370011568069458008e-01 1.100000000000000000e+01
5.008311748504638672e+00 -1.515914440155029075e+00 -6.424951553344726562e-01 1.100000000000000000e+01
6.715925693511962891e+00 -2.034054040908813032e+00 -6.139250397682189941e-01 3.000000000000000000e+00
1.081227111816406072e+01 -3.278836250305175781e+00 -5.921289920806884766e-01 3.000000000000000000e+00
3.847324371337891336e+01 -1.168173122406006037e+01 1.077360153198242010e+01 9.000000000000000000e+00
2.344774961471558061e+00 -7.155273556709289551e-01 -6.568827629089355469e-01 1.900000000000000000e+01
2.698621511459351030e+00 -8.245363831520080566e-01 -6.514582633972167969e-01 1.400000000000000000e+01
3.187943220138549805e+00 -9.746520519256591797e-01 -6.479873657226562500e-01 1.200000000000000000e+01
3.847608566284180132e+00 -1.177800774574280007e+00 -6.373140215873718262e-01 1.100000000000000000e+01
3.633815002441406250e+01 -1.113049507141112926e+01 4.666377067565917969e+00 2.000000000000000000e+01
5.001091957092285156e+00 -1.532805800437927024e+00 -6.422514319419860840e-01 9.000000000000000000e+00
6.685926437377929688e+00 -2.050474643707274947e+00 -6.118333339691162109e-01 5.000000000000000000e+00
1.078166770935058949e+01 -3.310695409774779829e+00 -5.910822749137878418e-01 3.000000000000000000e+00
3.897892379760742188e+01 -1.197659111022949041e+01 9.414201736450195312e+00 1.200000000000000000e+01
3.923522186279296875e+01 -1.207033061981200994e+01 1.099929141998291016e+01 1.000000000000000000e+01
2.355183362960814986e+00 -7.276998758316040039e-01 -6.605061888694763184e-01 1.900000000000000000e+01
2.699450254440308061e+00 -8.351031541824340820e-01 -6.523580551147460938e-01 1.400000000000000000e+01
3.180770635604857954e+00 -9.846130013465881348e-01 -6.472241282463073730e-01 1.300000000000000000e+01
3.854794979095458984e+00 -1.194733023643494096e+00 -6.391912102699279785e-01 1.100000000000000000e+01
4.974855899810791016e+00 -1.543781876564026101e+00 -6.395702958106994629e-01 1.000000000000000000e+01
3.589300918579102273e+01 -1.114507484436034979e+01 5.952644348144531250e+00 1.300000000000000000e+01
6.716784000396729404e+00 -2.085616827011107954e+00 -6.153195500373840332e-01 2.000000000000000000e+00
1.084633350372313920e+01 -3.372027873992919922e+00 -5.952691435813903809e-01 3.000000000000000000e+00
2.337623357772827148e+00 -7.321187257766723633e-01 -6.563650965690612793e-01 1.800000000000000000e+01
2.703661680221558061e+00 -8.477944731712341309e-01 -6.541576385498046875e-01 1.400000000000000000e+01
3.169473648071289062e+00 -9.944680333137512207e-01 -6.456976532936096191e-01 1.200000000000000000e+01
3.853948116302489790e+00 -1.210709571838378906e+00 -6.398169398307800293e-01 1.300000000000000000e+01
4.974572658538818359e+00 -1.564659357070923074e+00 -6.403015255928039551e-01 9.000000000000000000e+00
6.668815612792968750e+00 -2.098831176757812944e+00 -6.116589903831481934e-01 3.000000000000000000e+00
1.077615833282471058e+01 -3.395642042160034180e+00 -5.921289920806884766e-01 3.000000000000000000e+00
4.184889221191406250e+01 -1.319490432739257990e+01 1.013044548034667969e+01 1.300000000000000000e+01
1.367346572875976918e+01 -4.313850879669188565e+00 -2.502675056457520086e-01 2.000000000000000000e+00
2.333212137222290039e+00 -7.396903038024902344e-01 -6.558474898338317871e-01 1.900000000000000000e+01
2.698828458786011186e+00 -8.566372394561767578e-01 -6.537077426910400391e-01 1.600000000000000000e+01
3.169725418090819868e+00 -1.006713986396789995e+00 -6.464608907699584961e-01 1.200000000000000000e+01
3.857228517532349077e+00 -1.226549386978148970e+00 -6.410684585571289062e-01 1.000000000000000000e+01
3.549675369262695312e+01 -1.129433727264403942e+01 4.573756694793701172e+00 1.900000000000000000e+01
4.991778850555419922e+00 -1.589240908622741921e+00 -6.432263851165771484e-01 9.000000000000000000e+00
6.693721771240234375e+00 -2.132377862930297852e+00 -6.146222949028015137e-01 3.000000000000000000e+00
3.467953491210938211e+01 -1.105431461334229049e+01 7.075197696685791016e+00 6.100000000000000000e+01
1.080229663848876953e+01 -3.445375204086304155e+00 -5.942224264144897461e-01 3.000000000000000000e+00
3.876907348632813211e+01 -1.237278938293457031e+01 9.395305633544921875e+00 1.200000000000000000e+01
1.367737293243408025e+01 -4.367637157440186435e+00 -2.506165504455565851e-01 2.000000000000000000e+00
3.987887573242188211e+01 -1.274231338500976918e+01 1.121773529052734020e+01 1.000000000000000000e+01
2.329036951065063032e+00 -7.464269995689392090e-01 -6.553298234939575195e-01 1.900000000000000000e+01
2.705401659011840820e+00 -8.680886030197143555e-01 -6.559572815895080566e-01 1.400000000000000000e+01
3.177762746810913086e+00 -1.020267963409424050e+00 -6.487506031990051270e-01 1.300000000000000000e+01
3.843953132629394975e+00 -1.235638618469238059e+00 -6.395040750503540039e-01 1.100000000000000000e+01
3.726391601562500000e+01 -1.198566055297851918e+01 4.806282997131347656e+00 2.000000000000000000e+01
4.986761569976806641e+00 -1.604915142059325950e+00 -6.432263851165771484e-01 9.000000000000000000e+00
6.671817779541015625e+00 -2.148510456085205078e+00 -6.132277846336364746e-01 2.000000000000000000e+00
1.077241039276123047e+01 -3.473165750503540039e+00 -5.931757092475891113e-01 3.000000000000000000e+00
2.337443113327025923e+00 -7.581284046173095703e-01 -6.584356427192687988e-01 1.900000000000000000e+01
2.683820247650146040e+00 -8.715082406997680664e-01 -6.514582633972167969e-01 1.400000000000000000e+01
3.172314882278441939e+00 -1.030747532844543013e+00 -6.483689546585083008e-01 1.200000000000000000e+01
3.843373537063599077e+00 -1.250271201133728027e+00 -6.401298046112060547e-01 1.100000000000000000e+01
4.966029167175292969e+00 -1.617394447326659934e+00 -6.412764787673950195e-01 9.000000000000000000e+00
6.696480751037597656e+00 -2.182281017303466797e+00 -6.161910891532897949e-01 3.000000000000000000e+00
1.077920818328857067e+01 -3.516942501068114790e+00 -5.942224264144897461e-01 3.000000000000000000e+00
4.065285873413085938e+01 -1.328740215301514027e+01 1.145998954772949041e+01 1.100000000000000000e+01
2.336483955383300781e+00 -7.672932147979736328e-01 -6.589533090591430664e-01 1.900000000000000000e+01
2.680608034133911133e+00 -8.813390731811523438e-01 -6.514582633972167969e-01 1.400000000000000000e+01
3.166650772094727007e+00 -1.041754245758057085e+00 -6.479873657226562500e-01 1.200000000000000000e+01
3.838765144348144975e+00 -1.264349460601807085e+00 -6.401298046112060547e-01 1.100000000000000000e+01
4.971378803253173828e+00 -1.639314889907836914e+00 -6.427389383316040039e-01 9.000000000000000000e+00
3.613952255249022727e+01 -1.191702747344971058e+01 6.027107238769531250e+00 1.300000000000000000e+01
6.694113731384277344e+00 -2.208683013916016069e+00 -6.167140603065490723e-01 3.000000000000000000e+00
1.086106872558593928e+01 -3.587749719619750977e+00 -5.994560718536376953e-01 3.000000000000000000e+00
4.052185821533203125e+01 -1.340132331848145064e+01 1.143617820739745916e+01 1.100000000000000000e+01
2.326458215713500977e+00 -7.730078101158142090e-01 -6.568827629089355469e-01 1.900000000000000000e+01
2.690459012985229048e+00 -8.949965834617614746e-01 -6.546075940132141113e-01 1.500000000000000000e+01
3.155543804168701172e+00 -1.050321459770203081e+00 -6.464608907699584961e-01 1.300000000000000000e+01
3.849320888519287109e+00 -1.282737612724303977e+00 -6.426327824592590332e-01 9.000000000000000000e+00
4.976924896240234375e+00 -1.660427689552306907e+00 -6.442013382911682129e-01 9.000000000000000000e+00
6.705261707305908203e+00 -2.238345146179199219e+00 -6.184571385383605957e-01 3.000000000000000000e+00
1.084847927093506037e+01 -3.625640153884888139e+00 -5.994560718536376953e-01 3.000000000000000000e+00
4.042850112915039062e+01 -1.353503417968750000e+01 1.142375469207764027e+01 1.100000000000000000e+01
2.318388223648070845e+00 -7.788727283477783203e-01 -6.553298234939575195e-01 2.000000000000000000e+01
2.694864511489868164e+00 -9.063985347747802734e-01 -6.564071774482727051e-01 1.500000000000000000e+01
3.163207769393920898e+00 -1.064537048339843972e+00 -6.487506031990051270e-01 1.200000000000000000e+01
3.850661993026732954e+00 -1.297387480735779031e+00 -6.435713768005371094e-01 1.000000000000000000e+01
4.975152969360351562e+00 -1.678191661834717019e+00 -6.446888446807861328e-01 1.100000000000000000e+01
6.678924560546875000e+00 -2.254196882247924805e+00 -6.167140603065490723e-01 5.000000000000000000e+00
1.083639621734618963e+01 -3.661595106124877930e+00 -5.994560718536376953e-01 3.000000000000000000e+00
4.010030364990233664e+01 -1.356540393829346058e+01 1.134300327301025035e+01 1.100000000000000000e+01
2.317484378814696822e+00 -7.875822782516479492e-01 -6.558474898338317871e-01 1.900000000000000000e+01
2.687994480133057085e+00 -9.145444631576538086e-01 -6.555073857307434082e-01 1.300000000000000000e+01
3.161331176757812944e+00 -1.076204895973206010e+00 -6.491321921348571777e-01 1.300000000000000000e+01
3.833021402359008789e+00 -1.306360125541687012e+00 -6.413813233375549316e-01 1.100000000000000000e+01
4.989931106567382812e+00 -1.702599406242371050e+00 -6.473699808120727539e-01 1.100000000000000000e+01
6.693641662597656250e+00 -2.285221815109252930e+00 -6.188057661056518555e-01 5.000000000000000000e+00
1.075551223754882990e+01 -3.676144361495972124e+00 -5.956878662109375000e-01 3.000000000000000000e+00
4.010514450073242188e+01 -1.373106002807617010e+01 1.135853290557860973e+01 1.100000000000000000e+01
2.329336643218994141e+00 -8.006909489631652832e-01 -6.599885821342468262e-01 1.900000000000000000e+01
2.681100368499755859e+00 -9.226534962654113770e-01 -6.546075940132141113e-01 1.300000000000000000e+01
4.033341979980468750e+01 -1.388790988922118963e+01 2.235582590103148970e+00 2.900000000000000000e+01
3.166836738586425781e+00 -1.090429306030272993e+00 -6.510403156280517578e-01 1.200000000000000000e+01
3.835908174514770952e+00 -1.322306990623473899e+00 -6.426327824592590332e-01 9.000000000000000000e+00
4.963315963745117188e+00 -1.712883591651916948e+00 -6.446888446807861328e-01 9.000000000000000000e+00
6.696923732757568359e+00 -2.312474727630614790e+00 -6.198516488075256348e-01 5.000000000000000000e+00
1.049533271789550959e+01 -3.628181457519530806e+00 -5.819758176803588867e-01 9.000000000000000000e+00
4.025655746459960938e+01 -1.393221473693848012e+01 1.141443729400634943e+01 1.100000000000000000e+01
2.335651159286499023e+00 -8.119887709617614746e-01 -6.625767350196838379e-01 1.900000000000000000e+01
2.676023006439208984e+00 -9.313661456108093262e-01 -6.541576385498046875e-01 1.400000000000000000e+01
3.157449007034302202e+00 -1.099539995193481001e+00 -6.498954296112060547e-01 1.200000000000000000e+01
3.829403877258300781e+00 -1.335038542747498003e+00 -6.423199176788330078e-01 1.000000000000000000e+01
4.976048946380615234e+00 -1.736739754676819070e+00 -6.471261978149414062e-01 9.000000000000000000e+00
6.685049057006835938e+00 -2.334523677825928178e+00 -6.195030212402343750e-01 5.000000000000000000e+00
1.051465511322020951e+01 -3.676000356674193892e+00 -5.837552547454833984e-01 3.000000000000000000e+00
4.060269927978516336e+01 -1.421886253356933949e+01 1.152728271484375000e+01 1.100000000000000000e+01
2.325512647628784180e+00 -8.175738453865051270e-01 -6.605061888694763184e-01 1.900000000000000000e+01
2.672755479812622070e+00 -9.407015442848205566e-01 -6.541576385498046875e-01 1.400000000000000000e+01
4.004709625244141336e+01 -1.410280895233153942e+01 2.225115537643433061e+00 2.900000000000000000e+01
3.148036241531372070e+00 -1.108598589897155984e+00 -6.487506031990051270e-01 1.100000000000000000e+01
3.665660476684570312e+01 -1.291601943969726918e+01 3.400294065475463867e+00 5.100000000000000000e+01
3.834035158157349077e+00 -1.351681470870971902e+00 -6.438842415809631348e-01 1.000000000000000000e+01
4.969956398010253906e+00 -1.754098773002624956e+00 -6.471261978149414062e-01 9.000000000000000000e+00
6.701282024383544922e+00 -2.366469144821166992e+00 -6.217690706253051758e-01 3.000000000000000000e+00
1.083317565917968928e+01 -3.829846382141112837e+00 -6.021775007247924805e-01 3.000000000000000000e+00
4.001951599121093750e+01 -1.415593433380126953e+01 9.800217628479003906e+00 1.300000000000000000e+01
4.054439544677733664e+01 -1.434956073760985973e+01 1.152417659759520951e+01 1.100000000000000000e+01
2.311722993850708008e+00 -8.218038678169250488e-01 -6.574003696441650391e-01 2.000000000000000000e+01
2.689651012420653853e+00 -9.572126865386962891e-01 -6.591066122055053711e-01 1.500000000000000000e+01
3.153394699096680132e+00 -1.122873425483704057e+00 -6.506586670875549316e-01 1.200000000000000000e+01
3.829293727874755859e+00 -1.365056514739990012e+00 -6.438842415809631348e-01 1.000000000000000000e+01
4.975020885467529297e+00 -1.775439739227294922e+00 -6.485886573791503906e-01 9.000000000000000000e+00
6.672340869903563565e+00 -2.382476806640625000e+00 -6.198516488075256348e-01 3.000000000000000000e+00
1.082726383209229049e+01 -3.870326995849608931e+00 -6.025962233543395996e-01 3.000000000000000000e+00
2.310513257980347124e+00 -8.309249877929687500e-01 -6.579180359840393066e-01 1.900000000000000000e+01
2.675123453140258789e+00 -9.631036520004272461e-01 -6.564071774482727051e-01 1.500000000000000000e+01
3.145563840866088867e+00 -1.133092880249022993e+00 -6.498954296112060547e-01 1.200000000000000000e+01
3.811257123947143999e+00 -1.374391674995421919e+00 -6.416941881179809570e-01 1.000000000000000000e+01
4.974081516265869141e+00 -1.795684337615967019e+00 -6.493198871612548828e-01 1.100000000000000000e+01
6.689798355102539062e+00 -2.416392087936400923e+00 -6.222919821739196777e-01 2.000000000000000000e+00
1.088437843322754084e+01 -3.935793399810791016e+00 -6.065737605094909668e-01 3.000000000000000000e+00
4.089116668701171875e+01 -1.480239582061767933e+01 1.165255069732666016e+01 1.100000000000000000e+01
2.316676616668701172e+00 -8.422856330871582031e-01 -6.605061888694763184e-01 1.900000000000000000e+01
2.662589073181151900e+00 -9.691031575202941895e-01 -6.541576385498046875e-01 1.400000000000000000e+01
3.152657985687255859e+00 -1.148096799850464089e+00 -6.521851420402526855e-01 1.300000000000000000e+01
3.806436300277709961e+00 -1.387686967849731001e+00 -6.416941881179809570e-01 1.000000000000000000e+01
4.956594467163085938e+00 -1.808952808380126953e+00 -6.478574275970458984e-01 1.100000000000000000e+01
6.700037956237792969e+00 -2.446563243865966797e+00 -6.240351200103759766e-01 3.000000000000000000e+00
1.087807750701903942e+01 -3.976505756378173828e+00 -6.069924235343933105e-01 3.000000000000000000e+00
4.434063720703125000e+01 -1.622636795043944957e+01 1.265159225463867010e+01 1.400000000000000000e+01
2.315684080123900923e+00 -8.506295084953308105e-01 -6.610238552093505859e-01 1.900000000000000000e+01
2.666676759719849077e+00 -9.806176424026489258e-01 -6.559572815895080566e-01 1.400000000000000000e+01
3.146991014480590820e+00 -1.157867193222045898e+00 -6.518035531044006348e-01 1.200000000000000000e+01
3.820349931716918945e+00 -1.407129406929015891e+00 -6.448228359222412109e-01 1.000000000000000000e+01
4.948705673217773438e+00 -1.824692726135253906e+00 -6.476137042045593262e-01 9.000000000000000000e+00
6.729272842407226562e+00 -2.482559919357299805e+00 -6.275213360786437988e-01 4.000000000000000000e+00
1.077489948272705078e+01 -3.979343891143798828e+00 -6.019681692123413086e-01 6.000000000000000000e+00
2.310889720916748047e+00 -8.580351471900939941e-01 -6.605061888694763184e-01 1.800000000000000000e+01
2.674197435379027876e+00 -9.939938187599182129e-01 -6.586567163467407227e-01 1.400000000000000000e+01
3.137409687042235884e+00 -1.166792154312134011e+00 -6.506586670875549316e-01 1.300000000000000000e+01
3.820968627929687944e+00 -1.422523975372314009e+00 -6.457614898681640625e-01 9.000000000000000000e+00
4.960907459259033203e+00 -1.848888278007507102e+00 -6.500510573387145996e-01 1.100000000000000000e+01
6.698164463043212891e+00 -2.497680902481079102e+00 -6.254296302795410156e-01 4.000000000000000000e+00
1.074597454071044922e+01 -4.011343479156494141e+00 -6.011307835578918457e-01 6.000000000000000000e+00
4.381008911132813211e+01 -1.637992095947265980e+01 1.253253555297851918e+01 1.300000000000000000e+01
2.297028541564940962e+00 -8.620238304138183594e-01 -6.574003696441650391e-01 1.900000000000000000e+01
2.672535657882689986e+00 -1.004007816314697044e+00 -6.591066122055053711e-01 1.500000000000000000e+01
3.131479978561400923e+00 -1.177045941352844016e+00 -6.502770781517028809e-01 1.200000000000000000e+01
3.819677591323852983e+00 -1.437244296073914018e+00 -6.463872194290161133e-01 9.000000000000000000e+00
4.965569496154785156e+00 -1.870392203330994096e+00 -6.515135169029235840e-01 9.000000000000000000e+00
6.687540531158447266e+00 -2.520344018936156782e+00 -6.252552866935729980e-01 3.000000000000000000e+00
1.068145179748534979e+01 -4.029794216156005859e+00 -5.983046293258666992e-01 1.300000000000000000e+01
4.285190200805664062e+01 -1.618383789062500000e+01 1.227371692657471058e+01 1.300000000000000000e+01
2.306649446487427202e+00 -8.748322129249572754e-01 -6.610238552093505859e-01 2.100000000000000000e+01
2.663549184799193892e+00 -1.011255502700806108e+00 -6.577568650245666504e-01 1.400000000000000000e+01
3.140199422836304155e+00 -1.192849874496459961e+00 -6.529483795166015625e-01 1.300000000000000000e+01
3.801712512969971147e+00 -1.445653915405272993e+00 -6.441971063613891602e-01 1.000000000000000000e+01
4.970141410827636719e+00 -1.891951203346251997e+00 -6.529759168624877930e-01 9.000000000000000000e+00
6.701045036315917969e+00 -2.552181959152222124e+00 -6.273470520973205566e-01 3.000000000000000000e+00
1.064679145812987926e+01 -4.059227943420410156e+00 -5.971532464027404785e-01 6.000000000000000000e+00
3.947963333129882812e+01 -1.506001758575438920e+01 9.755227088928222656e+00 1.300000000000000000e+01
4.395386886596679688e+01 -1.677556228637694957e+01 1.260604000091552912e+01 1.400000000000000000e+01
2.301931858062744141e+00 -8.817854523658752441e-01 -6.605061888694763184e-01 1.800000000000000000e+01
2.652902841567993164e+00 -1.017291665077209029e+00 -6.559572815895080566e-01 1.400000000000000000e+01
3.134393453598022017e+00 -1.202553272247314009e+00 -6.525667905807495117e-01 1.300000000000000000e+01
3.806118011474608931e+00 -1.461794018745421919e+00 -6.457614898681640625e-01 1.000000000000000000e+01
4.098268890380858664e+01 -1.574819564819335938e+01 5.390768527984619141e+00 3.400000000000000000e+01
4.956429004669188565e+00 -1.905572891235352007e+00 -6.520009636878967285e-01 9.000000000000000000e+00
6.701392650604248047e+00 -2.579135656356811968e+00 -6.282185912132263184e-01 3.000000000000000000e+00
1.026422977447509943e+01 -3.952406167984008789e+00 -5.764282345771789551e-01 3.000000000000000000e+00
4.033869934082031250e+01 -1.554114723205566051e+01 9.980178833007812500e+00 1.300000000000000000e+01
4.383736801147460938e+01 -1.690664291381835938e+01 1.258947563171387074e+01 1.400000000000000000e+01
2.311294794082642046e+00 -8.951001763343811035e-01 -6.641296744346618652e-01 1.900000000000000000e+01
2.656604051589965820e+00 -1.029362082481384055e+00 -6.577568650245666504e-01 1.400000000000000000e+01
3.126303911209106001e+00 -1.212613463401793990e+00 -6.518035531044006348e-01 1.300000000000000000e+01
3.811783313751221147e+00 -1.480024218559264915e+00 -6.476386785507202148e-01 1.000000000000000000e+01
4.951597213745117188e+00 -1.923581361770630105e+00 -6.522447466850280762e-01 8.000000000000000000e+00
6.710918426513671875e+00 -2.609733343124390093e+00 -6.299617290496826172e-01 3.000000000000000000e+00
1.019383811950683949e+01 -3.968263864517211914e+00 -5.732880830764770508e-01 1.800000000000000000e+01
2.300960063934326172e+00 -9.003468751907348633e-01 -6.620591282844543457e-01 1.900000000000000000e+01
2.656442403793334961e+00 -1.040513634681702104e+00 -6.586567163467407227e-01 1.400000000000000000e+01
3.122052192687987837e+00 -1.223518848419189009e+00 -6.518035531044006348e-01 1.200000000000000000e+01
3.806593894958496094e+00 -1.493320822715759055e+00 -6.476386785507202148e-01 9.000000000000000000e+00
4.012980651855468750e+01 -1.575094318389892933e+01 5.293272972106933594e+00 3.100000000000000000e+01
4.961143493652343750e+00 -1.948247313499450906e+00 -6.544383764266967773e-01 9.000000000000000000e+00
6.688328266143798828e+00 -2.629210233688354048e+00 -6.287415027618408203e-01 3.000000000000000000e+00
1.017063140869140980e+01 -4.000167846679688388e+00 -5.727646946907043457e-01 1.800000000000000000e+01
3.360387420654296875e+01 -1.323014354705811080e+01 -6.303809285163879395e-01 7.000000000000000000e+00
2.294051885604857954e+00 -9.073531627655029297e-01 -6.610238552093505859e-01 1.900000000000000000e+01
2.658230304718018022e+00 -1.051931142807007058e+00 -6.600064039230346680e-01 1.300000000000000000e+01
3.126672983169556108e+00 -1.238568782806396040e+00 -6.537116169929504395e-01 1.300000000000000000e+01
3.801095008850098100e+00 -1.507262706756592019e+00 -6.476386785507202148e-01 9.000000000000000000e+00
4.007458114624022727e+01 -1.589092636108398082e+01 5.293272972106933594e+00 3.100000000000000000e+01
4.958002567291259766e+00 -1.967017173767090066e+00 -6.549258232116699219e-01 9.000000000000000000e+00
6.686516761779785156e+00 -2.655482292175292969e+00 -6.294387578964233398e-01 3.000000000000000000e+00
1.015218925476074041e+01 -4.035942554473876953e+00 -5.725553631782531738e-01 1.800000000000000000e+01
4.387661361694335938e+01 -1.745175552368164062e+01 1.090157794952392933e+01 1.300000000000000000e+01
3.362066268920897727e+01 -1.337248992919922053e+01 -6.315676569938659668e-01 7.000000000000000000e+00
2.285807371139525923e+00 -9.124071598052978516e-01 -6.594709157943725586e-01 1.600000000000000000e+01
2.647488832473754883e+00 -1.057848095893860085e+00 -6.582067608833312988e-01 1.300000000000000000e+01
3.120943546295166016e+00 -1.247656583786010964e+00 -6.533300280570983887e-01 1.200000000000000000e+01
3.792673110961914062e+00 -1.517728924751281960e+00 -6.470129489898681641e-01 1.000000000000000000e+01
4.027229690551757812e+01 -1.612407875061035156e+01 5.326421737670898438e+00 3.200000000000000000e+01
4.958823680877686435e+00 -1.986400365829467995e+00 -6.559008359909057617e-01 9.000000000000000000e+00
6.677673816680908203e+00 -2.677640914916992188e+00 -6.294387578964233398e-01 3.000000000000000000e+00
1.019506931304931996e+01 -4.090126037597656250e+00 -5.756955146789550781e-01 1.200000000000000000e+01
3.363922500610352273e+01 -1.350924396514892933e+01 -6.327544450759887695e-01 1.500000000000000000e+01
2.287822484970093218e+00 -9.229471683502197266e-01 -6.610238552093505859e-01 1.600000000000000000e+01
2.634744644165039062e+00 -1.063436269760132058e+00 -6.559572815895080566e-01 1.300000000000000000e+01
3.121810674667357954e+00 -1.261293411254883035e+00 -6.544748544692993164e-01 1.200000000000000000e+01
3.794409990310668945e+00 -1.534582018852234109e+00 -6.482644081115722656e-01 9.000000000000000000e+00
4.940818786621093750e+00 -1.999230265617371050e+00 -6.544383764266967773e-01 9.000000000000000000e+00
4.057907104492188211e+01 -1.642797279357910156e+01 6.933801174163818359e+00 1.500000000000000000e+01
6.694139957427979404e+00 -2.711405754089355025e+00 -6.318791508674621582e-01 3.000000000000000000e+00
1.032438087463379084e+01 -4.186000347137451172e+00 -5.838599205017089844e-01 9.000000000000000000e+00
4.402407073974608664e+01 -1.785842323303223012e+01 1.096816349029541016e+01 1.400000000000000000e+01
3.370489883422852273e+01 -1.367243766784667969e+01 -6.348836421966552734e-01 2.200000000000000000e+01
2.293532133102416992e+00 -9.345725178718566895e-01 -6.636120080947875977e-01 1.700000000000000000e+01
2.645264625549315962e+00 -1.078973889350890891e+00 -6.595565080642700195e-01 1.400000000000000000e+01
3.104664802551269975e+00 -1.266990303993225098e+00 -6.518035531044006348e-01 1.100000000000000000e+01
3.800002336502075195e+00 -1.552299737930298074e+00 -6.501416563987731934e-01 9.000000000000000000e+00
4.933457851409912109e+00 -2.017325878143310991e+00 -6.544383764266967773e-01 9.000000000000000000e+00
6.695220470428466797e+00 -2.740451335906981978e+00 -6.329250335693359375e-01 3.000000000000000000e+00
1.039472675323485973e+01 -4.256831645965576172e+00 -5.886748433113098145e-01 9.000000000000000000e+00
3.368601608276367188e+01 -1.380877399444580078e+01 -6.354770064353942871e-01 1.500000000000000000e+01
2.291877508163452148e+00 -9.437080025672912598e-01 -6.641296744346618652e-01 1.600000000000000000e+01
2.639680385589600053e+00 -1.087458729743957964e+00 -6.591066122055053711e-01 1.200000000000000000e+01
3.103630304336547852e+00 -1.279857873916625977e+00 -6.525667905807495117e-01 1.100000000000000000e+01
3.790635347366333008e+00 -1.564709663391113059e+00 -6.495159268379211426e-01 9.000000000000000000e+00
4.941064357757568359e+00 -2.040596485137939009e+00 -6.563882827758789062e-01 9.000000000000000000e+00
3.991277694702147727e+01 -1.649162292480469105e+01 6.839940547943115234e+00 1.500000000000000000e+01
6.687455177307128906e+00 -2.764566421508789062e+00 -6.330993175506591797e-01 3.000000000000000000e+00
1.018896961212158025e+01 -4.216243267059326172e+00 -5.778936147689819336e-01 6.000000000000000000e+00
4.353864669799804688e+01 -1.802539634704589844e+01 1.087908267974854049e+01 1.300000000000000000e+01
3.368195343017578125e+01 -1.394463443756104049e+01 -6.363147497177124023e-01 1.500000000000000000e+01
2.283549547195435014e+00 -9.486799836158752441e-01 -6.625767350196838379e-01 1.800000000000000000e+01
2.648655176162720171e+00 -1.101444125175476074e+00 -6.622558832168579102e-01 2.300000000000000000e+01
3.106844663619995117e+00 -1.292618393898010032e+00 -6.540932655334472656e-01 1.200000000000000000e+01
3.791171789169311968e+00 -1.578888893127440962e+00 -6.504545211791992188e-01 1.000000000000000000e+01
4.941599369049072266e+00 -2.060025691986083984e+00 -6.573632359504699707e-01 9.000000000000000000e+00
6.667218208312988281e+00 -2.782124042510985884e+00 -6.320534348487854004e-01 3.000000000000000000e+00
1.016277217864990057e+01 -4.242845535278320312e+00 -5.771609544754028320e-01 9.000000000000000000e+00
4.351057434082031250e+01 -1.817410469055176137e+01 1.088628101348876953e+01 1.300000000000000000e+01
3.370194625854492188e+01 -1.408400917053223012e+01 -6.375713348388671875e-01 2.300000000000000000e+01
2.276661157608031782e+00 -9.551505446434020996e-01 -6.615414619445800781e-01 1.700000000000000000e+01
2.644794225692749023e+00 -1.110682964324950950e+00 -6.622558832168579102e-01 1.600000000000000000e+01
3.105705738067626953e+00 -1.305518507957458052e+00 -6.548564434051513672e-01 1.100000000000000000e+01
3.768972396850585938e+00 -1.585878491401671919e+00 -6.476386785507202148e-01 9.000000000000000000e+00
4.949015140533447266e+00 -2.083424329757689986e+00 -6.593131422996520996e-01 9.000000000000000000e+00
6.668482303619384766e+00 -2.810022115707397017e+00 -6.330993175506591797e-01 3.000000000000000000e+00
1.014163208007813033e+01 -4.277736663818359375e+00 -5.768468976020812988e-01 6.000000000000000000e+00
3.370416641235352273e+01 -1.422333431243895951e+01 -6.385486721992492676e-01 1.500000000000000000e+01
2.280259847640991211e+00 -9.665040969848632812e-01 -6.636120080947875977e-01 1.900000000000000000e+01
2.629941940307617188e+00 -1.115802407264709029e+00 -6.595565080642700195e-01 1.400000000000000000e+01
3.101129770278931108e+00 -1.316351532936095969e+00 -6.548564434051513672e-01 1.100000000000000000e+01
3.774322271347045898e+00 -1.603659868240356001e+00 -6.495159268379211426e-01 9.000000000000000000e+00
4.930385112762451172e+00 -2.096887826919556108e+00 -6.578507423400878906e-01 9.000000000000000000e+00
6.674636840820313388e+00 -2.841468095779418945e+00 -6.346681118011474609e-01 3.000000000000000000e+00
1.010091304779052912e+01 -4.302154541015625000e+00 -5.753815174102783203e-01 6.000000000000000000e+00
4.426861953735352273e+01 -1.886390495300292969e+01 1.110943317413330078e+01 1.400000000000000000e+01
3.373826599121093750e+01 -1.438362979888916016e+01 -6.401891708374023438e-01 2.300000000000000000e+01
2.283805608749390093e+00 -9.778968691825866699e-01 -6.656825542449951172e-01 1.800000000000000000e+01
2.626030921936035156e+00 -1.124975800514220969e+00 -6.595565080642700195e-01 1.400000000000000000e+01
3.099893093109130859e+00 -1.329256296157836914e+00 -6.556196808815002441e-01 1.100000000000000000e+01
3.781125783920288086e+00 -1.622936606407165971e+00 -6.517059803009033203e-01 1.000000000000000000e+01
4.897499561309813565e+00 -2.103119373321533203e+00 -6.544383764266967773e-01 9.000000000000000000e+00
6.670169353485107422e+00 -2.867110013961791992e+00 -6.351910233497619629e-01 3.000000000000000000e+00
1.011443138122558949e+01 -4.351777553558349609e+00 -5.770562291145324707e-01 6.000000000000000000e+00
3.373560714721679688e+01 -1.452186775207520064e+01 -6.410967111587524414e-01 2.300000000000000000e+01
2.277175188064575195e+00 -9.835348129272460938e-01 -6.646472811698913574e-01 1.800000000000000000e+01
2.620497226715087891e+00 -1.132904529571532981e+00 -6.591066122055053711e-01 1.500000000000000000e+01
3.084890127182006836e+00 -1.334311962127685991e+00 -6.533300280570983887e-01 9.000000000000000000e+00
3.776008605957030806e+00 -1.634807348251342995e+00 -6.517059803009033203e-01 1.000000000000000000e+01
4.910533905029296875e+00 -2.128031015396118164e+00 -6.571195125579833984e-01 8.000000000000000000e+00
4.161185455322266336e+01 -1.804155731201171875e+01 7.183470726013183594e+00 1.500000000000000000e+01
6.684386730194091797e+00 -2.899520635604857954e+00 -6.374570727348327637e-01 3.000000000000000000e+00
9.441131591796875000e+00 -4.097285747528076172e+00 -5.393743515014648438e-01 2.000000000000000000e+00
3.372945022583007812e+01 -1.465198421478270951e+01 -6.418995261192321777e-01 1.500000000000000000e+01
2.270013809204102007e+00 -9.903295040130615234e-01 -6.636120080947875977e-01 1.900000000000000000e+01
2.625456809997559038e+00 -1.145942687988281028e+00 -6.613560914993286133e-01 1.400000000000000000e+01
3.088974237442017046e+00 -1.349539637565613015e+00 -6.552380919456481934e-01 1.100000000000000000e+01
3.769991397857666016e+00 -1.648636102676392046e+00 -6.517059803009033203e-01 1.000000000000000000e+01
4.701205730438232422e+00 -2.056838274002075195e+00 -6.300644874572753906e-01 9.000000000000000000e+00
6.654149055480957031e+00 -2.914044141769409180e+00 -6.355396509170532227e-01 2.000000000000000000e+00
9.396782875061035156e+00 -4.119032382965087891e+00 -5.376996397972106934e-01 2.000000000000000000e+00
3.375867843627929688e+01 -1.480497074127197088e+01 -6.434352993965148926e-01 1.500000000000000000e+01
2.264949083328247070e+00 -9.970733523368835449e-01 -6.630944013595581055e-01 1.900000000000000000e+01
2.625007390975952148e+00 -1.156671762466431108e+00 -6.622558832168579102e-01 1.400000000000000000e+01
3.091667652130126953e+00 -1.362943410873413086e+00 -6.567645668983459473e-01 1.000000000000000000e+01
3.757274389266968218e+00 -1.657938838005065918e+00 -6.504545211791992188e-01 1.100000000000000000e+01
4.773895263671875000e+00 -2.108525276184082031e+00 -6.407890319824218750e-01 9.000000000000000000e+00
6.662158966064453125e+00 -2.945309877395629883e+00 -6.372827887535095215e-01 3.000000000000000000e+00
9.364806175231933594e+00 -4.142091751098632812e+00 -5.366529226303100586e-01 2.000000000000000000e+00
3.379821777343750000e+01 -1.496319580078125000e+01 -6.451805830001831055e-01 1.600000000000000000e+01
2.268340349197388139e+00 -1.008507370948791948e+00 -6.651649475097656250e-01 1.900000000000000000e+01
2.610270500183105025e+00 -1.161075711250304954e+00 -6.595565080642700195e-01 1.300000000000000000e+01
3.088445186614989790e+00 -1.375064373016356978e+00 -6.571461558341979980e-01 1.000000000000000000e+01
3.761998414993286133e+00 -1.676523327827454057e+00 -6.523317098617553711e-01 1.000000000000000000e+01
4.614209651947020596e+00 -2.057274103164672852e+00 -6.203149557113647461e-01 9.000000000000000000e+00
4.243090438842772727e+01 -1.892696189880371094e+01 7.358677387237548828e+00 1.500000000000000000e+01
6.695503711700438565e+00 -2.988034248352050781e+00 -6.414662599563598633e-01 3.000000000000000000e+00
9.440741539001464844e+00 -4.217116832733154297e+00 -5.418865084648132324e-01 2.000000000000000000e+00
3.382976150512695312e+01 -1.511861419677734020e+01 -6.467861533164978027e-01 8.000000000000000000e+00
2.268686532974243164e+00 -1.017209410667418990e+00 -6.662002205848693848e-01 1.900000000000000000e+01
2.608183860778809038e+00 -1.170523166656493919e+00 -6.600064039230346680e-01 1.200000000000000000e+01
3.080528020858765093e+00 -1.383151888847351074e+00 -6.563829183578491211e-01 9.000000000000000000e+00
3.756712913513184038e+00 -1.688333749771117942e+00 -6.523317098617553711e-01 1.000000000000000000e+01
4.661673069000244141e+00 -2.096995115280150923e+00 -6.276271343231201172e-01 9.000000000000000000e+00
4.237511062622070312e+01 -1.907080650329589844e+01 7.359928607940673828e+00 1.500000000000000000e+01
6.696458816528320312e+00 -3.015128850936890093e+00 -6.425121426582336426e-01 3.000000000000000000e+00
9.387383460998535156e+00 -4.228708267211914062e+00 -5.395836830139160156e-01 5.000000000000000000e+00
3.384506607055664062e+01 -1.526030445098876953e+01 -6.480427384376525879e-01 8.000000000000000000e+00
2.257903575897216797e+00 -1.022330403327941895e+00 -6.641296744346618652e-01 1.900000000000000000e+01
2.612957715988159180e+00 -1.183640837669373003e+00 -6.622558832168579102e-01 1.400000000000000000e+01
3.066497564315795898e+00 -1.390379667282104048e+00 -6.544748544692993164e-01 1.000000000000000000e+01
3.759493589401245117e+00 -1.706173181533813032e+00 -6.538960933685302734e-01 9.000000000000000000e+00
4.259722518920897727e+01 -1.933192253112792969e+01 5.743701934814453125e+00 4.300000000000000000e+01
4.822422504425048828e+00 -2.189578056335449219e+00 -6.502948403358459473e-01 8.000000000000000000e+00
6.664126873016357422e+00 -3.028593540191649947e+00 -6.404203772544860840e-01 3.000000000000000000e+00
9.379094123840332031e+00 -4.266394138336181641e+00 -5.400024056434631348e-01 1.200000000000000000e+01
3.371514892578125000e+01 -1.534356403350830078e+01 -6.465767621994018555e-01 8.000000000000000000e+00
2.261349439620972124e+00 -1.033417582511902078e+00 -6.662002205848693848e-01 1.900000000000000000e+01
