2.531032264232634943e-01 -1.338230609893799050e+00 3.649348616600037176e-01 7.200000000000000000e+01
5.036495327949523926e-01 -2.680875062942504883e+00 -7.309049963951110840e-01 1.400000000000000000e+01
5.889928340911865234e-01 -3.141191005706787109e+00 -7.378394603729248047e-01 1.200000000000000000e+01
2.613394558429718018e-01 -1.393764257431030051e+00 7.431706041097640991e-02 4.800000000000000000e+01
7.070550322532653809e-01 -3.774471759796143022e+00 -7.464447617530822754e-01 9.000000000000000000e+00
2.492218464612961093e-01 -1.331705212593079057e+00 1.185318082571029941e-01 4.700000000000000000e+01
8.945165872573852539e-01 -4.784425258636474609e+00 -7.709090709686279297e-01 7.000000000000000000e+00
2.412852793931961060e-01 -1.291790246963500977e+00 1.613550037145614902e-01 6.100000000000000000e+01
1.269751667976378950e+00 -6.804560661315917969e+00 -8.499168157577514648e-01 1.000000000000000000e+00
2.392936199903487882e-01 -1.283609628677367942e+00 2.068063616752625067e-01 6.700000000000000000e+01
2.455105781555176059e-01 -1.318235397338866965e+00 2.606450915336608887e-01 1.000000000000000000e+02
2.460878342390059870e-01 -1.323902130126952903e+00 3.108823597431182861e-01 9.800000000000000000e+01
2.829539477825164795e-01 -1.523714303970336914e+00 -2.705123089253902088e-02 1.000000000000000000e+00
2.505446970462799072e-01 -1.350502610206604004e+00 3.680406808853148859e-01 7.200000000000000000e+01
4.925381541252136230e-01 -2.673117399215697798e+00 -7.283167839050292969e-01 1.400000000000000000e+01
2.563052773475646973e-01 -1.392391085624695046e+00 2.471260726451874126e-02 8.000000000000000000e+00
5.794342756271362305e-01 -3.150894165039062944e+00 -7.396390438079833984e-01 1.100000000000000000e+01
2.506930530071259100e-01 -1.363238811492919922e+00 7.264230400323867798e-02 3.500000000000000000e+01
6.931658983230590820e-01 -3.773055076599121094e+00 -7.456815242767333984e-01 9.000000000000000000e+00
2.409751713275908869e-01 -1.312970399856566939e+00 1.167886927723884999e-01 3.200000000000000000e+01
8.813728690147399902e-01 -4.806948184967041016e+00 -7.740377187728881836e-01 7.000000000000000000e+00
2.382052838802337924e-01 -1.300435066223144975e+00 1.623299717903136929e-01 6.100000000000000000e+01
1.248135566711426003e+00 -6.820667743682861328e+00 -8.513792157173156738e-01 1.000000000000000000e+00
2.329022437334060947e-01 -1.272737383842468040e+00 2.049291431903839111e-01 6.800000000000000000e+01
2.423184663057326993e-01 -1.326809644699096902e+00 2.621715664863585871e-01 1.000000000000000000e+02
2.649212479591370184e-01 -1.452004551887511985e+00 -7.735254615545272827e-02 1.000000000000000000e+00
2.418144941329956055e-01 -1.326670289039612038e+00 3.113322556018828791e-01 9.400000000000000000e+01
2.532733678817749023e-01 -1.390913248062134011e+00 -2.467770315706729889e-02 9.000000000000000000e+00
2.420257627964020053e-01 -1.330461740493773970e+00 3.623466491699218750e-01 6.900000000000000000e+01
4.835476577281951904e-01 -2.676721572875977007e+00 -7.288344502449035645e-01 1.300000000000000000e+01
2.468264549970627109e-01 -1.367694497108459029e+00 2.425884455442428936e-02 4.000000000000000000e+01
5.708523988723754883e-01 -3.166322231292725053e+00 -7.427883744239807129e-01 1.000000000000000000e+01
2.438067197799682895e-01 -1.352312207221985085e+00 7.201427221298217773e-02 4.500000000000000000e+01
6.834712624549865723e-01 -3.794773340225220171e+00 -7.494977116584777832e-01 9.000000000000000000e+00
2.321567237377167026e-01 -1.290272831916809082e+00 1.146969571709633012e-01 4.500000000000000000e+01
8.624913096427917480e-01 -4.798330307006835938e+00 -7.721605300903320312e-01 7.000000000000000000e+00
2.347170114517211914e-01 -1.307120084762573020e+00 1.630611866712569913e-01 6.500000000000000000e+01
1.220113277435302956e+00 -6.801536083221436435e+00 -8.484543561935424805e-01 1.000000000000000000e+00
2.291557192802428922e-01 -1.277431368827820046e+00 2.055548876523972113e-01 6.800000000000000000e+01
2.366476356983185092e-01 -1.321849822998047097e+00 2.610267102718353271e-01 1.000000000000000000e+02
2.535219490528107245e-01 -1.417531371116637962e+00 -7.546845078468322754e-02 2.100000000000000000e+01
2.368393391370773038e-01 -1.325587868690490945e+00 3.108823597431182861e-01 8.300000000000000000e+01
2.466597855091094971e-01 -1.381945967674254927e+00 -2.450317889451980938e-02 5.700000000000000000e+01
2.333107292652130127e-01 -1.308476209640502930e+00 3.561350107192993164e-01 6.800000000000000000e+01
4.740701913833618164e-01 -2.680378198623656782e+00 -7.293520569801330566e-01 1.000000000000000000e+01
2.407681494951247891e-01 -1.362682342529297097e+00 2.415413036942481995e-02 5.200000000000000000e+01
5.572110414505004883e-01 -3.156878948211669922e+00 -7.400889396667480469e-01 1.000000000000000000e+01
2.395429462194443027e-01 -1.357130408287047896e+00 7.222361862659454346e-02 4.500000000000000000e+01
6.695581078529357910e-01 -3.797252893447875977e+00 -7.494977116584777832e-01 1.000000000000000000e+01
2.274260669946671087e-01 -1.291115045547484907e+00 1.146969571709633012e-01 4.900000000000000000e+01
8.442140817642211914e-01 -4.797568321228027344e+00 -7.715348005294799805e-01 7.000000000000000000e+00
2.316430211067199985e-01 -1.317747235298156960e+00 1.642798781394957941e-01 6.300000000000000000e+01
2.254971563816071112e-01 -1.284099459648132102e+00 2.064934968948363980e-01 7.100000000000000000e+01
2.301067709922791082e-01 -1.313039422035217063e+00 2.591186165809630793e-01 1.000000000000000000e+02
2.455693930387496948e-01 -1.402712345123291016e+00 -7.463107258081436157e-02 4.800000000000000000e+01
2.313077896833420077e-01 -1.322607874870300071e+00 3.099825382232666016e-01 8.000000000000000000e+01
2.402164489030838013e-01 -1.374961256980895996e+00 -2.436355873942374836e-02 5.900000000000000000e+01
2.274119853973388949e-01 -1.301670551300049050e+00 3.540644645690917969e-01 7.000000000000000000e+01
4.666899442672728937e-01 -2.693437576293944868e+00 -7.324578762054443359e-01 4.000000000000000000e+00
2.339637130498886108e-01 -1.351692080497741921e+00 2.394470199942589153e-02 4.600000000000000000e+01
5.448599457740783691e-01 -3.151123762130736861e+00 -7.382893562316894531e-01 9.000000000000000000e+00
2.324221432209014893e-01 -1.344181895256042036e+00 7.149091362953186035e-02 5.100000000000000000e+01
6.583041548728942871e-01 -3.811174631118773970e+00 -7.517874240875244141e-01 8.000000000000000000e+00
2.225790768861770907e-01 -1.289937615394592063e+00 1.145226433873176991e-01 6.100000000000000000e+01
2.277155369520187100e-01 -1.322460293769835982e+00 1.647673547267914096e-01 6.700000000000000000e+01
2.220180481672286987e-01 -1.290719151496886985e+00 2.074321061372756958e-01 6.600000000000000000e+01
2.422604858875274936e-01 -1.409873008728026900e+00 -1.251556426286697110e-01 1.000000000000000000e+00
2.245255857706069946e-01 -1.308029770851135032e+00 2.579737603664398193e-01 1.000000000000000000e+02
2.389837801456451138e-01 -1.393718361854553001e+00 -7.410771399736404419e-02 5.700000000000000000e+01
2.260315865278244019e-01 -1.319565653800963911e+00 3.090827465057373047e-01 7.300000000000000000e+01
2.364272922277451117e-01 -1.381704568862915039e+00 -2.446827292442322124e-02 5.800000000000000000e+01
2.216631025075911920e-01 -1.296782612800597922e+00 3.525115251541138250e-01 7.500000000000000000e+01
2.292439937591553012e-01 -1.352500557899475098e+00 2.394470199942589153e-02 5.400000000000000000e+01
5.338571667671203613e-01 -3.153006315231322798e+00 -7.382893562316894531e-01 1.000000000000000000e+01
2.231638580560683927e-01 -1.319424033164978027e+00 7.013018429279327393e-02 5.600000000000000000e+01
6.482707262039184570e-01 -3.832806825637816939e+00 -7.556036114692687988e-01 1.000000000000000000e+00
2.213942408561707098e-01 -1.310352206230164018e+00 1.162657588720321933e-01 6.700000000000000000e+01
2.221078127622604093e-01 -1.317374706268310991e+00 1.640361398458481113e-01 7.200000000000000000e+01
2.178393155336380005e-01 -1.293434262275696023e+00 2.077449709177016934e-01 6.300000000000000000e+01
2.416348457336426059e-01 -1.436252236366271973e+00 -1.274216920137405118e-01 1.600000000000000000e+01
2.209344953298569003e-01 -1.314613819122314009e+00 2.591186165809630793e-01 1.000000000000000000e+02
2.341173291206359863e-01 -1.394544005393981934e+00 -7.410771399736404419e-02 5.800000000000000000e+01
2.185233235359191895e-01 -1.303049564361572044e+00 3.050336241722106934e-01 7.200000000000000000e+01
2.306116372346878052e-01 -1.376604795455933061e+00 -2.436355873942374836e-02 5.300000000000000000e+01
2.189574986696243009e-01 -1.307036995887755904e+00 3.550997376441956122e-01 7.700000000000000000e+01
2.245214879512786865e-01 -1.353292584419250044e+00 2.394470199942589153e-02 6.000000000000000000e+01
5.238037109375000000e-01 -3.160618305206298828e+00 -7.396390438079833984e-01 8.000000000000000000e+00
2.179044485092163086e-01 -1.316254019737244096e+00 6.992083787918090820e-02 4.000000000000000000e+01
2.164938449859618863e-01 -1.309151291847229004e+00 1.160914525389671048e-01 7.500000000000000000e+01
2.178311645984649936e-01 -1.320100665092468040e+00 1.642798781394957941e-01 6.900000000000000000e+01
2.121343910694122037e-01 -1.288376569747925027e+00 2.068063616752625067e-01 6.600000000000000000e+01
2.340303659439086914e-01 -1.421359539031981978e+00 -1.260271966457366943e-01 6.700000000000000000e+01
2.169815301895141879e-01 -1.319251418113708052e+00 2.598818540573120117e-01 1.000000000000000000e+02
2.286004424095154086e-01 -1.391411066055298074e+00 -7.389836758375167847e-02 7.200000000000000000e+01
2.133423089981079102e-01 -1.299958348274230957e+00 3.041338324546813965e-01 7.400000000000000000e+01
2.215994447469711026e-01 -1.351747751235961914e+00 -2.390979602932929993e-02 5.700000000000000000e+01
2.122923284769057950e-01 -1.296391963958740012e+00 3.519938886165618896e-01 9.600000000000000000e+01
2.168251127004623136e-01 -1.334291577339171919e+00 2.359565347433089863e-02 6.100000000000000000e+01
2.132187187671661099e-01 -1.314997911453247070e+00 6.981616467237472534e-02 5.100000000000000000e+01
2.099215388298034946e-01 -1.296094775199889915e+00 1.148712709546089034e-01 8.200000000000000000e+01
2.362984418869019110e-01 -1.460565805435181108e+00 -2.343388348817825040e-01 2.000000000000000000e+00
2.131356596946716031e-01 -1.318856120109558105e+00 1.640361398458481113e-01 5.800000000000000000e+01
2.388464063405990878e-01 -1.479590535163878950e+00 -1.840227097272872925e-01 1.000000000000000000e+00
2.106042355298995972e-01 -1.304637670516967995e+00 2.093093097209929865e-01 7.300000000000000000e+01
2.251924425363540927e-01 -1.396556973457335982e+00 -1.237611547112465044e-01 6.400000000000000000e+01
2.107323706150054932e-01 -1.308334112167357954e+00 2.575921416282653809e-01 1.000000000000000000e+02
2.230333238840102872e-01 -1.386245846748352051e+00 -7.358435541391372681e-02 6.400000000000000000e+01
2.093395292758941928e-01 -1.302582740783690962e+00 3.045837283134459894e-01 7.700000000000000000e+01
2.183834910392760953e-01 -1.360372900962830034e+00 -2.404941618442535053e-02 5.700000000000000000e+01
2.069937437772751132e-01 -1.289422869682312012e+00 3.499233424663544256e-01 8.800000000000000000e+01
2.109108120203017911e-01 -1.327140688896178977e+00 2.345603518188000072e-02 6.000000000000000000e+01
2.108167111873626987e-01 -1.329542517662047896e+00 7.054886966943740845e-02 5.600000000000000000e+01
2.219854593276978094e-01 -1.399979472160338911e+00 -2.755281925201416016e-01 6.000000000000000000e+00
2.050843685865401944e-01 -1.294851779937743919e+00 1.146969571709633012e-01 7.800000000000000000e+01
2.244077920913696012e-01 -1.418457269668579102e+00 -2.274557054042815885e-01 1.800000000000000000e+01
2.048124670982361117e-01 -1.296062946319580078e+00 1.611112654209136963e-01 4.400000000000000000e+01
2.281090319156647006e-01 -1.445120573043823020e+00 -1.796354055404663086e-01 8.000000000000000000e+00
2.061287313699722012e-01 -1.307352066040039062e+00 2.096221894025802890e-01 9.000000000000000000e+01
2.221779972314834872e-01 -1.409143090248107910e+00 -1.248070225119591037e-01 6.400000000000000000e+01
2.052478641271590909e-01 -1.303243637084960938e+00 2.564472854137421209e-01 1.000000000000000000e+02
2.153996974229812900e-01 -1.369258999824523926e+00 -7.264230400323867798e-02 5.100000000000000000e+01
2.053963989019393921e-01 -1.307155728340148926e+00 3.054835200309752863e-01 8.500000000000000000e+01
2.127033919095993042e-01 -1.355200290679932085e+00 -2.394470199942589153e-02 5.400000000000000000e+01
2.016679644584656039e-01 -1.286355733871459961e+00 3.488880693912506104e-01 1.000000000000000000e+02
2.041282355785369873e-01 -1.314036846160888894e+00 2.321170084178448070e-02 5.600000000000000000e+01
2.196193635463714877e-01 -1.415386676788330078e+00 -3.306780457496643066e-01 3.000000000000000000e+00
2.049508690834045133e-01 -1.322375416755676047e+00 7.013018429279327393e-02 6.000000000000000000e+01
2.186007052659988126e-01 -1.410446286201477051e+00 -2.774362862110137939e-01 2.900000000000000000e+01
2.014776617288588922e-01 -1.301466584205626997e+00 1.152198910713195940e-01 8.000000000000000000e+01
2.170401662588120062e-01 -1.403614521026611106e+00 -2.249527573585509976e-01 4.000000000000000000e+01
1.987720727920531949e-01 -1.286960721015929954e+00 1.598925739526748935e-01 4.100000000000000000e+01
2.194312661886214932e-01 -1.422365427017211914e+00 -1.767105460166930875e-01 2.100000000000000000e+01
2.023946344852448065e-01 -1.311933040618896040e+00 2.102479189634323120e-01 9.400000000000000000e+01
2.148303538560867032e-01 -1.394156813621520996e+00 -1.234125345945357999e-01 6.400000000000000000e+01
2.001001238822937012e-01 -1.300071358680725098e+00 2.556840479373931885e-01 1.000000000000000000e+02
2.066734731197356900e-01 -1.344339609146117942e+00 -7.128157466650009155e-02 4.500000000000000000e+01
1.984661072492598932e-01 -1.292455434799193892e+00 3.018843233585358221e-01 8.300000000000000000e+01
2.064557373523711881e-01 -1.346051692962646040e+00 -2.377017773687839855e-02 5.000000000000000000e+01
1.991584151983261108e-01 -1.298474550247191939e+00 3.519938886165618896e-01 1.000000000000000000e+02
1.998402029275893887e-01 -1.316718459129333052e+00 2.324660494923591961e-02 6.100000000000000000e+01
2.161377966403960904e-01 -1.425778269767761008e+00 -3.329275548458098810e-01 2.500000000000000000e+01
1.979416310787200928e-01 -1.307284832000731978e+00 6.929280608892440796e-02 6.500000000000000000e+01
2.092672735452651978e-01 -1.382083892822266069e+00 -2.717120051383972168e-01 5.200000000000000000e+01
1.975293308496474942e-01 -1.306101918220520020e+00 1.155685111880302013e-01 8.000000000000000000e+01
2.133195102214812955e-01 -1.412176489830017090e+00 -2.262042313814162930e-01 4.400000000000000000e+01
1.933900713920592984e-01 -1.281758189201354980e+00 1.591613590717315951e-01 3.800000000000000000e+01
2.082528471946716031e-01 -1.381901144981384055e+00 -1.715920418500899991e-01 2.900000000000000000e+01
1.972907632589339932e-01 -1.310712695121764915e+00 2.099350541830062866e-01 9.900000000000000000e+01
2.081831842660903931e-01 -1.383077025413512962e+00 -1.223666593432426036e-01 6.400000000000000000e+01
1.949770450592041016e-01 -1.296879053115844949e+00 2.549208104610443115e-01 1.000000000000000000e+02
2.013864070177077970e-01 -1.341102600097656028e+00 -7.107222825288772583e-02 4.400000000000000000e+01
1.933752745389938077e-01 -1.289286017417907937e+00 3.009845018386840820e-01 8.100000000000000000e+01
1.999782919883728027e-01 -1.334898352622986062e+00 -2.356074936687945973e-02 4.900000000000000000e+01
1.949696987867355069e-01 -1.303017020225524902e+00 3.530291914939879816e-01 1.000000000000000000e+02
1.949496269226073941e-01 -1.315429925918579102e+00 2.321170084178448070e-02 6.300000000000000000e+01
2.097328305244446078e-01 -1.416885375976562944e+00 -3.306780457496643066e-01 5.200000000000000000e+01
1.930850446224212924e-01 -1.305992007255553977e+00 6.918813288211822510e-02 7.500000000000000000e+01
2.041544914245604914e-01 -1.380863785743712935e+00 -2.713303864002227783e-01 7.600000000000000000e+01
1.900584399700165072e-01 -1.287073254585265891e+00 1.138254031538963040e-01 8.800000000000000000e+01
2.072358876466751099e-01 -1.405095577239990012e+00 -2.249527573585509976e-01 4.600000000000000000e+01
1.889147162437438965e-01 -1.282425403594970925e+00 1.591613590717315951e-01 3.600000000000000000e+01
1.990934461355209073e-01 -1.353160500526428001e+00 -1.679359525442123136e-01 3.800000000000000000e+01
1.909303814172745029e-01 -1.297679305076598899e+00 2.077449709177016934e-01 1.000000000000000000e+02
1.998779475688934049e-01 -1.360140681266784890e+00 -1.202749237418175021e-01 4.800000000000000000e+01
1.921595185995101929e-01 -1.309206366539001021e+00 2.572105228900908869e-01 1.000000000000000000e+02
1.958347707986831943e-01 -1.335868954658508079e+00 -7.075821608304977417e-02 4.700000000000000000e+01
1.891559809446335116e-01 -1.291881322860717995e+00 3.014344274997711182e-01 8.900000000000000000e+01
1.938706189393996915e-01 -1.325695037841797097e+00 -2.338622510433197021e-02 6.400000000000000000e+01
1.889704167842864990e-01 -1.292187213897705078e+00 3.499233424663544256e-01 1.000000000000000000e+02
1.894979774951935092e-01 -1.310165047645569070e+00 2.310698665678501129e-02 6.800000000000000000e+01
2.047856897115707120e-01 -1.417608857154845969e+00 -3.306780457496643066e-01 7.300000000000000000e+01
1.870990395545958918e-01 -1.296774148941040039e+00 6.866477429866790771e-02 8.500000000000000000e+01
1.987724155187607089e-01 -1.377681732177733931e+00 -2.705671489238739014e-01 9.400000000000000000e+01
1.849962174892426092e-01 -1.283784747123718040e+00 1.134767755866050998e-01 8.600000000000000000e+01
2.006414979696274081e-01 -1.394078969955443892e+00 -2.230755537748337070e-01 5.000000000000000000e+01
1.872615218162536899e-01 -1.302726030349731001e+00 1.615987420082092008e-01 3.800000000000000000e+01
1.921119987964630127e-01 -1.338127613067626953e+00 -1.659860461950302124e-01 4.200000000000000000e+01
1.850513517856597900e-01 -1.290548920631408913e+00 2.064934968948363980e-01 1.000000000000000000e+02
1.900386214256286899e-01 -1.325330257415771040e+00 -1.171373203396797041e-01 5.900000000000000000e+01
1.875883638858794888e-01 -1.309869170188904031e+00 2.572105228900908869e-01 1.000000000000000000e+02
1.889081448316574097e-01 -1.320727348327636941e+00 -6.992083787918090820e-02 6.400000000000000000e+01
1.843697279691695889e-01 -1.290604591369628906e+00 3.009845018386840820e-01 8.500000000000000000e+01
1.889594495296477994e-01 -1.324383974075316939e+00 -2.335131913423537861e-02 7.800000000000000000e+01
1.823253035545349121e-01 -1.279483437538146973e+00 3.462998867034912109e-01 1.000000000000000000e+02
1.024047657847404064e-01 -7.249749898910522461e-01 -1.961848288774490079e-01 7.000000000000000000e+00
1.832474470138550082e-01 -1.298938035964966042e+00 2.289755642414093018e-02 7.300000000000000000e+01
1.979328691959381104e-01 -1.404807329177856001e+00 -3.275287449359893799e-01 6.700000000000000000e+01
1.834062486886977872e-01 -1.303352594375609907e+00 6.897879391908645630e-02 8.800000000000000000e+01
1.945093423128128052e-01 -1.382255434989928977e+00 -2.713303864002227783e-01 1.000000000000000000e+02
1.799592673778533936e-01 -1.280476689338684082e+00 1.131281554698943953e-01 9.000000000000000000e+01
1.933028250932692926e-01 -1.377165079116821067e+00 -2.202597260475158969e-01 4.900000000000000000e+01
1.821618527173995972e-01 -1.299439907073975053e+00 1.611112654209136963e-01 4.600000000000000000e+01
1.874398887157439908e-01 -1.338790059089661089e+00 -1.659860461950302124e-01 5.000000000000000000e+01
1.821401864290236872e-01 -1.300936937332153098e+00 2.080578356981276911e-01 1.000000000000000000e+02
1.856871098279953003e-01 -1.327958703041077104e+00 -1.173116266727448065e-01 7.100000000000000000e+01
1.811141818761826117e-01 -1.296905279159545898e+00 2.545391917228698730e-01 1.000000000000000000e+02
1.820896565914154053e-01 -1.305553793907165971e+00 -6.908345967531204224e-02 8.200000000000000000e+01
1.806701123714447021e-01 -1.297030568122863992e+00 3.023342192173004150e-01 8.900000000000000000e+01
1.846108734607697088e-01 -1.327016115188599077e+00 -2.338622510433197021e-02 9.400000000000000000e+01
1.786137521266936978e-01 -1.283907890319823997e+00 3.473351597785950262e-01 1.000000000000000000e+02
9.829240292310714722e-02 -7.138453125953674316e-01 -1.930790096521378119e-01 2.900000000000000000e+01
1.784397661685943881e-01 -1.297588706016540971e+00 2.286265231668949127e-02 8.200000000000000000e+01
1.909067779779433927e-01 -1.390044689178467019e+00 -3.239295184612274170e-01 4.900000000000000000e+01
1.783127635717391968e-01 -1.300027489662169966e+00 6.876944750547409058e-02 9.300000000000000000e+01
1.896831840276717862e-01 -1.382925868034363015e+00 -2.713303864002227783e-01 9.500000000000000000e+01
1.760292649269104004e-01 -1.285045027732848899e+00 1.134767755866050998e-01 8.800000000000000000e+01
1.868879646062850952e-01 -1.366088509559630904e+00 -2.183825075626373013e-01 4.300000000000000000e+01
1.765499562025069913e-01 -1.292200684547424094e+00 1.601363122463226041e-01 7.100000000000000000e+01
1.822287440299988071e-01 -1.335502505302428977e+00 -1.654985696077347079e-01 6.400000000000000000e+01
1.781320869922637939e-01 -1.305479288101196067e+00 2.086835801601409912e-01 9.900000000000000000e+01
1.802434772253035944e-01 -1.322676301002501997e+00 -1.167886927723884999e-01 8.900000000000000000e+01
1.749975532293319980e-01 -1.285857677459717019e+00 2.522494792938231867e-01 1.000000000000000000e+02
1.759173870086669922e-01 -1.294307112693787065e+00 -6.845542788505554199e-02 8.500000000000000000e+01
1.748309582471848089e-01 -1.287998199462891069e+00 3.000847101211547852e-01 8.500000000000000000e+01
1.794403493404387873e-01 -1.323689341545104980e+00 -2.331641502678393971e-02 9.800000000000000000e+01
1.751690357923507968e-01 -1.292180895805359109e+00 3.494057059288024902e-01 1.000000000000000000e+02
1.739092469215393066e-01 -1.298203706741333008e+00 2.286265231668949127e-02 8.600000000000000000e+01
1.837277859449386874e-01 -1.373318791389465110e+00 -3.198803961277008057e-01 4.700000000000000000e+01
1.721867620944977084e-01 -1.288763880729675071e+00 6.814141571521759033e-02 9.600000000000000000e+01
1.843347400426864902e-01 -1.379687666893004927e+00 -2.705671489238739014e-01 1.000000000000000000e+02
1.720695644617080966e-01 -1.289601445198059082e+00 1.138254031538963040e-01 8.800000000000000000e+01
1.792482286691665927e-01 -1.345193862915039062e+00 -2.149409502744674960e-01 4.200000000000000000e+01
1.717764139175415039e-01 -1.290841341018676980e+00 1.598925739526748935e-01 9.000000000000000000e+01
1.752122640609740933e-01 -1.318420290946960005e+00 -1.633049249649048129e-01 7.000000000000000000e+01
1.728262901306152066e-01 -1.302206993103026900e+00 2.080578356981276911e-01 1.000000000000000000e+02
1.764117628335953036e-01 -1.329222679138184038e+00 -1.173116266727448065e-01 1.000000000000000000e+02
1.723136901855469028e-01 -1.300084352493285911e+00 2.549208104610443115e-01 1.000000000000000000e+02
1.729708015918731967e-01 -1.306793212890625000e+00 -6.908345967531204224e-02 9.200000000000000000e+01
1.688016951084136963e-01 -1.277009010314940962e+00 2.973853051662445068e-01 8.700000000000000000e+01
1.732484847307204923e-01 -1.312412619590759055e+00 -2.310698665678501129e-02 9.800000000000000000e+01
1.706574112176894864e-01 -1.292784452438354048e+00 3.494057059288024902e-01 1.000000000000000000e+02
1.709281504154205045e-01 -1.310700297355652078e+00 2.307208068668841969e-02 9.100000000000000000e+01
1.799395531415939053e-01 -1.381681442260741965e+00 -3.216800093650817871e-01 5.800000000000000000e+01
1.682022511959075928e-01 -1.293318271636962891e+00 6.835076212882995605e-02 9.600000000000000000e+01
1.800239980220794955e-01 -1.384216427803039995e+00 -2.713303864002227783e-01 1.000000000000000000e+02
1.665405333042145053e-01 -1.282291054725646973e+00 1.131281554698943953e-01 8.800000000000000000e+01
1.742974519729613980e-01 -1.343852400779723899e+00 -2.146280854940413874e-01 6.500000000000000000e+01
1.682894229888916016e-01 -1.299307584762573020e+00 1.608675271272659024e-01 9.000000000000000000e+01
1.711183339357376099e-01 -1.322961330413817915e+00 -1.637924015522002896e-01 7.300000000000000000e+01
1.670144349336623868e-01 -1.293006777763366921e+00 2.064934968948363980e-01 1.000000000000000000e+02
1.699842214584350863e-01 -1.315998554229736106e+00 -1.160914525389671048e-01 1.000000000000000000e+02
1.680256575345993042e-01 -1.302625060081481934e+00 2.553024291992188055e-01 1.000000000000000000e+02
1.689185202121734897e-01 -1.311350822448730025e+00 -6.929280608892440796e-02 9.200000000000000000e+01
1.648403406143187921e-01 -1.281456112861633079e+00 2.982850968837738037e-01 8.700000000000000000e+01
1.676471233367919922e-01 -1.305075883865356001e+00 -2.296736650168896068e-02 9.100000000000000000e+01
1.646889597177504938e-01 -1.283820509910583052e+00 3.468175232410430908e-01 1.000000000000000000e+02
1.648419052362442017e-01 -1.299386143684386985e+00 2.286265231668949127e-02 8.600000000000000000e+01
1.751154810190201083e-01 -1.382301211357116921e+00 -3.216800093650817871e-01 7.300000000000000000e+01
1.641880422830581943e-01 -1.297860503196716087e+00 6.856010109186172485e-02 9.300000000000000000e+01
1.751910895109176913e-01 -1.384836435317992942e+00 -2.713303864002227783e-01 1.000000000000000000e+02
1.610646247863770086e-01 -1.274957776069640891e+00 1.124309077858925005e-01 9.000000000000000000e+01
1.671330928802489957e-01 -1.324854135513306108e+00 -2.114993929862976074e-01 8.000000000000000000e+01
1.637529730796813965e-01 -1.299887180328368919e+00 1.608675271272659024e-01 9.000000000000000000e+01
1.669948250055313110e-01 -1.327489733695984109e+00 -1.642798781394957941e-01 7.300000000000000000e+01
1.629924029111861905e-01 -1.297501921653748003e+00 2.071192264556885043e-01 1.000000000000000000e+02
1.646444946527481079e-01 -1.310653328895569070e+00 -1.155685111880302013e-01 1.000000000000000000e+02
1.632332652807235995e-01 -1.301255702972412109e+00 2.549208104610443115e-01 1.000000000000000000e+02
1.653330177068710050e-01 -1.319859623908997026e+00 -6.971149146556854248e-02 8.500000000000000000e+01
1.598824560642241877e-01 -1.278156280517577903e+00 2.973853051662445068e-01 8.700000000000000000e+01
1.633383929729461947e-01 -1.307637333869934082e+00 -2.300227247178554882e-02 8.800000000000000000e+01
1.594729572534560880e-01 -1.276691794395446999e+00 3.447469770908356268e-01 1.000000000000000000e+02
1.588367521762847900e-01 -1.288045644760132058e+00 2.265322394669055939e-02 8.900000000000000000e+01
1.698129475116730014e-01 -1.379035711288451926e+00 -3.207802176475524902e-01 8.300000000000000000e+01
1.606316715478897095e-01 -1.306354999542236106e+00 6.897879391908645630e-02 9.900000000000000000e+01
1.708352416753768921e-01 -1.389336705207824929e+00 -2.720936238765717108e-01 1.000000000000000000e+02
1.570988446474075040e-01 -1.279467344284058061e+00 1.127795279026030939e-01 9.200000000000000000e+01
1.620266735553740900e-01 -1.321508049964905007e+00 -2.108736634254456122e-01 7.500000000000000000e+01
1.582495868206023892e-01 -1.292569279670715110e+00 1.598925739526748935e-01 9.300000000000000000e+01
1.630826741456984919e-01 -1.333975791931151900e+00 -1.650110930204390924e-01 7.600000000000000000e+01
1.584622859954833984e-01 -1.298062920570373979e+00 2.071192264556885043e-01 1.000000000000000000e+02
1.610341817140578946e-01 -1.319130897521973100e+00 -1.162657588720321933e-01 1.000000000000000000e+02
1.565520018339157104e-01 -1.284278035163878950e+00 2.514862418174744207e-01 1.000000000000000000e+02
1.607248336076735895e-01 -1.320428609848022017e+00 -6.971149146556854248e-02 8.200000000000000000e+01
1.561252623796463013e-01 -1.284510135650634988e+00 2.987349927425385077e-01 9.200000000000000000e+01
1.607003360986709872e-01 -1.324080586433411089e+00 -2.328151091933250080e-02 9.400000000000000000e+01
1.550154983997344971e-01 -1.277240633964539018e+00 3.447469770908356268e-01 1.000000000000000000e+02
1.555172055959702093e-01 -1.296507239341736062e+00 2.279284223914146076e-02 9.100000000000000000e+01
1.629214584827423096e-01 -1.360242247581481934e+00 -3.162811696529387873e-01 9.600000000000000000e+01
1.560517996549606046e-01 -1.302887082099914995e+00 6.876944750547409058e-02 9.900000000000000000e+01
1.680921912193298062e-01 -1.405490398406981978e+00 -2.751465737819672186e-01 1.000000000000000000e+02
1.528551131486892978e-01 -1.279981255531311035e+00 1.127795279026030939e-01 9.000000000000000000e+01
1.588129699230194092e-01 -1.331845521926880105e+00 -2.124380022287369052e-01 6.900000000000000000e+01
1.532582938671112061e-01 -1.287173509597778098e+00 1.591613590717315951e-01 9.600000000000000000e+01
1.584237962961196899e-01 -1.332538008689879927e+00 -1.647673547267914096e-01 7.000000000000000000e+01
1.548499315977097113e-01 -1.302477478981018066e+00 2.077449709177016934e-01 1.000000000000000000e+02
1.573635041713714877e-01 -1.325593113899230957e+00 -1.167886927723884999e-01 1.000000000000000000e+02
1.518301218748092929e-01 -1.280890941619873047e+00 2.507230341434478760e-01 1.000000000000000000e+02
1.551714837551116943e-01 -1.311037302017211914e+00 -6.918813288211822510e-02 7.700000000000000000e+01
1.514073908329010010e-01 -1.281150221824645996e+00 2.978352010250092108e-01 9.700000000000000000e+01
1.567773371934891025e-01 -1.328577995300292969e+00 -2.335131913423537861e-02 9.400000000000000000e+01
1.512319445610046109e-01 -1.281584739685059038e+00 3.457822501659392755e-01 9.700000000000000000e+01
1.519155055284500122e-01 -1.304987311363219993e+00 2.293246239423751831e-02 8.900000000000000000e+01
1.583973318338393887e-01 -1.362738370895385964e+00 -3.167310953140258789e-01 8.800000000000000000e+01
1.498939245939255038e-01 -1.291546583175658958e+00 6.814141571521759033e-02 9.600000000000000000e+01
1.613744348287582120e-01 -1.390467286109924094e+00 -2.720936238765717108e-01 1.000000000000000000e+02
1.497622728347778043e-01 -1.292381882667541948e+00 1.138254031538963040e-01 8.800000000000000000e+01
1.548441201448441107e-01 -1.338278651237488015e+00 -2.133766114711760919e-01 6.100000000000000000e+01
1.492199301719666082e-01 -1.291644573211669922e+00 1.596488356590270996e-01 9.600000000000000000e+01
1.530890017747879028e-01 -1.327166914939879927e+00 -1.640361398458481113e-01 6.100000000000000000e+01
1.500750780105591098e-01 -1.303036212921143022e+00 2.077449709177016934e-01 1.000000000000000000e+02
1.541031450033187866e-01 -1.338010191917418990e+00 -1.178345605731010021e-01 9.700000000000000000e+01
1.496009528636932095e-01 -1.300917148590087891e+00 2.545391917228698730e-01 1.000000000000000000e+02
1.512776613235473910e-01 -1.317523598670959029e+00 -6.950215250253677368e-02 8.200000000000000000e+01
1.460466086864470880e-01 -1.273926734924315962e+00 2.960355877876281738e-01 8.900000000000000000e+01
1.514565348625183105e-01 -1.323157072067260964e+00 -2.324660494923591961e-02 9.100000000000000000e+01
1.465336829423903864e-01 -1.282130479812622070e+00 3.457822501659392755e-01 9.700000000000000000e+01
1.475793570280075073e-01 -1.309509515762329102e+00 2.300227247178554882e-02 8.900000000000000000e+01
1.547089815139771063e-01 -1.374928832054137962e+00 -3.194305002689362127e-01 9.500000000000000000e+01
1.458313316106795987e-01 -1.296031355857848899e+00 6.835076212882995605e-02 9.600000000000000000e+01
1.554003059864043912e-01 -1.383245468139647993e+00 -2.705671489238739014e-01 1.000000000000000000e+02
1.441361010074614923e-01 -1.285002231597899947e+00 1.131281554698943953e-01 8.600000000000000000e+01
1.514769941568374911e-01 -1.352578878402709961e+00 -2.155666947364807129e-01 5.800000000000000000e+01
1.438230425119400024e-01 -1.286264419555664062e+00 1.589176207780838013e-01 9.000000000000000000e+01
1.493248790502547940e-01 -1.337583184242248979e+00 -1.652548313140868863e-01 5.900000000000000000e+01
1.439852714538573941e-01 -1.291798233985901101e+00 2.058677524328232089e-01 1.000000000000000000e+02
1.487566381692886075e-01 -1.334605693817138894e+00 -1.174859404563903947e-01 1.000000000000000000e+02
1.454832702875137052e-01 -1.307310342788696067e+00 2.556840479373931885e-01 1.000000000000000000e+02
1.484326571226119995e-01 -1.335934638977051003e+00 -7.044419646263122559e-02 8.800000000000000000e+01
1.409467309713363925e-01 -1.270579695701598899e+00 2.951357960700988770e-01 9.400000000000000000e+01
1.459455192089081088e-01 -1.317740678787231001e+00 -2.314189076423645020e-02 8.800000000000000000e+01
1.420573294162749967e-01 -1.282634139060973899e+00 3.457822501659392755e-01 9.700000000000000000e+01
1.425734013319016058e-01 -1.306040883064270020e+00 2.293246239423751831e-02 8.600000000000000000e+01
1.507532000541687012e-01 -1.383209586143494096e+00 -3.212301135063170832e-01 9.300000000000000000e+01
1.417392343282699863e-01 -1.300503611564636008e+00 6.856010109186172485e-02 9.300000000000000000e+01
1.514204144477843961e-01 -1.391586422920227051e+00 -2.720936238765717108e-01 1.000000000000000000e+02
1.387890130281448087e-01 -1.277574658393860085e+00 1.124309077858925005e-01 8.800000000000000000e+01
1.469676941633223932e-01 -1.355063319206238015e+00 -2.158795595169067105e-01 6.100000000000000000e+01
1.414692699909209928e-01 -1.306494116783142090e+00 1.613550037145614902e-01 8.700000000000000000e+01
1.461484134197235107e-01 -1.351911544799804910e+00 -1.669609993696213046e-01 5.300000000000000000e+01
1.407469809055328092e-01 -1.304076790809630904e+00 2.077449709177016934e-01 1.000000000000000000e+02
1.440970897674561102e-01 -1.335116863250731978e+00 -1.174859404563903947e-01 1.000000000000000000e+02
1.404983550310134888e-01 -1.303906321525573953e+00 2.549208104610443115e-01 1.000000000000000000e+02
1.444093436002731046e-01 -1.342401981353759988e+00 -7.075821608304977417e-02 8.500000000000000000e+01
1.369269192218781073e-01 -1.274939179420470969e+00 2.960355877876281738e-01 9.200000000000000000e+01
1.424108147621155063e-01 -1.328183531761168990e+00 -2.331641502678393971e-02 9.800000000000000000e+01
1.367554068565368930e-01 -1.275438785552978960e+00 3.437117040157318115e-01 9.700000000000000000e+01
1.371733397245407104e-01 -1.298576116561890093e+00 2.279284223914146076e-02 8.400000000000000000e+01
1.453108489513396939e-01 -1.377913355827331987e+00 -3.198803961277008057e-01 8.200000000000000000e+01
1.382264047861098966e-01 -1.312932014465332031e+00 6.918813288211822510e-02 9.300000000000000000e+01
1.463563889265059870e-01 -1.390154123306273970e+00 -2.717120051383972168e-01 9.900000000000000000e+01
1.351616531610488892e-01 -1.285977244377136008e+00 1.131281554698943953e-01 8.600000000000000000e+01
1.418244689702987948e-01 -1.351638913154602051e+00 -2.152538299560546875e-01 6.600000000000000000e+01
1.360806524753571112e-01 -1.299082875251770020e+00 1.603800505399703979e-01 8.700000000000000000e+01
1.430801898241043091e-01 -1.368208050727844016e+00 -1.689109057188034058e-01 5.300000000000000000e+01
1.364217400550842008e-01 -1.304536342620850053e+00 2.077449709177016934e-01 9.200000000000000000e+01
1.402633041143417081e-01 -1.343538165092468040e+00 -1.181831881403923035e-01 1.000000000000000000e+02
1.341144144535064975e-01 -1.286814689636230025e+00 2.514862418174744207e-01 1.000000000000000000e+02
1.386891454458236972e-01 -1.332965254783629927e+00 -7.023485004901885986e-02 8.800000000000000000e+01
1.328783780336380005e-01 -1.279286026954651101e+00 2.969353795051575262e-01 9.700000000000000000e+01
1.371549665927886963e-01 -1.322705507278441939e+00 -2.321170084178448070e-02 8.800000000000000000e+01
1.316819339990616122e-01 -1.272088289260864036e+00 3.426764011383057196e-01 1.000000000000000000e+02
1.326396167278290072e-01 -1.299046993255615012e+00 2.279284223914146076e-02 8.400000000000000000e+01
1.401049196720123013e-01 -1.374534845352173074e+00 -3.189806044101715088e-01 7.900000000000000000e+01
1.330616772174834928e-01 -1.305435299873352051e+00 6.876944750547409058e-02 9.300000000000000000e+01
1.428941339254378995e-01 -1.404328703880310059e+00 -2.743833363056182861e-01 1.000000000000000000e+02
1.310746222734451016e-01 -1.290405511856079102e+00 1.134767755866050998e-01 8.600000000000000000e+01
1.381019055843352994e-01 -1.361952185630797896e+00 -2.168181687593460083e-01 6.900000000000000000e+01
1.303456723690032959e-01 -1.287699937820435014e+00 1.589176207780838013e-01 9.000000000000000000e+01
1.387025266885756891e-01 -1.372649192810059038e+00 -1.693983823060989102e-01 5.700000000000000000e+01
1.332254707813262939e-01 -1.320750832557678001e+00 2.102479189634323120e-01 8.300000000000000000e+01
1.367723792791367132e-01 -1.355913639068603960e+00 -1.192290559411049028e-01 9.700000000000000000e+01
1.308019459247589111e-01 -1.298995256423949973e+00 2.537759542465209961e-01 1.000000000000000000e+02
1.338356286287308017e-01 -1.331454038619994895e+00 -7.013018429279327393e-02 8.300000000000000000e+01
1.276337653398514072e-01 -1.271986007690429910e+00 2.951357960700988770e-01 9.400000000000000000e+01
1.339321583509444913e-01 -1.337104320526123047e+00 -2.345603518188000072e-02 9.100000000000000000e+01
1.272407174110412875e-01 -1.272540211677551047e+00 3.426764011383057196e-01 9.700000000000000000e+01
1.295102536678313931e-01 -1.311419844627379927e+00 2.300227247178554882e-02 8.400000000000000000e+01
1.368842869997025091e-01 -1.388567209243773970e+00 -3.221299052238463800e-01 7.500000000000000000e+01
1.279482096433640081e-01 -1.297918915748595969e+00 6.835076212882995605e-02 9.600000000000000000e+01
1.370828598737716952e-01 -1.393071889877318892e+00 -2.720936238765717108e-01 9.200000000000000000e+01
1.279633641242980957e-01 -1.302730202674865945e+00 1.145226433873176991e-01 8.400000000000000000e+01
1.339702755212784091e-01 -1.366334557533263938e+00 -2.174439132213593084e-01 7.000000000000000000e+01
1.268482655286788940e-01 -1.296027779579163042e+00 1.598925739526748935e-01 8.700000000000000000e+01
1.333778053522109985e-01 -1.365198850631714089e+00 -1.684234291315079013e-01 5.700000000000000000e+01
1.283072531223297119e-01 -1.313298821449280007e+00 2.089964449405669888e-01 8.500000000000000000e+01
1.328554153442383090e-01 -1.362308621406554954e+00 -1.197519898414611955e-01 1.000000000000000000e+02
1.272544562816619873e-01 -1.307237863540648970e+00 2.553024291992188055e-01 1.000000000000000000e+02
1.298059672117232999e-01 -1.335866332054137962e+00 -7.033952325582504272e-02 8.500000000000000000e+01
1.222862079739571034e-01 -1.260764479637145996e+00 2.924363613128662109e-01 9.700000000000000000e+01
1.289193183183670044e-01 -1.331569910049438032e+00 -2.335131913423537861e-02 8.800000000000000000e+01
1.233917847275733948e-01 -1.276800990104675071e+00 3.437117040157318115e-01 1.000000000000000000e+02
1.253109127283096036e-01 -1.315845251083374023e+00 2.307208068668841969e-02 9.100000000000000000e+01
1.325896829366683960e-01 -1.394856572151184082e+00 -3.234796226024628241e-01 8.300000000000000000e+01
1.234168559312820018e-01 -1.298357605934143066e+00 6.835076212882995605e-02 9.300000000000000000e+01
1.316629797220230103e-01 -1.387678503990172896e+00 -2.709487676620482843e-01 8.300000000000000000e+01
1.226638257503509938e-01 -1.295234918594359907e+00 1.138254031538963040e-01 8.400000000000000000e+01
1.301295608282088956e-01 -1.376626968383789062e+00 -2.190082520246506015e-01 7.400000000000000000e+01
1.226964443922042985e-01 -1.300415277481079102e+00 1.603800505399703979e-01 8.700000000000000000e+01
1.293560564517975131e-01 -1.373561501502990945e+00 -1.693983823060989102e-01 5.700000000000000000e+01
1.229813545942306935e-01 -1.305871963500977007e+00 2.077449709177016934e-01 1.000000000000000000e+02
1.280992478132247925e-01 -1.362764120101928933e+00 -1.197519898414611955e-01 1.000000000000000000e+02
1.226905733346938948e-01 -1.307674169540405051e+00 2.553024291992188055e-01 1.000000000000000000e+02
1.262594759464263916e-01 -1.348242640495300071e+00 -7.096755504608154297e-02 8.700000000000000000e+01
1.186100170016289035e-01 -1.268944740295409934e+00 2.942359745502471924e-01 9.200000000000000000e+01
1.242704764008522034e-01 -1.332011818885803001e+00 -2.335131913423537861e-02 9.400000000000000000e+01
1.189341694116591991e-01 -1.277223944664001021e+00 3.437117040157318115e-01 1.000000000000000000e+02
1.204872503876685957e-01 -1.316295742988585982e+00 2.307208068668841969e-02 8.600000000000000000e+01
1.285401582717896063e-01 -1.406977176666259988e+00 -3.261790275573729914e-01 9.600000000000000000e+01
1.193841546773910939e-01 -1.306757092475890891e+00 6.876944750547409058e-02 9.300000000000000000e+01
1.274673789739609042e-01 -1.397927522659301980e+00 -2.728568613529204767e-01 9.000000000000000000e+01
1.175545826554297985e-01 -1.291707396507262962e+00 1.134767755866050998e-01 8.400000000000000000e+01
1.249044016003608981e-01 -1.375127315521240012e+00 -2.186953872442244928e-01 7.100000000000000000e+01
1.191839277744292935e-01 -1.314695119857788086e+00 1.620862334966660101e-01 8.500000000000000000e+01
1.253941059112549106e-01 -1.385888457298279031e+00 -1.708608120679855069e-01 6.400000000000000000e+01
1.185502707958221019e-01 -1.310248613357543945e+00 2.083707004785537997e-01 9.700000000000000000e+01
1.227452307939529003e-01 -1.359255790710448997e+00 -1.194033697247505049e-01 1.000000000000000000e+02
1.182493418455124040e-01 -1.312025666236876997e+00 2.560656666755676270e-01 1.000000000000000000e+02
1.223906725645065030e-01 -1.360631704330443892e+00 -7.159558683633804321e-02 8.700000000000000000e+01
1.146553009748459001e-01 -1.277134776115417036e+00 2.960355877876281738e-01 9.400000000000000000e+01
1.195660308003426014e-01 -1.334450125694274902e+00 -2.338622510433197021e-02 9.100000000000000000e+01
1.132682859897613942e-01 -1.264162302017211914e+00 3.400882184505463202e-01 1.000000000000000000e+02
1.151904761791228970e-01 -1.308740377426147017e+00 2.293246239423751831e-02 8.600000000000000000e+01
1.229460239410399974e-01 -1.399652242660522017e+00 -3.243794143199921209e-01 8.600000000000000000e+01
1.155210584402083934e-01 -1.315124273300170898e+00 6.918813288211822510e-02 9.300000000000000000e+01
1.239585205912590027e-01 -1.414009928703308105e+00 -2.759098112583159845e-01 8.700000000000000000e+01
1.133922636508942067e-01 -1.296079516410828081e+00 1.138254031538963040e-01 8.400000000000000000e+01
1.197599098086356978e-01 -1.371619224548340066e+00 -2.180696427822113037e-01 7.200000000000000000e+01
1.142494156956672946e-01 -1.311147928237915039e+00 1.615987420082092008e-01 8.200000000000000000e+01
1.217595264315605025e-01 -1.400161147117614968e+00 -1.725669950246810913e-01 6.600000000000000000e+01
1.146604716777802069e-01 -1.318526268005371094e+00 2.096221894025802890e-01 8.300000000000000000e+01
1.181720569729804993e-01 -1.361660957336426003e+00 -1.195776760578155934e-01 1.000000000000000000e+02
1.128217875957489014e-01 -1.302650809288024902e+00 2.541575729846953791e-01 1.000000000000000000e+02
1.169524788856505931e-01 -1.353091239929198997e+00 -7.117690145969390869e-02 8.500000000000000000e+01
1.105315163731575012e-01 -1.281410217285156028e+00 2.969353795051575262e-01 9.400000000000000000e+01
1.154217123985290944e-01 -1.340836286544800027e+00 -2.349093928933143963e-02 8.400000000000000000e+01
1.089648306369780939e-01 -1.268418431282043013e+00 3.411234915256500244e-01 1.000000000000000000e+02
1.106214150786399980e-01 -1.309134483337401900e+00 2.293246239423751831e-02 8.600000000000000000e+01
1.177320927381516058e-01 -1.396189093589782937e+00 -3.234796226024628241e-01 8.200000000000000000e+01
1.110350564122200012e-01 -1.319519281387329102e+00 6.939747929573059082e-02 8.800000000000000000e+01
1.193511933088303029e-01 -1.418346643447875977e+00 -2.766730487346649170e-01 9.200000000000000000e+01
1.098677217960357944e-01 -1.308379769325255904e+00 1.148712709546089034e-01 8.000000000000000000e+01
1.156311407685279985e-01 -1.379902839660644975e+00 -2.193211168050765991e-01 7.000000000000000000e+01
1.086794510483742038e-01 -1.299669623374938965e+00 1.601363122463226041e-01 8.200000000000000000e+01
1.168713122606277049e-01 -1.400577664375304954e+00 -1.725669950246810913e-01 7.000000000000000000e+01
1.100572571158408980e-01 -1.318918466567992942e+00 2.096221894025802890e-01 8.100000000000000000e+01
1.140795871615409990e-01 -1.370007276535033958e+00 -1.202749237418175021e-01 1.000000000000000000e+02
1.081114262342453003e-01 -1.301080226898192915e+00 2.537759542465209961e-01 1.000000000000000000e+02
1.115684285759925981e-01 -1.345529556274414062e+00 -7.075821608304977417e-02 8.500000000000000000e+01
1.060578823089600026e-01 -1.281788229942321999e+00 2.969353795051575262e-01 9.400000000000000000e+01
1.120570003986359059e-01 -1.357174396514893022e+00 -2.377017773687839855e-02 8.600000000000000000e+01
1.047580093145370067e-01 -1.268772840499877930e+00 3.411234915256500244e-01 1.000000000000000000e+02
1.073423475027083934e-01 -1.325457930564879927e+00 2.321170084178448070e-02 8.200000000000000000e+01
1.131716966629028043e-01 -1.400476455688477007e+00 -3.243794143199921209e-01 8.300000000000000000e+01
1.059468239545822005e-01 -1.313926458358765093e+00 6.908345967531204224e-02 8.500000000000000000e+01
1.147150993347167969e-01 -1.422668457031250000e+00 -2.774362862110137939e-01 9.000000000000000000e+01
1.057793125510216037e-01 -1.314713239669800027e+00 1.153942048549651961e-01 7.800000000000000000e+01
1.116040721535682956e-01 -1.390143156051635964e+00 -2.208854705095291138e-01 6.600000000000000000e+01
1.046176329255104065e-01 -1.305977344512939009e+00 1.608675271272659024e-01 8.700000000000000000e+01
1.122980043292046010e-01 -1.404934644699096902e+00 -1.730544716119765958e-01 7.000000000000000000e+01
1.055365353822707991e-01 -1.323251247406006081e+00 2.102479189634323120e-01 8.100000000000000000e+01
1.099302768707274974e-01 -1.378341436386107954e+00 -1.209721714258193970e-01 9.600000000000000000e+01
1.035691499710083008e-01 -1.301449656486511008e+00 2.537759542465209961e-01 9.600000000000000000e+01
1.078195273876190047e-01 -1.357856750488281028e+00 -7.138624787330627441e-02 8.300000000000000000e+01
1.006594821810721935e-01 -1.270494699478148970e+00 2.942359745502471924e-01 9.700000000000000000e+01
1.063733547925948958e-01 -1.345596432685852051e+00 -2.356074936687945973e-02 8.200000000000000000e+01
1.011703684926033020e-01 -1.282629370689392090e+00 3.447469770908356268e-01 1.000000000000000000e+02
1.038752198219299039e-01 -1.337768793106079102e+00 2.342112921178340912e-02 7.700000000000000000e+01
1.098816320300101956e-01 -1.418330311775207964e+00 -3.284285366535186768e-01 9.200000000000000000e+01
1.015891060233116011e-01 -1.314270615577697976e+00 6.908345967531204224e-02 8.000000000000000000e+01
1.099967285990715027e-01 -1.423041105270385964e+00 -2.774362862110137939e-01 9.200000000000000000e+01
1.008061841130257069e-01 -1.307110786437988059e+00 1.146969571709633012e-01 7.800000000000000000e+01
1.071451306343079030e-01 -1.392475247383117898e+00 -2.211983352899551114e-01 6.000000000000000000e+01
1.008940711617470065e-01 -1.314234137535094993e+00 1.618424952030181885e-01 8.700000000000000000e+01
1.080932617187500000e-01 -1.411237239837646040e+00 -1.737856864929198941e-01 6.400000000000000000e+01
1.004737392067908963e-01 -1.311758637428283913e+00 2.083707004785537997e-01 1.000000000000000000e+02
1.056625545024871965e-01 -1.382671594619750977e+00 -1.213207915425301014e-01 9.700000000000000000e+01
9.970057755708694458e-02 -1.307658672332763894e+00 2.549208104610443115e-01 1.000000000000000000e+02
1.042250618338585039e-01 -1.370155811309814009e+00 -7.201427221298217773e-02 8.200000000000000000e+01
9.615087509155273438e-02 -1.266935229301453081e+00 2.933361828327178955e-01 8.900000000000000000e+01
1.017596349120139937e-01 -1.343947768211364968e+00 -2.352584339678287853e-02 7.600000000000000000e+01
9.655695408582687378e-02 -1.275235533714293990e+00 3.426764011383057196e-01 1.000000000000000000e+02
9.876136481761932373e-02 -1.332140564918518066e+00 2.331641502678393971e-02 7.400000000000000000e+01
1.050738021731377064e-01 -1.420648574829102007e+00 -3.288784325122833252e-01 8.200000000000000000e+01
