-4.318890094757080078e+00 3.103395700454711914e-01 -6.858087182044982910e-01 1.000000000000000000e+01
-5.666581153869628906e+00 4.091679453849791925e-01 -6.975800991058349609e-01 1.000000000000000000e+01
-8.203122138977050781e+00 5.937637090682983398e-01 -7.195578217506408691e-01 2.000000000000000000e+00
-3.430526351928710938e+01 2.507182121276855025e+00 -6.003977060317993164e-01 1.900000000000000000e+01
-2.519880771636962891e+00 1.877017319202423096e-01 -6.770706176757812500e-01 1.500000000000000000e+01
-4.474661254882813211e+01 3.340954065322875977e+00 7.832291126251220703e-01 4.800000000000000000e+01
-2.926618099212646040e+00 2.190261930227279941e-01 -6.775525808334350586e-01 1.300000000000000000e+01
-3.476970672607421875e+00 2.608244717121124268e-01 -6.777535676956176758e-01 1.100000000000000000e+01
-4.486747741699218750e+01 3.373602628707886186e+00 3.936476230621337891e+00 5.400000000000000000e+01
-4.303991794586181641e+00 3.243742287158966064e-01 -6.836186051368713379e-01 1.000000000000000000e+01
-4.496326446533203125e+01 3.396589040756226030e+00 5.536524295806884766e+00 3.800000000000000000e+01
-5.676994800567626953e+00 4.298447668552399237e-01 -6.990425586700439453e-01 1.000000000000000000e+01
-8.216893196105957031e+00 6.236005425453186035e-01 -7.209523320198059082e-01 2.000000000000000000e+00
-3.432820510864257812e+01 2.629358053207397017e+00 -6.009561419486999512e-01 2.000000000000000000e+01
-2.515358209609984907e+00 1.961961537599563876e-01 -6.760353446006774902e-01 1.400000000000000000e+01
-4.473069381713867188e+01 3.496816873550415039e+00 7.831593155860900879e-01 4.800000000000000000e+01
-2.916121959686278853e+00 2.284795790910721103e-01 -6.753030419349670410e-01 1.300000000000000000e+01
-4.491191864013671875e+01 3.526757478713988814e+00 2.360979557037353960e+00 3.500000000000000000e+01
-3.479953527450561968e+00 2.732671499252318781e-01 -6.785168051719665527e-01 1.100000000000000000e+01
-4.485542678833007812e+01 3.530198812484741211e+00 3.936476230621337891e+00 5.400000000000000000e+01
-4.304802894592285156e+00 3.395513296127318781e-01 -6.839314699172973633e-01 1.000000000000000000e+01
-4.491155242919921875e+01 3.550390481948852983e+00 5.531649589538574219e+00 3.800000000000000000e+01
-5.679417610168457031e+00 4.499721229076384943e-01 -6.995300054550170898e-01 1.000000000000000000e+01
-8.208707809448242188e+00 6.518058776855468750e-01 -7.204293608665466309e-01 3.000000000000000000e+00
-3.433476638793945312e+01 2.750447273254394975e+00 -6.012353897094726562e-01 2.000000000000000000e+01
-2.524285316467285156e+00 2.057599425315856934e-01 -6.786235570907592773e-01 1.500000000000000000e+01
-4.470625686645507812e+01 3.651957988739014116e+00 7.829498648643493652e-01 4.800000000000000000e+01
-2.907537698745727983e+00 2.380213588476181030e-01 -6.735034584999084473e-01 1.500000000000000000e+01
-3.475064992904663086e+00 2.850917577743530273e-01 -6.777535676956176758e-01 1.100000000000000000e+01
-4.488254547119141336e+01 3.690016984939575195e+00 3.939962625503540039e+00 5.400000000000000000e+01
-4.299654006958007812e+00 3.542514145374298096e-01 -6.833057403564453125e-01 1.000000000000000000e+01
-4.483953475952147727e+01 3.702239036560059038e+00 5.524337291717529297e+00 3.700000000000000000e+01
-5.661985397338867188e+00 4.684847295284271240e-01 -6.975800991058349609e-01 1.000000000000000000e+01
-8.176599502563476562e+00 6.779860854148864746e-01 -7.178146839141845703e-01 2.000000000000000000e+00
-1.537561321258544922e+01 1.280317068099976030e+00 -8.085905313491821289e-01 4.000000000000000000e+00
-3.436082458496093750e+01 2.873280525207519975e+00 -6.018636822700500488e-01 2.000000000000000000e+01
-2.527401685714722124e+00 2.148974239826202115e-01 -6.796588301658630371e-01 1.400000000000000000e+01
-4.471316146850585938e+01 3.809687137603760210e+00 7.832989096641540527e-01 4.800000000000000000e+01
-2.914455652236938032e+00 2.488322108983994085e-01 -6.753030419349670410e-01 1.500000000000000000e+01
-3.477960824966431108e+00 2.975549697875977118e-01 -6.785168051719665527e-01 1.100000000000000000e+01
-4.486939239501953125e+01 3.846663713455200195e+00 3.939962625503540039e+00 5.400000000000000000e+01
-4.302327156066895419e+00 3.695960044860839844e-01 -6.839314699172973633e-01 1.000000000000000000e+01
-4.485007476806641336e+01 3.860778808593750000e+00 5.527262210845947266e+00 3.800000000000000000e+01
-5.640538215637207031e+00 4.865399301052094061e-01 -6.951427459716796875e-01 1.000000000000000000e+01
-8.170212745666503906e+00 7.061804533004760742e-01 -7.174660563468933105e-01 2.000000000000000000e+00
-1.537104988098145064e+01 1.333980083465575950e+00 -8.085905313491821289e-01 4.000000000000000000e+00
-3.426492309570313211e+01 2.985740423202515093e+00 -6.003627777099609375e-01 1.900000000000000000e+01
-2.513165950775146040e+00 2.225256860256195068e-01 -6.760353446006774902e-01 1.400000000000000000e+01
-4.474739456176757812e+01 3.969983339309691939e+00 7.841365933418273926e-01 4.800000000000000000e+01
-2.907746076583861861e+00 2.584863901138306219e-01 -6.739533543586730957e-01 1.400000000000000000e+01
-3.474945545196533203e+00 3.095193207263947088e-01 -6.781351566314697266e-01 1.200000000000000000e+01
-4.485569000244141336e+01 4.003263950347900391e+00 3.939962625503540039e+00 5.400000000000000000e+01
-4.302978515625000000e+00 3.847876191139221191e-01 -6.842443346977233887e-01 9.000000000000000000e+00
-4.485214233398438211e+01 4.018728256225585938e+00 5.529211997985839844e+00 3.800000000000000000e+01
-5.658576965332031250e+00 5.080010890960693359e-01 -6.975800991058349609e-01 1.000000000000000000e+01
-8.159760475158691406e+00 7.339815497398376465e-01 -7.167688012123107910e-01 2.000000000000000000e+00
-1.536629962921142933e+01 1.387627005577086958e+00 -8.085905313491821289e-01 4.000000000000000000e+00
-3.428416442871093750e+01 3.108037233352661133e+00 -6.008863449096679688e-01 2.000000000000000000e+01
-2.508526325225830078e+00 2.309427112340927124e-01 -6.750000715255737305e-01 1.400000000000000000e+01
-4.473326492309570312e+01 4.126156806945800781e+00 7.841365933418273926e-01 4.800000000000000000e+01
-2.914587974548339844e+00 2.693520486354827881e-01 -6.757529377937316895e-01 1.300000000000000000e+01
-3.467979192733765093e+00 3.211042284965515137e-01 -6.769903302192687988e-01 1.200000000000000000e+01
-4.486921691894531250e+01 4.162391662597656250e+00 3.942402839660644975e+00 5.400000000000000000e+01
-4.299642086029052734e+00 3.996226489543914795e-01 -6.839314699172973633e-01 1.000000000000000000e+01
-4.485365295410156250e+01 4.176739692687988281e+00 5.531161785125732422e+00 3.800000000000000000e+01
-5.640957355499267578e+00 5.262749195098876953e-01 -6.956301927566528320e-01 1.000000000000000000e+01
-8.139294624328613281e+00 7.607911229133605957e-01 -7.152000069618225098e-01 2.000000000000000000e+00
-1.528977584838867010e+01 1.434540390968322976e+00 -8.048223257064819336e-01 4.000000000000000000e+00
-3.430695343017578125e+01 3.230879783630371094e+00 -6.014797091484069824e-01 2.000000000000000000e+01
-2.513474225997924805e+00 2.402491420507431030e-01 -6.765530109405517578e-01 1.500000000000000000e+01
-4.473052978515625000e+01 4.283423423767089844e+00 7.843460440635681152e-01 4.800000000000000000e+01
-2.907810449600220171e+00 2.789659202098845880e-01 -6.744032502174377441e-01 1.500000000000000000e+01
-3.462928771972655806e+00 3.328321278095244806e-01 -6.762270927429199219e-01 1.100000000000000000e+01
-4.482664871215820312e+01 4.316315650939941406e+00 3.939962625503540039e+00 5.400000000000000000e+01
-4.286423683166503906e+00 4.134907126426696777e-01 -6.820542812347412109e-01 1.000000000000000000e+01
-4.485065460205078125e+01 4.334428310394287109e+00 5.532624244689941406e+00 3.800000000000000000e+01
-5.650940895080566406e+00 5.471101403236389160e-01 -6.970926523208618164e-01 1.000000000000000000e+01
-8.112792968750000000e+00 7.868897914886474609e-01 -7.131083011627197266e-01 2.000000000000000000e+00
-1.515745162963867010e+01 1.475518226623534934e+00 -7.981233596801757812e-01 4.000000000000000000e+00
-3.427357101440429688e+01 3.348474740982056108e+00 -6.010957956314086914e-01 2.000000000000000000e+01
-2.516508579254149947e+00 2.489631921052933017e-01 -6.775882840156555176e-01 1.300000000000000000e+01
-4.475587844848632812e+01 4.435676097869873047e+00 7.850441336631774902e-01 4.900000000000000000e+01
-2.901051759719849077e+00 2.880294322967528742e-01 -6.730535626411437988e-01 1.400000000000000000e+01
-3.469620466232299805e+00 3.450910151004791260e-01 -6.777535676956176758e-01 1.100000000000000000e+01
-4.487553405761718750e+01 4.471263408660888672e+00 3.945540428161621094e+00 5.400000000000000000e+01
-4.281097412109375000e+00 4.273103475570679266e-01 -6.814285516738891602e-01 1.000000000000000000e+01
-4.486763763427733664e+01 4.486294746398925781e+00 5.536524295806884766e+00 3.800000000000000000e+01
-5.635269165039063388e+00 5.644613504409790039e-01 -6.953864693641662598e-01 1.200000000000000000e+01
-8.143839836120605469e+00 8.171700835227966309e-01 -7.160716056823730469e-01 2.000000000000000000e+00
-1.515247535705566051e+01 1.525774002075195090e+00 -7.981233596801757812e-01 4.000000000000000000e+00
-3.424835205078125000e+01 3.460704326629639116e+00 -6.008514761924743652e-01 1.300000000000000000e+01
-2.513702392578125000e+00 2.575490176677703857e-01 -6.770706176757812500e-01 1.400000000000000000e+01
-4.475603866577147727e+01 4.593509674072265625e+00 7.853233814239501953e-01 4.900000000000000000e+01
-2.903905868530272993e+00 2.985528409481049139e-01 -6.739533543586730957e-01 1.500000000000000000e+01
-3.454724311828612837e+00 3.557922542095183771e-01 -6.750822067260742188e-01 1.100000000000000000e+01
-4.489532470703125000e+01 4.631561279296875000e+00 3.948678016662598100e+00 5.400000000000000000e+01
-4.279580116271972656e+00 4.422515630722045898e-01 -6.814285516738891602e-01 1.000000000000000000e+01
-4.486947631835938211e+01 4.644724369049072266e+00 5.538717746734619141e+00 7.600000000000000000e+01
-5.603646755218505859e+00 5.810575485229492188e-01 -6.917303800582885742e-01 1.000000000000000000e+01
-8.123102188110351562e+00 8.437398672103881836e-01 -7.145027518272399902e-01 2.000000000000000000e+00
-3.424799728393554688e+01 3.581480264663695845e+00 -6.010608673095703125e-01 1.300000000000000000e+01
-2.514709234237670898e+00 2.665255367755889893e-01 -6.775882840156555176e-01 1.500000000000000000e+01
-4.479143142700195312e+01 4.755198001861572266e+00 7.862309217453002930e-01 4.900000000000000000e+01
-2.900908231735229048e+00 3.084814846515656073e-01 -6.735034584999084473e-01 1.400000000000000000e+01
-4.506686782836914062e+01 4.800348281860351562e+00 2.375215053558350053e+00 3.500000000000000000e+01
-3.449556827545166016e+00 3.674334585666655939e-01 -6.743189692497253418e-01 1.200000000000000000e+01
-4.485907363891602273e+01 4.786133289337158203e+00 3.946934938430786133e+00 5.400000000000000000e+01
-4.285866737365722656e+00 4.580270349979401190e-01 -6.826800107955932617e-01 1.000000000000000000e+01
-4.485496139526367188e+01 4.801530838012695312e+00 5.538961887359619141e+00 3.800000000000000000e+01
-5.601584434509277344e+00 6.006144285202026367e-01 -6.917303800582885742e-01 1.000000000000000000e+01
-8.094354629516601562e+00 8.693237900733947754e-01 -7.122367024421691895e-01 2.000000000000000000e+00
-3.424721527099608664e+01 3.702295780181885210e+00 -6.012703180313110352e-01 2.000000000000000000e+01
-2.504161596298218218e+00 2.742502987384796143e-01 -6.750000715255737305e-01 1.400000000000000000e+01
-4.477456283569335938e+01 4.911520481109619141e+00 7.862309217453002930e-01 4.900000000000000000e+01
-2.915310382843018022e+00 3.203082978725432794e-01 -6.771026849746704102e-01 1.300000000000000000e+01
-3.458010673522949219e+00 3.805461823940277100e-01 -6.762270927429199219e-01 1.200000000000000000e+01
-4.484605407714843750e+01 4.943128108978270596e+00 3.947283506393433061e+00 5.400000000000000000e+01
-4.276388168334960938e+00 4.721176624298096258e-01 -6.814285516738891602e-01 1.000000000000000000e+01
-4.487541580200195312e+01 4.962220191955566406e+00 5.543592929840087891e+00 7.600000000000000000e+01
-5.599453926086425781e+00 6.201639175415039062e-01 -6.917303800582885742e-01 1.000000000000000000e+01
-8.079389572143554688e+00 8.962550759315490723e-01 -7.111908793449401855e-01 3.000000000000000000e+00
-1.500862693786620916e+01 1.670226216316222922e+00 -7.914243340492248535e-01 4.000000000000000000e+00
-3.423408508300781250e+01 3.821818351745605025e+00 -6.012703180313110352e-01 1.300000000000000000e+01
-2.497430324554442915e+00 2.823387384414672852e-01 -6.734471321105957031e-01 1.500000000000000000e+01
-4.476906585693358664e+01 5.069132804870604581e+00 7.864403128623962402e-01 4.900000000000000000e+01
-2.898683786392211914e+00 3.287259638309478760e-01 -6.735034584999084473e-01 1.300000000000000000e+01
-3.448858261108397993e+00 3.917283117771149237e-01 -6.747006177902221680e-01 1.200000000000000000e+01
-4.487603759765625000e+01 5.105044841766357422e+00 3.951467037200928178e+00 5.400000000000000000e+01
-4.257050037384033203e+00 4.850295782089232843e-01 -6.786127090454101562e-01 9.000000000000000000e+00
-4.487162780761718750e+01 5.120409488677979404e+00 5.545299053192138672e+00 7.700000000000000000e+01
-5.601199150085449219e+00 6.401566863059997559e-01 -6.922178864479064941e-01 1.000000000000000000e+01
-8.084129333496093750e+00 9.253582954406738281e-01 -7.118881344795227051e-01 3.000000000000000000e+00
-1.493127346038818004e+01 1.714404106140136941e+00 -7.876561284065246582e-01 4.000000000000000000e+00
-3.418875122070313211e+01 3.937633514404296875e+00 -6.007118225097656250e-01 1.300000000000000000e+01
-2.502186059951781782e+00 2.917258143424987793e-01 -6.750000715255737305e-01 1.500000000000000000e+01
-4.477493286132813211e+01 5.228157997131347656e+00 7.868592143058776855e-01 4.900000000000000000e+01
-2.897518873214722124e+00 3.388422429561614990e-01 -6.735034584999084473e-01 1.400000000000000000e+01
-3.459169626235961914e+00 4.051349461078643799e-01 -6.769903302192687988e-01 1.200000000000000000e+01
-4.487773132324218750e+01 5.263981342315673828e+00 3.953210115432738814e+00 5.400000000000000000e+01
-4.251407146453857422e+00 4.994255602359771729e-01 -6.779869794845581055e-01 9.000000000000000000e+00
-4.486136627197266336e+01 5.277937412261962891e+00 5.546273708343505859e+00 7.700000000000000000e+01
-5.583158969879150391e+00 6.578463315963745117e-01 -6.902679800987243652e-01 1.000000000000000000e+01
-8.053149223327636719e+00 9.503026604652404785e-01 -7.094477415084838867e-01 3.000000000000000000e+00
-1.492519760131835938e+01 1.766513586044311968e+00 -7.876561284065246582e-01 4.000000000000000000e+00
-3.414898300170897727e+01 4.053885936737061435e+00 -6.002580523490905762e-01 1.900000000000000000e+01
-2.506906747817993164e+00 3.011495471000670832e-01 -6.765530109405517578e-01 1.400000000000000000e+01
-4.478023529052733664e+01 5.387286186218261719e+00 7.872780561447143555e-01 4.900000000000000000e+01
-2.896318435668944868e+00 3.489544093608856201e-01 -6.735034584999084473e-01 1.300000000000000000e+01
-3.444090366363524947e+00 4.155609607696533203e-01 -6.743189692497253418e-01 1.100000000000000000e+01
-4.490655517578125000e+01 5.426338195800781250e+00 3.957393646240233931e+00 5.400000000000000000e+01
-4.257482528686523438e+00 5.152119994163513184e-01 -6.792384386062622070e-01 1.000000000000000000e+01
-4.485055541992188211e+01 5.435456275939941406e+00 5.547248840332031250e+00 7.700000000000000000e+01
-5.574916839599609375e+00 6.766136288642883301e-01 -6.895367503166198730e-01 8.000000000000000000e+00
-8.065605163574218750e+00 9.803307652473449707e-01 -7.108422517776489258e-01 2.000000000000000000e+00
-3.414454650878906250e+01 4.174276828765869141e+00 -6.004325747489929199e-01 1.900000000000000000e+01
-2.500088453292847124e+00 3.091871440410614014e-01 -6.750000715255737305e-01 1.400000000000000000e+01
-4.478100204467772727e+01 5.546023368835449219e+00 7.876271009445190430e-01 4.900000000000000000e+01
-2.893148660659790039e+00 3.588224649429320734e-01 -6.730535626411437988e-01 1.500000000000000000e+01
-3.436774015426636186e+00 4.268546104431151789e-01 -6.731741428375244141e-01 1.200000000000000000e+01
-4.488734054565429688e+01 5.583057880401611328e+00 3.957393646240233931e+00 5.400000000000000000e+01
-4.261538505554199219e+00 5.308027267456054688e-01 -6.801770329475402832e-01 1.000000000000000000e+01
-4.486479568481445312e+01 5.596157550811767578e+00 5.551392555236816406e+00 7.700000000000000000e+01
-5.566611766815186435e+00 6.953314542770385742e-01 -6.888055205345153809e-01 1.000000000000000000e+01
-8.022594451904296875e+00 1.003533005714416948e+00 -7.073560357093811035e-01 3.000000000000000000e+00
-3.411389541625977273e+01 4.291441440582275391e+00 -6.001533269882202148e-01 1.300000000000000000e+01
-2.489411830902100053e+00 3.166931867599486750e-01 -6.724118590354919434e-01 1.500000000000000000e+01
-4.480501174926757812e+01 5.707863807678222656e+00 7.883949875831604004e-01 4.900000000000000000e+01
-2.901543855667113814e+00 3.701522648334503174e-01 -6.753030419349670410e-01 1.200000000000000000e+01
-3.433315753936768022e+00 4.385998249053955078e-01 -6.727924942970275879e-01 1.200000000000000000e+01
-4.486757659912108664e+01 5.739710330963134766e+00 3.957393646240233931e+00 5.400000000000000000e+01
-4.253781795501708984e+00 5.449219942092895508e-01 -6.792384386062622070e-01 9.000000000000000000e+00
-4.488042831420897727e+01 5.757277488708496094e+00 5.555779457092285156e+00 7.700000000000000000e+01
-5.558243751525878906e+00 7.139995694160461426e-01 -6.880742907524108887e-01 1.000000000000000000e+01
-8.017066955566406250e+00 1.031276822090148926e+00 -7.071816921234130859e-01 2.000000000000000000e+00
-3.407689285278320312e+01 4.407673358917236328e+00 -5.997694134712219238e-01 1.900000000000000000e+01
-2.494037866592406782e+00 3.261323869228363037e-01 -6.739647984504699707e-01 1.500000000000000000e+01
-4.481257247924804688e+01 5.867862701416015625e+00 7.888836860656738281e-01 4.900000000000000000e+01
-2.892505407333374023e+00 3.792648911476135254e-01 -6.735034584999084473e-01 1.400000000000000000e+01
-3.429817199707030806e+00 4.503260850906372070e-01 -6.724109053611755371e-01 1.200000000000000000e+01
-4.487887573242188211e+01 5.900447845458984375e+00 3.960182666778564009e+00 5.400000000000000000e+01
-4.240102767944335938e+00 5.582201480865478516e-01 -6.773612499237060547e-01 9.000000000000000000e+00
-4.486989974975585938e+01 5.915201187133789062e+00 5.556998252868652344e+00 7.700000000000000000e+01
-5.555717468261718750e+00 7.333971261978149414e-01 -6.880742907524108887e-01 1.000000000000000000e+01
-7.983789920806884766e+00 1.055338978767395020e+00 -7.045670151710510254e-01 2.000000000000000000e+00
-1.470108413696289062e+01 1.948487401008605957e+00 -7.771889567375183105e-01 4.000000000000000000e+00
-3.403949356079102273e+01 4.523699283599854404e+00 -5.993854403495788574e-01 1.900000000000000000e+01
-2.500542879104613814e+00 3.358649015426635742e-01 -6.760353446006774902e-01 1.400000000000000000e+01
-4.479974365234375000e+01 6.025318145751953125e+00 7.890232801437377930e-01 4.900000000000000000e+01
-2.881507396697998047e+00 3.880588412284851074e-01 -6.712539196014404297e-01 1.200000000000000000e+01
-3.439898252487183061e+00 4.638698399066925049e-01 -6.747006177902221680e-01 1.200000000000000000e+01
-4.485800552368164062e+01 6.057068347930908203e+00 3.960182666778564009e+00 5.400000000000000000e+01
-4.245958805084229404e+00 5.740761160850524902e-01 -6.786127090454101562e-01 9.000000000000000000e+00
-4.486864852905272727e+01 6.074453830718994141e+00 5.559435844421386719e+00 7.700000000000000000e+01
-5.541321277618408203e+00 7.511857748031616211e-01 -6.866118907928466797e-01 1.200000000000000000e+01
-7.976109027862548828e+00 1.082665205001831055e+00 -7.042183876037597656e-01 1.000000000000000000e+00
-1.469419288635254084e+01 1.999791860580443892e+00 -7.771889567375183105e-01 4.000000000000000000e+00
-3.398585128784179688e+01 4.637354850769042969e+00 -5.987222790718078613e-01 1.900000000000000000e+01
-2.503182888031005859e+00 3.451190888881682794e-01 -6.770706176757812500e-01 1.500000000000000000e+01
-4.479824829101563211e+01 6.184396266937255859e+00 7.893723249435424805e-01 4.900000000000000000e+01
-2.885926246643065962e+00 3.989153206348419189e-01 -6.726036667823791504e-01 1.300000000000000000e+01
-4.487910079956054688e+01 6.203540802001953125e+00 2.374377727508544922e+00 3.500000000000000000e+01
-3.416866302490233931e+00 4.729137420654296875e-01 -6.705027818679809570e-01 1.300000000000000000e+01
-4.485632324218750000e+01 6.216350078582763672e+00 3.961925745010375977e+00 5.400000000000000000e+01
-4.232189178466796875e+00 5.872647762298583984e-01 -6.767355203628540039e-01 9.000000000000000000e+00
-4.487469863891602273e+01 6.234861850738525391e+00 5.562848091125488281e+00 7.700000000000000000e+01
-5.534732818603515625e+00 7.699769735336303711e-01 -6.861243844032287598e-01 1.000000000000000000e+01
-8.001880645751953125e+00 1.114623546600342019e+00 -7.068330645561218262e-01 2.000000000000000000e+00
-3.398926162719727273e+01 4.758732318878173828e+00 -5.990713238716125488e-01 1.900000000000000000e+01
-2.492398738861083984e+00 3.525020778179169256e-01 -6.744824051856994629e-01 1.700000000000000000e+01
-4.478826904296875000e+01 6.342416286468505859e+00 7.895817756652832031e-01 4.900000000000000000e+01
-2.884516239166260210e+00 4.089866578578948975e-01 -6.726036667823791504e-01 1.200000000000000000e+01
-4.486112976074218750e+01 6.360721111297607422e+00 2.374587059020996094e+00 3.500000000000000000e+01
-3.411307096481322798e+00 4.842860698699951172e-01 -6.697395443916320801e-01 1.200000000000000000e+01
-4.486591339111328125e+01 6.377376079559326172e+00 3.964714765548706055e+00 5.400000000000000000e+01
-4.239892005920410156e+00 6.034259796142578125e-01 -6.782998442649841309e-01 9.000000000000000000e+00
-4.489196395874022727e+01 6.397067070007324219e+00 5.567722797393798828e+00 7.800000000000000000e+01
-5.537907123565673828e+00 7.901332378387451172e-01 -6.868556141853332520e-01 1.200000000000000000e+01
-7.968356132507324219e+00 1.138322114944458008e+00 -7.042183876037597656e-01 2.000000000000000000e+00
-1.455333995819091975e+01 2.084206104278564009e+00 -7.704899311065673828e-01 4.000000000000000000e+00
-3.400807189941406250e+01 4.882462978363037109e+00 -5.996996164321899414e-01 1.900000000000000000e+01
-2.485417604446411133e+00 3.603684008121489923e-01 -6.729295253753662109e-01 1.400000000000000000e+01
-4.477376937866210938e+01 6.499866962432861328e+00 7.897213697433471680e-01 4.900000000000000000e+01
-2.886928081512451172e+00 4.196135997772216797e-01 -6.735034584999084473e-01 1.400000000000000000e+01
-4.481888961791992188e+01 6.514403820037841797e+00 2.373540401458739790e+00 3.500000000000000000e+01
-3.409595727920531782e+00 4.961907863616942804e-01 -6.697395443916320801e-01 1.300000000000000000e+01
-4.488280868530272727e+01 6.539693832397460938e+00 3.968200922012329102e+00 5.400000000000000000e+01
-4.229940891265869141e+00 6.170816421508789062e-01 -6.770483851432800293e-01 9.000000000000000000e+00
-4.489293289184570312e+01 6.557172775268554688e+00 5.570647716522216797e+00 7.800000000000000000e+01
-5.523330211639404297e+00 8.077358603477478027e-01 -6.853932142257690430e-01 1.200000000000000000e+01
-7.980104923248291016e+00 1.168439030647278054e+00 -7.056128978729248047e-01 1.000000000000000000e+00
-1.447483730316161932e+01 2.124552488327025923e+00 -7.667217850685119629e-01 4.000000000000000000e+00
-3.394136047363281250e+01 4.993866443634033203e+00 -5.988269448280334473e-01 1.900000000000000000e+01
-2.480322837829589844e+00 3.684741854667664129e-01 -6.718942523002624512e-01 1.500000000000000000e+01
-4.476267623901367188e+01 6.657882213592529297e+00 7.899308204650878906e-01 4.900000000000000000e+01
-2.885445833206177202e+00 4.296883046627045233e-01 -6.735034584999084473e-01 1.300000000000000000e+01
-4.482631683349608664e+01 6.683341979980468750e+00 2.375215053558350053e+00 3.500000000000000000e+01
-3.427260875701903853e+00 5.109845995903015137e-01 -6.735557317733764648e-01 1.200000000000000000e+01
-4.483606338500977273e+01 6.692794322967529297e+00 3.966109275817871094e+00 5.400000000000000000e+01
-4.214085102081298828e+00 6.297992467880249023e-01 -6.748582720756530762e-01 9.000000000000000000e+00
-4.489332962036132812e+01 6.717363834381104404e+00 5.573572635650634766e+00 7.800000000000000000e+01
-5.520476818084716797e+00 8.270109295845031738e-01 -6.853932142257690430e-01 1.200000000000000000e+01
-7.940511703491210938e+00 1.190968275070189986e+00 -7.024753093719482422e-01 1.000000000000000000e+00
-3.394152069091796875e+01 5.114995479583740234e+00 -5.991411209106445312e-01 1.900000000000000000e+01
-2.490480661392211914e+00 3.788731396198273260e-01 -6.750000715255737305e-01 1.500000000000000000e+01
-4.479451751708983664e+01 6.822523117065429688e+00 7.909081578254699707e-01 5.000000000000000000e+01
-2.868516445159912109e+00 4.374077022075653076e-01 -6.699042320251464844e-01 1.400000000000000000e+01
-4.482246017456054688e+01 6.842788696289063388e+00 2.376261711120605025e+00 3.500000000000000000e+01
-3.419634103775023970e+00 5.220559835433959961e-01 -6.724109053611755371e-01 1.200000000000000000e+01
-4.487151336669921875e+01 6.858291625976563388e+00 3.971338510513306108e+00 5.400000000000000000e+01
-4.215766429901123047e+00 6.451029181480407715e-01 -6.754840016365051270e-01 9.000000000000000000e+00
-4.487549591064453125e+01 6.874931335449218750e+00 5.574303627014160156e+00 7.800000000000000000e+01
-5.519518375396729404e+00 8.465769290924072266e-01 -6.856369376182556152e-01 1.000000000000000000e+01
-7.936305999755859375e+00 1.218678593635559082e+00 -7.024753093719482422e-01 1.000000000000000000e+00
-3.398077011108397727e+01 5.242284297943115234e+00 -6.001533269882202148e-01 1.300000000000000000e+01
-2.500596046447753906e+00 3.893475234508513849e-01 -6.781058907508850098e-01 1.600000000000000000e+01
-4.481389617919921875e+01 6.985619544982910156e+00 7.916760444641113281e-01 5.000000000000000000e+01
-2.874673843383789062e+00 4.486199617385864258e-01 -6.717038750648498535e-01 1.400000000000000000e+01
-4.481803512573242188e+01 7.002289772033691406e+00 2.377308368682860884e+00 3.500000000000000000e+01
-3.394514322280883789e+00 5.303528308868408203e-01 -6.678314805030822754e-01 1.200000000000000000e+01
-4.491028976440429688e+01 7.024733543395996094e+00 3.976916551589965820e+00 5.400000000000000000e+01
-4.207634449005126953e+00 6.588979363441467285e-01 -6.745454072952270508e-01 1.000000000000000000e+01
-4.486495208740233664e+01 7.033686637878417969e+00 5.576009750366210938e+00 7.800000000000000000e+01
-5.508685588836669922e+00 8.646072745323181152e-01 -6.846619844436645508e-01 1.000000000000000000e+01
-7.935940265655517578e+00 1.246992588043212891e+00 -7.028239369392395020e-01 1.000000000000000000e+00
-1.445179557800292969e+01 2.276013374328612837e+00 -7.667217850685119629e-01 4.000000000000000000e+00
-3.390695953369141336e+01 5.352137088775634766e+00 -5.991759896278381348e-01 1.300000000000000000e+01
-2.480143785476685014e+00 3.950351178646088202e-01 -6.729295253753662109e-01 1.600000000000000000e+01
-4.482083511352539062e+01 7.147044658660888672e+00 7.922345399856567383e-01 5.000000000000000000e+01
-2.873090505599976030e+00 4.586517214775084894e-01 -6.717038750648498535e-01 1.300000000000000000e+01
-4.480515289306641336e+01 7.160582065582275391e+00 2.377936601638793945e+00 3.500000000000000000e+01
-3.400396823883057085e+00 5.434380173683166504e-01 -6.693579554557800293e-01 1.200000000000000000e+01
-4.489336395263671875e+01 7.182715892791748047e+00 3.977613687515258789e+00 5.400000000000000000e+01
-4.217011928558349609e+00 6.754558682441711426e-01 -6.764226555824279785e-01 1.000000000000000000e+01
-4.487148666381835938e+01 7.195280551910400391e+00 5.579909801483154297e+00 7.800000000000000000e+01
-5.503674030303955078e+00 8.835162520408630371e-01 -6.844182610511779785e-01 1.200000000000000000e+01
-7.919735908508300781e+00 1.272789716720581055e+00 -7.017780542373657227e-01 1.000000000000000000e+00
-3.387622451782227273e+01 5.468549728393554688e+00 -5.989665985107421875e-01 1.300000000000000000e+01
-2.469356298446654829e+00 4.012754261493682861e-01 -6.703413128852844238e-01 1.500000000000000000e+01
-4.481395339965820312e+01 7.290386676788330078e+00 7.925137877464294434e-01 5.000000000000000000e+01
-2.875482082366942915e+00 4.683020114898682196e-01 -6.726036667823791504e-01 1.400000000000000000e+01
-4.483762741088867188e+01 7.310305118560791016e+00 2.380867242813109907e+00 3.500000000000000000e+01
-3.388984441757202148e+00 5.525383949279785156e-01 -6.674498915672302246e-01 1.200000000000000000e+01
-4.487057876586914062e+01 7.323716640472412109e+00 3.977613687515258789e+00 5.400000000000000000e+01
-4.199272632598876953e+00 6.861522197723388672e-01 -6.739196777343750000e-01 1.000000000000000000e+01
-4.488392257690429688e+01 7.341980934143066406e+00 5.584297180175781250e+00 7.900000000000000000e+01
-5.500871181488037109e+00 9.008021950721740723e-01 -6.844182610511779785e-01 1.200000000000000000e+01
-7.899969100952148438e+00 1.295085430145263894e+00 -7.003835439682006836e-01 2.000000000000000000e+00
-1.433784103393555043e+01 2.355620861053466797e+00 -7.614881396293640137e-01 4.000000000000000000e+00
-3.383914566040039062e+01 5.571699142456054688e+00 -5.986175537109375000e-01 6.000000000000000000e+00
-2.469846248626708984e+00 4.102091789245604914e-01 -6.708589792251586914e-01 1.600000000000000000e+01
-4.478033828735352273e+01 7.445460319519042969e+00 7.923741340637207031e-01 5.000000000000000000e+01
-2.868062973022460938e+00 4.773765802383422852e-01 -6.712539196014404297e-01 1.200000000000000000e+01
-4.484336090087891336e+01 7.472025394439697266e+00 2.382542133331298828e+00 3.500000000000000000e+01
-3.394781351089477983e+00 5.656554698944091797e-01 -6.689763665199279785e-01 1.200000000000000000e+01
-4.486046218872070312e+01 7.482922077178955078e+00 3.979008197784423828e+00 5.400000000000000000e+01
-4.185161590576171875e+00 6.988541483879089355e-01 -6.720424890518188477e-01 1.000000000000000000e+01
-4.490501403808593750e+01 7.506465435028076172e+00 5.590147018432617188e+00 7.900000000000000000e+01
-5.495735168457031250e+00 9.196707010269165039e-01 -6.841744780540466309e-01 1.000000000000000000e+01
-7.883610248565673828e+00 1.320678472518920898e+00 -6.993376612663269043e-01 2.000000000000000000e+00
-1.423104667663574041e+01 2.389121055603026900e+00 -7.562545537948608398e-01 4.000000000000000000e+00
-3.380765914916992188e+01 5.687795162200927734e+00 -5.984081029891967773e-01 1.300000000000000000e+01
-2.479680061340332031e+00 4.216326475143433172e-01 -6.739647984504699707e-01 1.500000000000000000e+01
-4.479084777832031250e+01 7.624060153961181641e+00 7.930722236633300781e-01 5.000000000000000000e+01
-2.858524799346923828e+00 4.870762526988983154e-01 -6.694543361663818359e-01 1.300000000000000000e+01
-4.481827545166016336e+01 7.644827365875244141e+00 2.382751464843750000e+00 3.500000000000000000e+01
-3.396455049514770952e+00 5.793465375900268555e-01 -6.697395443916320801e-01 1.200000000000000000e+01
-4.492174148559570312e+01 7.670544624328613281e+00 3.987026691436768022e+00 5.400000000000000000e+01
-4.174658775329589844e+00 7.135875225067138672e-01 -6.707909703254699707e-01 1.000000000000000000e+01
-4.486020660400391336e+01 7.676154136657714844e+00 5.588196754455566406e+00 7.900000000000000000e+01
-5.490207195281982422e+00 9.404308199882507324e-01 -6.839307546615600586e-01 1.200000000000000000e+01
-7.866698741912841797e+00 1.348919153213500977e+00 -6.982918381690979004e-01 1.000000000000000000e+00
-1.415090465545653942e+01 2.431570291519165039e+00 -7.524864077568054199e-01 4.000000000000000000e+00
-3.382498550415039062e+01 5.824351787567138672e+00 -5.991061925888061523e-01 6.000000000000000000e+00
-2.478193283081055132e+00 4.302857816219329834e-01 -6.739647984504699707e-01 1.500000000000000000e+01
-4.478366470336914062e+01 7.783787250518798828e+00 7.934213280677795410e-01 5.000000000000000000e+01
-2.851047515869141069e+00 4.960492849349976141e-01 -6.681046485900878906e-01 1.200000000000000000e+01
-4.482673645019531250e+01 7.807394504547119141e+00 2.384635448455810991e+00 3.600000000000000000e+01
-3.382807254791260210e+00 5.891776680946350098e-01 -6.674498915672302246e-01 1.200000000000000000e+01
-4.489469146728516336e+01 7.827304363250732422e+00 3.987026691436768022e+00 5.400000000000000000e+01
-4.183818340301513672e+00 7.301931977272033691e-01 -6.726682186126708984e-01 1.000000000000000000e+01
-4.489375686645507812e+01 7.843289375305175781e+00 5.595752716064453125e+00 7.900000000000000000e+01
-5.467336654663085938e+00 9.561697244644165039e-01 -6.814933419227600098e-01 1.200000000000000000e+01
-7.881567478179931641e+00 1.379806637763977051e+00 -7.000349164009094238e-01 1.000000000000000000e+00
-1.414233112335205078e+01 2.480951309204102007e+00 -7.524864077568054199e-01 4.000000000000000000e+00
-3.383596038818358664e+01 5.947926998138427734e+00 -5.996646881103515625e-01 6.000000000000000000e+00
-2.471122264862060991e+00 4.370597600936890204e-01 -6.724118590354919434e-01 1.600000000000000000e+01
-4.481018447875977273e+01 7.933504581451416016e+00 7.943288087844848633e-01 5.000000000000000000e+01
-2.859069108963013139e+00 5.067040324211120605e-01 -6.703541278839111328e-01 1.200000000000000000e+01
-4.482951736450195312e+01 7.953067302703857422e+00 2.386101007461547852e+00 3.600000000000000000e+01
-3.388671875000000000e+00 6.011738777160644531e-01 -6.689763665199279785e-01 1.100000000000000000e+01
-4.492873382568358664e+01 7.978757381439208984e+00 3.992255926132202148e+00 5.400000000000000000e+01
-4.185393333435058594e+00 7.440248727798461914e-01 -6.732939481735229492e-01 1.000000000000000000e+01
-4.486498641967772727e+01 7.983592510223388672e+00 5.595265388488770419e+00 7.900000000000000000e+01
-5.464305877685546875e+00 9.733411073684692383e-01 -6.814933419227600098e-01 1.200000000000000000e+01
-7.845810890197753906e+00 1.398964643478393999e+00 -6.972459554672241211e-01 1.000000000000000000e+00
-1.400863552093506037e+01 2.502886295318603960e+00 -7.457873821258544922e-01 4.000000000000000000e+00
-3.367931747436522727e+01 6.029528617858886719e+00 -5.972213745117187500e-01 1.900000000000000000e+01
-2.461977005004882812e+00 4.443105161190032959e-01 -6.703413128852844238e-01 1.600000000000000000e+01
-4.481764221191406250e+01 8.096271514892578125e+00 7.949571013450622559e-01 5.000000000000000000e+01
-2.851530075073242188e+00 5.156406164169311523e-01 -6.690044403076171875e-01 1.200000000000000000e+01
-4.483292770385742188e+01 8.115195274353027344e+00 2.387775659561156782e+00 3.600000000000000000e+01
-3.371097803115845171e+00 6.102014183998107910e-01 -6.659234166145324707e-01 1.100000000000000000e+01
-4.488100433349608664e+01 8.131986618041992188e+00 3.990512847900391069e+00 5.400000000000000000e+01
-4.178883552551270419e+00 7.579250335693359375e-01 -6.726682186126708984e-01 1.000000000000000000e+01
-4.489153289794921875e+01 8.150080680847167969e+00 5.602089881896972656e+00 7.900000000000000000e+01
-5.466734409332275391e+00 9.934740066528320312e-01 -6.822245717048645020e-01 1.200000000000000000e+01
-7.809515953063964844e+00 1.420637726783751997e+00 -6.944569349288940430e-01 1.000000000000000000e+00
-1.405090045928955078e+01 2.561082124710083008e+00 -7.485088706016540527e-01 4.000000000000000000e+00
-3.374855422973632812e+01 6.163580894470214844e+00 -5.988269448280334473e-01 1.300000000000000000e+01
-2.462311029434204102e+00 4.532514512538909912e-01 -6.708589792251586914e-01 1.500000000000000000e+01
-4.481270599365233664e+01 8.257013320922851562e+00 7.953759431838989258e-01 5.000000000000000000e+01
-2.849712848663330078e+00 5.255911946296691895e-01 -6.690044403076171875e-01 1.200000000000000000e+01
-4.483575439453125000e+01 8.277443885803222656e+00 2.389450311660767046e+00 3.600000000000000000e+01
-3.376669645309447798e+00 6.233907341957092285e-01 -6.674498915672302246e-01 1.200000000000000000e+01
-4.489544677734375000e+01 8.296566963195800781e+00 3.994347572326660156e+00 5.400000000000000000e+01
-4.160673141479492188e+00 7.696329951286315918e-01 -6.701652407646179199e-01 1.000000000000000000e+01
-4.488818740844727273e+01 8.311429977416992188e+00 5.605258464813232422e+00 8.000000000000000000e+01
-5.465184688568115234e+00 1.012912154197693093e+00 -6.824682950973510742e-01 1.200000000000000000e+01
-7.812345504760742188e+00 1.449343085289001021e+00 -6.951541900634765625e-01 2.000000000000000000e+00
-1.399082088470458984e+01 2.600623369216918945e+00 -7.457873821258544922e-01 4.000000000000000000e+00
-3.372683715820313211e+01 6.281347751617431641e+00 -5.988269448280334473e-01 1.300000000000000000e+01
-2.458815097808837891e+00 4.614874124526978094e-01 -6.703413128852844238e-01 1.600000000000000000e+01
-4.482291793823242188e+01 8.420773506164550781e+00 7.960740923881530762e-01 5.000000000000000000e+01
-2.832539319992064986e+00 5.326541662216186523e-01 -6.654052138328552246e-01 1.200000000000000000e+01
-4.484976959228516336e+01 8.442027091979980469e+00 2.391753196716309038e+00 3.600000000000000000e+01
-3.378331899642943892e+00 6.359000205993652344e-01 -6.682131290435791016e-01 1.100000000000000000e+01
-4.484271621704102273e+01 8.448803901672363281e+00 3.992255926132202148e+00 5.400000000000000000e+01
-4.154078960418701172e+00 7.834196090698242188e-01 -6.695395112037658691e-01 1.000000000000000000e+01
-4.489791488647460938e+01 8.475433349609375000e+00 5.610133171081542969e+00 8.000000000000000000e+01
-5.447961807250976562e+00 1.029403090476989968e+00 -6.807621717453002930e-01 1.000000000000000000e+01
-7.768085002899169922e+00 1.469199180603026900e+00 -6.916679739952087402e-01 1.000000000000000000e+00
-1.393063640594482067e+01 2.639776468276977983e+00 -7.430658936500549316e-01 4.000000000000000000e+00
-3.376364135742188211e+01 6.410227775573729581e+00 -5.998741388320922852e-01 1.300000000000000000e+01
-2.460984230041503906e+00 4.707934260368347168e-01 -6.713765859603881836e-01 1.500000000000000000e+01
-4.482074737548828125e+01 8.582448005676269531e+00 7.965627312660217285e-01 5.000000000000000000e+01
-2.836404561996459961e+00 5.436388254165649414e-01 -6.667549014091491699e-01 1.200000000000000000e+01
-4.482394790649414062e+01 8.599283218383789062e+00 2.391962528228760210e+00 3.600000000000000000e+01
-3.376091718673706055e+00 6.476887464523315430e-01 -6.682131290435791016e-01 1.200000000000000000e+01
-4.483642959594727273e+01 8.609791755676269531e+00 3.994347572326660156e+00 5.400000000000000000e+01
-4.162958145141601562e+00 8.001524209976196289e-01 -6.714166998863220215e-01 1.000000000000000000e+01
-4.486805343627929688e+01 8.632103919982910156e+00 5.610133171081542969e+00 8.000000000000000000e+01
-5.428740978240966797e+00 1.045410752296447976e+00 -6.788122653961181641e-01 1.000000000000000000e+01
-7.766821861267089844e+00 1.497060060501099077e+00 -6.920166015625000000e-01 1.000000000000000000e+00
-3.366056442260742188e+01 6.512472152709960938e+00 -5.984430313110351562e-01 1.900000000000000000e+01
-2.453637361526488814e+00 4.782721698284149170e-01 -6.698237061500549316e-01 1.600000000000000000e+01
-4.481014251708983664e+01 8.742678642272949219e+00 7.969117760658264160e-01 5.100000000000000000e+01
-2.834489583969116211e+00 5.535364151000976562e-01 -6.667549014091491699e-01 1.300000000000000000e+01
-4.483678436279296875e+01 8.764124870300292969e+00 2.394265413284302202e+00 3.600000000000000000e+01
-3.362249374389647993e+00 6.572098135948181152e-01 -6.659234166145324707e-01 1.200000000000000000e+01
-4.486085510253906250e+01 8.776958465576171875e+00 3.999228477478026900e+00 5.400000000000000000e+01
-4.162078380584716797e+00 8.150585889816284180e-01 -6.717295646667480469e-01 9.000000000000000000e+00
-4.490583038330078125e+01 8.802034378051757812e+00 5.618664264678955078e+00 8.000000000000000000e+01
-5.428954601287841797e+00 1.065118551254272017e+00 -6.792997121810913086e-01 1.000000000000000000e+01
-7.734178066253662109e+00 1.518787384033202903e+00 -6.895762085914611816e-01 2.000000000000000000e+00
-1.386483573913574041e+01 2.727712392807006836e+00 -7.405537962913513184e-01 4.000000000000000000e+00
-3.358857727050781250e+01 6.620262145996093750e+00 -5.975704193115234375e-01 1.300000000000000000e+01
-2.448163032531737837e+00 4.860816001892089844e-01 -6.687884330749511719e-01 1.600000000000000000e+01
-4.481072998046875000e+01 8.905278205871582031e+00 7.974702715873718262e-01 5.100000000000000000e+01
-2.851653099060059038e+00 5.672290921211242676e-01 -6.712539196014404297e-01 1.300000000000000000e+01
-4.483881759643554688e+01 8.918994903564453125e+00 2.395940065383911133e+00 3.600000000000000000e+01
-3.356083869934082031e+00 6.681755185127258301e-01 -6.651601791381835938e-01 1.200000000000000000e+01
-4.490810012817382812e+01 8.949073791503906250e+00 4.006200790405273438e+00 5.400000000000000000e+01
-4.151458740234375000e+00 8.280364274978637695e-01 -6.704781055450439453e-01 1.000000000000000000e+01
-4.490013885498046875e+01 8.963784217834472656e+00 5.621832847595214844e+00 8.100000000000000000e+01
-5.436883449554443359e+00 1.086396455764770952e+00 -6.807621717453002930e-01 1.000000000000000000e+01
-7.728829383850097656e+00 1.545775413513184038e+00 -6.895762085914611816e-01 2.000000000000000000e+00
-1.380822944641112926e+01 2.766675949096680132e+00 -7.380416393280029297e-01 4.000000000000000000e+00
-3.370250701904296875e+01 6.765016078948974609e+00 -6.000137329101562500e-01 1.300000000000000000e+01
-2.442664384841918945e+00 4.938586652278900146e-01 -6.677531599998474121e-01 1.500000000000000000e+01
-4.480289459228516336e+01 9.066402435302734375e+00 7.978891134262084961e-01 5.100000000000000000e+01
-2.834376096725463867e+00 5.740849375724792480e-01 -6.676547527313232422e-01 1.200000000000000000e+01
-4.483714294433593750e+01 9.089626312255859375e+00 2.397614717483520952e+00 3.600000000000000000e+01
-3.355655193328856978e+00 6.802764534950256348e-01 -6.655417680740356445e-01 1.200000000000000000e+01
-4.489221191406250000e+01 9.108947753906250000e+00 4.007595539093017578e+00 5.400000000000000000e+01
-4.131120681762695312e+00 8.389843702316284180e-01 -6.676623225212097168e-01 1.000000000000000000e+01
-4.490359115600585938e+01 9.127577781677246094e+00 5.626220226287841797e+00 8.100000000000000000e+01
-5.423331737518311435e+00 1.103389382362365945e+00 -6.795434355735778809e-01 1.200000000000000000e+01
-7.692149639129638672e+00 1.566383719444274902e+00 -6.867872476577758789e-01 2.000000000000000000e+00
-3.367672729492188211e+01 6.882217884063720703e+00 -5.999788045883178711e-01 1.300000000000000000e+01
-2.444710016250609907e+00 5.031610131263732910e-01 -6.687884330749511719e-01 1.500000000000000000e+01
-4.478664016723632812e+01 9.225966453552246094e+00 7.981683611869812012e-01 5.100000000000000000e+01
-2.824720382690430132e+00 5.824012160301208496e-01 -6.658551096916198730e-01 1.300000000000000000e+01
-4.486935043334960938e+01 9.251168251037597656e+00 2.400964260101317915e+00 3.600000000000000000e+01
-3.355182886123656782e+00 6.923825144767761230e-01 -6.659234166145324707e-01 1.300000000000000000e+01
-4.488355636596679688e+01 9.270431518554687500e+00 4.009686946868895596e+00 5.400000000000000000e+01
-4.132035732269287109e+00 8.541993498802185059e-01 -6.682880520820617676e-01 1.000000000000000000e+01
-5.396121025085449219e+00 1.117483019828795943e+00 -6.766185760498046875e-01 1.200000000000000000e+01
-7.708095073699951172e+00 1.597672820091248003e+00 -6.887046694755554199e-01 2.000000000000000000e+00
-1.373773384094237926e+01 2.852450370788574219e+00 -7.353202104568481445e-01 4.000000000000000000e+00
-3.363291931152343750e+01 6.995657444000244141e+00 -5.996297597885131836e-01 1.300000000000000000e+01
-2.454283714294434038e+00 5.140678882598876953e-01 -6.718942523002624512e-01 1.500000000000000000e+01
-4.478156280517578125e+01 9.387989044189453125e+00 7.986570000648498535e-01 5.100000000000000000e+01
-2.818856000900268999e+00 5.914574265480041504e-01 -6.649553179740905762e-01 1.200000000000000000e+01
-6.127576828002929688e+01 1.285699176788330078e+01 3.281255006790161133e+00 5.500000000000000000e+01
-3.345060348510742188e+00 7.024761438369750977e-01 -6.643969416618347168e-01 1.100000000000000000e+01
-4.127095699310302734e+00 8.682109713554382324e-01 -6.679751873016357422e-01 1.100000000000000000e+01
-5.392187595367431641e+00 1.136312127113342063e+00 -6.766185760498046875e-01 1.200000000000000000e+01
-7.704420566558837891e+00 1.624980568885803001e+00 -6.888790130615234375e-01 1.000000000000000000e+00
-3.363959884643554688e+01 7.119640827178955078e+00 -6.001882553100585938e-01 1.300000000000000000e+01
-2.437358856201171875e+00 5.194106101989746094e-01 -6.677531599998474121e-01 1.600000000000000000e+01
-2.835832118988037109e+00 6.053617596626281738e-01 -6.694543361663818359e-01 1.500000000000000000e+01
-3.332988262176514116e+00 7.120972871780395508e-01 -6.624888181686401367e-01 1.200000000000000000e+01
-4.129834651947020596e+00 8.838521242141723633e-01 -6.689137816429138184e-01 1.000000000000000000e+01
-5.386247158050537109e+00 1.154711365699768066e+00 -6.763748526573181152e-01 1.200000000000000000e+01
-7.671428680419921875e+00 1.646012306213378906e+00 -6.864386200904846191e-01 1.000000000000000000e+00
-3.359499359130858664e+01 7.232812404632568359e+00 -5.998392105102539062e-01 1.300000000000000000e+01
-2.435530900955200195e+00 5.279154181480407715e-01 -6.677531599998474121e-01 1.500000000000000000e+01
-2.829893112182617188e+00 6.144300103187561035e-01 -6.685545444488525391e-01 1.400000000000000000e+01
-3.336237668991088867e+00 7.249779701232910156e-01 -6.636337041854858398e-01 1.300000000000000000e+01
-4.119003772735595703e+00 8.965820074081420898e-01 -6.676623225212097168e-01 1.000000000000000000e+01
-5.368607044219970703e+00 1.170545578002929910e+00 -6.746686697006225586e-01 1.200000000000000000e+01
-7.650063991546630859e+00 1.669382333755492942e+00 -6.850441098213195801e-01 1.000000000000000000e+00
-3.362423706054688211e+01 7.362012386322020596e+00 -6.008165478706359863e-01 1.300000000000000000e+01
-2.431786775588988814e+00 5.359979867935180664e-01 -6.672354936599731445e-01 1.600000000000000000e+01
-2.812507629394530806e+00 6.209434270858764648e-01 -6.649553179740905762e-01 1.300000000000000000e+01
-3.339437723159790039e+00 7.378899455070495605e-01 -6.647785305976867676e-01 1.200000000000000000e+01
-4.111991405487061435e+00 9.101008176803588867e-01 -6.670365333557128906e-01 1.000000000000000000e+01
-5.387744903564453125e+00 1.194434285163878950e+00 -6.775935292243957520e-01 1.200000000000000000e+01
-7.628629207611083984e+00 1.692623376846313032e+00 -6.836496591567993164e-01 1.000000000000000000e+00
-1.350159931182860973e+01 3.000650167465209961e+00 -7.248529791831970215e-01 4.000000000000000000e+00
-3.362956237792968750e+01 7.486290454864501953e+00 -6.013750433921813965e-01 1.300000000000000000e+01
-2.435556411743164062e+00 5.457504391670227051e-01 -6.687884330749511719e-01 1.600000000000000000e+01
-2.806520223617554155e+00 6.299036145210266113e-01 -6.640555262565612793e-01 1.400000000000000000e+01
-3.340672731399536133e+00 7.504028081893920898e-01 -6.655417680740356445e-01 1.300000000000000000e+01
-4.108789920806884766e+00 9.244487881660461426e-01 -6.670365333557128906e-01 1.000000000000000000e+01
-5.371923446655273438e+00 1.210615277290344016e+00 -6.761311292648315430e-01 1.200000000000000000e+01
-7.618787288665770596e+00 1.718365192413330078e+00 -6.833010315895080566e-01 1.000000000000000000e+00
-3.369294357299804688e+01 7.623935222625732422e+00 -6.029806137084960938e-01 1.300000000000000000e+01
-2.435423135757445845e+00 5.551028847694396973e-01 -6.693060398101806641e-01 1.600000000000000000e+01
-2.798493146896361861e+00 6.388846039772033691e-01 -6.627057790756225586e-01 1.200000000000000000e+01
-3.341727733612060991e+00 7.635165452957153320e-01 -6.663050055503845215e-01 1.300000000000000000e+01
