2.093465566635131836e+00 -1.397752165794373003e+00 -6.744824051856994629e-01 2.000000000000000000e+01
2.441819429397583008e+00 -1.631571650505065918e+00 -6.780024766921997070e-01 1.100000000000000000e+01
2.879193782806396040e+00 -1.924542665481566939e+00 -6.731741428375244141e-01 1.100000000000000000e+01
3.526781558990478960e+00 -2.359192132949829102e+00 -6.720424890518188477e-01 1.000000000000000000e+01
4.523150920867919922e+00 -3.027985572814940962e+00 -6.683315038681030273e-01 3.000000000000000000e+01
6.446326732635498047e+00 -4.317069053649902344e+00 -6.787689328193664551e-01 3.000000000000000000e+00
2.093382358551024947e+00 -1.408286213874816895e+00 -6.760353446006774902e-01 2.500000000000000000e+01
2.426410198211669922e+00 -1.633555412292480025e+00 -6.753030419349670410e-01 1.100000000000000000e+01
2.877343416213988814e+00 -1.937871336936950906e+00 -6.743189692497253418e-01 1.200000000000000000e+01
3.525077104568481001e+00 -2.375904560089110884e+00 -6.732939481735229492e-01 1.000000000000000000e+01
4.509262084960938388e+00 -3.041535615921020952e+00 -6.678439974784851074e-01 2.400000000000000000e+01
6.426263332366943359e+00 -4.336201667785645419e+00 -6.782459616661071777e-01 4.000000000000000000e+00
2.101246833801269975e+00 -1.424256205558777078e+00 -6.801764369010925293e-01 2.500000000000000000e+01
2.423918724060059038e+00 -1.644203066825866921e+00 -6.762028932571411133e-01 1.100000000000000000e+01
2.867312192916870117e+00 -1.945698499679564986e+00 -6.735557317733764648e-01 1.100000000000000000e+01
3.518396377563477007e+00 -2.389304637908935991e+00 -6.736068129539489746e-01 9.000000000000000000e+00
4.500259399414063388e+00 -3.058373212814331055e+00 -6.680877208709716797e-01 2.100000000000000000e+01
6.384725570678710938e+00 -4.340683937072753906e+00 -6.754570007324218750e-01 5.000000000000000000e+00
2.084846496582030806e+00 -1.424319744110106978e+00 -6.765530109405517578e-01 2.300000000000000000e+01
2.430745840072631836e+00 -1.661874890327454057e+00 -6.798020601272583008e-01 1.000000000000000000e+01
2.858541250228881836e+00 -1.955086350440979004e+00 -6.731741428375244141e-01 1.100000000000000000e+01
3.521026134490966797e+00 -2.409994363784790039e+00 -6.757968664169311523e-01 1.000000000000000000e+01
4.511948108673095703e+00 -3.090552091598511186e+00 -6.715000867843627930e-01 2.600000000000000000e+01
6.353981018066406250e+00 -4.353920459747313565e+00 -6.738882064819335938e-01 5.000000000000000000e+00
2.067131519317626953e+00 -1.422825932502747026e+00 -6.724118590354919434e-01 2.300000000000000000e+01
2.424929857254027876e+00 -1.670349717140197976e+00 -6.798020601272583008e-01 1.100000000000000000e+01
2.851699352264403853e+00 -1.965052604675292969e+00 -6.731741428375244141e-01 1.200000000000000000e+01
3.502835035324097124e+00 -2.415541887283325195e+00 -6.739196777343750000e-01 1.000000000000000000e+01
4.525639533996582031e+00 -3.123195648193358931e+00 -6.751561760902404785e-01 2.800000000000000000e+01
6.296114444732666016e+00 -4.346642971038818359e+00 -6.693561077117919922e-01 6.000000000000000000e+00
2.076690912246704102e+00 -1.439578294754028098e+00 -6.770706176757812500e-01 2.400000000000000000e+01
2.419377565383911133e+00 -1.678381919860840066e+00 -6.798020601272583008e-01 1.100000000000000000e+01
2.851618766784667969e+00 -1.978975772857666016e+00 -6.747006177902221680e-01 1.100000000000000000e+01
3.501295566558837891e+00 -2.431651592254639116e+00 -6.751711368560791016e-01 1.000000000000000000e+01
4.525038242340087891e+00 -3.144983530044556108e+00 -6.766185760498046875e-01 2.400000000000000000e+01
6.257128238677979404e+00 -4.350437164306640625e+00 -6.667414307594299316e-01 6.000000000000000000e+00
2.077988624572753906e+00 -1.451243042945862038e+00 -6.791411638259887695e-01 2.400000000000000000e+01
2.407114982604980025e+00 -1.682351469993591087e+00 -6.780024766921997070e-01 1.100000000000000000e+01
2.851129531860352007e+00 -1.993417501449584961e+00 -6.762270927429199219e-01 1.200000000000000000e+01
3.486311912536621094e+00 -2.439328670501708984e+00 -6.739196777343750000e-01 1.000000000000000000e+01
4.509154319763183594e+00 -3.157343864440917969e+00 -6.758874058723449707e-01 2.100000000000000000e+01
6.268013954162597656e+00 -4.390541076660156250e+00 -6.695303916931152344e-01 7.000000000000000000e+00
2.082901239395142046e+00 -1.464430689811706987e+00 -6.822469830513000488e-01 2.700000000000000000e+01
2.405005455017089844e+00 -1.692147970199584961e+00 -6.789022684097290039e-01 1.100000000000000000e+01
2.835220336914062944e+00 -1.995584726333617942e+00 -6.739373803138732910e-01 1.100000000000000000e+01
3.485091209411621094e+00 -2.454819440841674805e+00 -6.751711368560791016e-01 1.000000000000000000e+01
4.512193202972412109e+00 -3.180643796920775923e+00 -6.778373122215270996e-01 1.500000000000000000e+01
6.236279010772705078e+00 -4.397581100463867188e+00 -6.676129698753356934e-01 7.000000000000000000e+00
2.068317890167235884e+00 -1.464992761611938032e+00 -6.791411638259887695e-01 2.500000000000000000e+01
2.399084091186522993e+00 -1.700532793998718040e+00 -6.789022684097290039e-01 1.100000000000000000e+01
2.825034141540526900e+00 -2.003198146820067915e+00 -6.731741428375244141e-01 1.200000000000000000e+01
3.487777948379517046e+00 -2.474972009658813032e+00 -6.773612499237060547e-01 1.000000000000000000e+01
4.484878063201904297e+00 -3.184881210327147993e+00 -6.753998994827270508e-01 1.700000000000000000e+01
6.167290210723876953e+00 -4.381245136260986328e+00 -6.618607044219970703e-01 9.000000000000000000e+00
2.055072784423828125e+00 -1.466951847076416016e+00 -6.765530109405517578e-01 2.300000000000000000e+01
2.402349472045897993e+00 -1.716110944747925027e+00 -6.816017031669616699e-01 1.100000000000000000e+01
2.824062347412108931e+00 -2.018104791641234907e+00 -6.747006177902221680e-01 1.200000000000000000e+01
3.473863124847412109e+00 -2.484291553497314009e+00 -6.764226555824279785e-01 1.000000000000000000e+01
4.460260391235351562e+00 -3.192055463790893999e+00 -6.734499931335449219e-01 1.400000000000000000e+01
6.138230323791503906e+00 -4.394541263580322266e+00 -6.604661941528320312e-01 1.100000000000000000e+01
2.060918807983397993e+00 -1.482011437416077104e+00 -6.801764369010925293e-01 2.400000000000000000e+01
2.394762754440308061e+00 -1.723347902297974077e+00 -6.811518073081970215e-01 1.200000000000000000e+01
2.826560497283935991e+00 -2.034832477569580078e+00 -6.769903302192687988e-01 1.100000000000000000e+01
3.461964607238769975e+00 -2.494092941284180132e+00 -6.757968664169311523e-01 1.000000000000000000e+01
4.484516143798828125e+00 -3.233145475387572798e+00 -6.788122653961181641e-01 1.400000000000000000e+01
6.122853279113770419e+00 -4.415941238403320312e+00 -6.604661941528320312e-01 1.200000000000000000e+01
2.052603960037231001e+00 -1.486929774284363015e+00 -6.791411638259887695e-01 2.100000000000000000e+01
2.380843639373778853e+00 -1.725977778434752974e+00 -6.789022684097290039e-01 1.100000000000000000e+01
2.819440603256226030e+00 -2.044686555862427202e+00 -6.769903302192687988e-01 1.100000000000000000e+01
3.459632396697998047e+00 -2.510803461074829102e+00 -6.770483851432800293e-01 1.000000000000000000e+01
4.487658500671386719e+00 -3.259278297424315962e+00 -6.810058951377868652e-01 1.500000000000000000e+01
6.088058948516845703e+00 -4.423233985900878906e+00 -6.583744883537292480e-01 9.000000000000000000e+00
2.061445951461791992e+00 -1.504334688186645952e+00 -6.837999224662780762e-01 2.300000000000000000e+01
2.377951860427856001e+00 -1.736576557159424050e+00 -6.798020601272583008e-01 1.100000000000000000e+01
2.805944919586182085e+00 -2.049883365631103960e+00 -6.754638552665710449e-01 1.100000000000000000e+01
3.452441453933715820e+00 -2.524030208587646040e+00 -6.773612499237060547e-01 1.000000000000000000e+01
4.469845771789550781e+00 -3.270234823226929155e+00 -6.800309419631958008e-01 1.500000000000000000e+01
6.037210941314697266e+00 -4.418570518493652344e+00 -6.545396447181701660e-01 1.200000000000000000e+01
2.051775693893433061e+00 -1.507730484008789062e+00 -6.822469830513000488e-01 2.100000000000000000e+01
2.380029916763306108e+00 -1.750225067138672097e+00 -6.820515990257263184e-01 1.200000000000000000e+01
2.799131870269774947e+00 -2.059176921844481978e+00 -6.754638552665710449e-01 1.200000000000000000e+01
3.455188035964965820e+00 -2.543663024902344194e+00 -6.795513033866882324e-01 1.000000000000000000e+01
4.466968059539794922e+00 -3.290926456451416016e+00 -6.812496185302734375e-01 1.400000000000000000e+01
6.003278732299804688e+00 -4.424381732940673828e+00 -6.524478793144226074e-01 1.100000000000000000e+01
2.041841983795166016e+00 -1.511435270309448020e+00 -6.806941032409667969e-01 2.000000000000000000e+01
2.373905897140502930e+00 -1.758522272109984907e+00 -6.820515990257263184e-01 1.200000000000000000e+01
2.798236370086669922e+00 -2.073610782623291016e+00 -6.769903302192687988e-01 1.100000000000000000e+01
3.439941167831420898e+00 -2.551001548767089844e+00 -6.782998442649841309e-01 1.000000000000000000e+01
4.471394062042236328e+00 -3.318329095840454102e+00 -6.836870312690734863e-01 1.400000000000000000e+01
6.070984363555908203e+00 -4.507067203521729404e+00 -6.615120768547058105e-01 9.000000000000000000e+00
2.031907558441162109e+00 -1.515089035034179910e+00 -6.791411638259887695e-01 2.200000000000000000e+01
2.363067388534545898e+00 -1.763301730155945046e+00 -6.807019114494323730e-01 1.100000000000000000e+01
2.790981054306029829e+00 -2.083365678787231001e+00 -6.769903302192687988e-01 1.200000000000000000e+01
3.431015729904174805e+00 -2.562993764877318892e+00 -6.782998442649841309e-01 1.000000000000000000e+01
4.466143131256104404e+00 -3.338671207427978960e+00 -6.846619844436645508e-01 1.500000000000000000e+01
6.055214405059813565e+00 -4.528231143951416016e+00 -6.615120768547058105e-01 6.000000000000000000e+00
2.043597936630249023e+00 -1.534934520721435991e+00 -6.848351955413818359e-01 1.900000000000000000e+01
2.353782415390015093e+00 -1.769197821617126021e+00 -6.798020601272583008e-01 1.100000000000000000e+01
2.791537523269652876e+00 -2.098994731903076172e+00 -6.788983941078186035e-01 1.200000000000000000e+01
3.431518793106079102e+00 -2.582080841064453125e+00 -6.801770329475402832e-01 1.000000000000000000e+01
4.454462051391601562e+00 -3.354240655899047852e+00 -6.846619844436645508e-01 1.400000000000000000e+01
5.953435420989990234e+00 -4.484606742858886719e+00 -6.520992517471313477e-01 7.000000000000000000e+00
2.041578292846680132e+00 -1.544033527374268022e+00 -6.858704686164855957e-01 1.800000000000000000e+01
2.351010322570800781e+00 -1.779345631599426047e+00 -6.807019114494323730e-01 1.200000000000000000e+01
2.779865980148314986e+00 -2.104685068130493164e+00 -6.777535676956176758e-01 1.200000000000000000e+01
3.419788599014281782e+00 -2.591060161590576172e+00 -6.795513033866882324e-01 1.000000000000000000e+01
4.441732406616210938e+00 -3.367794513702393022e+00 -6.844182610511779785e-01 1.200000000000000000e+01
5.951230525970458984e+00 -4.513956546783447266e+00 -6.534937620162963867e-01 7.000000000000000000e+00
2.028492450714110884e+00 -1.545297145843506081e+00 -6.832822561264038086e-01 1.600000000000000000e+01
2.347884654998778853e+00 -1.789904236793518066e+00 -6.816017031669616699e-01 1.100000000000000000e+01
2.772502422332764116e+00 -2.114375829696654829e+00 -6.777535676956176758e-01 1.100000000000000000e+01
3.413863897323607954e+00 -2.605378389358520952e+00 -6.801770329475402832e-01 1.000000000000000000e+01
4.442570686340332031e+00 -3.392917394638061968e+00 -6.863681674003601074e-01 1.200000000000000000e+01
5.919605731964111328e+00 -4.522606849670410156e+00 -6.517506241798400879e-01 7.000000000000000000e+00
2.016685247421265093e+00 -1.548016428947448953e+00 -6.812117099761962891e-01 1.500000000000000000e+01
2.350580930709838867e+00 -1.805620431900023970e+00 -6.843010783195495605e-01 1.100000000000000000e+01
2.764734029769897017e+00 -2.124523401260375977e+00 -6.777535676956176758e-01 1.100000000000000000e+01
3.408989429473876953e+00 -2.621485948562622070e+00 -6.811156868934631348e-01 1.000000000000000000e+01
4.439544200897216797e+00 -3.416441202163695845e+00 -6.878305673599243164e-01 1.200000000000000000e+01
5.887202262878417969e+00 -4.532119274139404297e+00 -6.500075459480285645e-01 7.000000000000000000e+00
2.012797832489014116e+00 -1.556228160858154075e+00 -6.817293763160705566e-01 1.600000000000000000e+01
2.345805168151855025e+00 -1.815006971359252930e+00 -6.847510337829589844e-01 1.200000000000000000e+01
2.763511419296265093e+00 -2.138967752456665039e+00 -6.792800426483154297e-01 1.200000000000000000e+01
3.395132780075072798e+00 -2.629740715026855025e+00 -6.801770329475402832e-01 1.000000000000000000e+01
4.427591800689697266e+00 -3.431917428970336914e+00 -6.878305673599243164e-01 1.200000000000000000e+01
5.882367610931395596e+00 -4.561188220977783203e+00 -6.512277126312255859e-01 6.000000000000000000e+00
2.012199163436890093e+00 -1.566454410552978960e+00 -6.832822561264038086e-01 1.500000000000000000e+01
2.329012393951416016e+00 -1.814392685890197976e+00 -6.816017031669616699e-01 1.100000000000000000e+01
2.756403207778931108e+00 -2.148120164871215820e+00 -6.792800426483154297e-01 1.100000000000000000e+01
3.392624378204346147e+00 -2.645843982696533203e+00 -6.814285516738891602e-01 1.000000000000000000e+01
4.411491870880126953e+00 -3.442916870117187944e+00 -6.870993375778198242e-01 1.000000000000000000e+01
5.898619174957275391e+00 -4.605191230773925781e+00 -6.547139286994934082e-01 6.000000000000000000e+00
2.012799978256226030e+00 -1.578236818313599077e+00 -6.853528022766113281e-01 1.500000000000000000e+01
2.325731039047241211e+00 -1.824917316436768022e+00 -6.825014948844909668e-01 1.100000000000000000e+01
2.745799303054810014e+00 -2.155304193496704102e+00 -6.785168051719665527e-01 1.100000000000000000e+01
3.386474847793579102e+00 -2.660110950469971147e+00 -6.820542812347412109e-01 1.000000000000000000e+01
4.401007652282714844e+00 -3.459521770477294922e+00 -6.873431205749511719e-01 1.200000000000000000e+01
5.730590343475341797e+00 -4.506291389465332031e+00 -6.378057003021240234e-01 1.300000000000000000e+01
2.002730607986450195e+00 -1.581661224365233931e+00 -6.837999224662780762e-01 1.500000000000000000e+01
2.316288709640502930e+00 -1.830607891082763894e+00 -6.816017031669616699e-01 1.200000000000000000e+01
2.735179185867310014e+00 -2.162440538406372070e+00 -6.777535676956176758e-01 1.100000000000000000e+01
3.383365392684936968e+00 -2.676818370819091797e+00 -6.833057403564453125e-01 1.000000000000000000e+01
4.401355743408203125e+00 -3.484720945358275923e+00 -6.892930269241333008e-01 1.200000000000000000e+01
5.777299404144287109e+00 -4.575748443603515625e+00 -6.447781920433044434e-01 1.200000000000000000e+01
1.994173526763916016e+00 -1.586237192153931108e+00 -6.827646493911743164e-01 1.600000000000000000e+01
2.322082042694091797e+00 -1.848391294479369895e+00 -6.852009296417236328e-01 1.100000000000000000e+01
2.732221603393555132e+00 -2.175643920898437944e+00 -6.788983941078186035e-01 1.200000000000000000e+01
3.377090692520142046e+00 -2.691074371337891069e+00 -6.839314699172973633e-01 1.000000000000000000e+01
4.389164924621582031e+00 -3.500063180923461914e+00 -6.892930269241333008e-01 1.200000000000000000e+01
5.831380844116210938e+00 -4.651798248291015625e+00 -6.526222229003906250e-01 6.000000000000000000e+00
1.982870817184448020e+00 -1.588010907173156960e+00 -6.806941032409667969e-01 1.300000000000000000e+01
2.315939903259276900e+00 -1.856081485748291016e+00 -6.852009296417236328e-01 1.100000000000000000e+01
2.732650518417357954e+00 -2.190832614898682085e+00 -6.808065176010131836e-01 1.100000000000000000e+01
3.358903408050537109e+00 -2.694841384887694868e+00 -6.820542812347412109e-01 1.000000000000000000e+01
4.405396938323974609e+00 -3.536969184875487837e+00 -6.936802864074707031e-01 1.200000000000000000e+01
5.792621612548828125e+00 -4.652395725250244141e+00 -6.500075459480285645e-01 7.000000000000000000e+00
1.989344835281372070e+00 -1.604625701904297097e+00 -6.848351955413818359e-01 1.500000000000000000e+01
2.301864862442017046e+00 -1.858034253120421919e+00 -6.829513907432556152e-01 1.200000000000000000e+01
2.731096267700194868e+00 -2.205291509628295898e+00 -6.823329925537109375e-01 1.100000000000000000e+01
3.349476337432860884e+00 -2.706549644470214844e+00 -6.820542812347412109e-01 1.000000000000000000e+01
4.374500751495361328e+00 -3.537347078323363814e+00 -6.907554268836975098e-01 1.200000000000000000e+01
5.832111835479736328e+00 -4.717697143554688388e+00 -6.562827229499816895e-01 8.000000000000000000e+00
1.986730337142943892e+00 -1.613996267318726030e+00 -6.858704686164855957e-01 1.400000000000000000e+01
2.298389434814453125e+00 -1.868516564369202104e+00 -6.838511824607849121e-01 1.300000000000000000e+01
2.723381757736206055e+00 -2.214811325073242188e+00 -6.823329925537109375e-01 1.200000000000000000e+01
3.343072414398192915e+00 -2.720718860626221147e+00 -6.826800107955932617e-01 1.000000000000000000e+01
4.355969429016113281e+00 -3.547581195831298828e+00 -6.897804737091064453e-01 1.400000000000000000e+01
5.790894031524658203e+00 -4.717891216278076172e+00 -6.534937620162963867e-01 6.000000000000000000e+00
1.984074711799622026e+00 -1.623368144035338911e+00 -6.869057416915893555e-01 1.400000000000000000e+01
2.302407503128052202e+00 -1.885169863700866921e+00 -6.870005130767822266e-01 1.400000000000000000e+01
2.712596416473389116e+00 -2.221816062927246094e+00 -6.815697550773620605e-01 1.100000000000000000e+01
3.350360155105590820e+00 -2.746146202087401900e+00 -6.861215829849243164e-01 1.100000000000000000e+01
4.351233959197998047e+00 -3.569059371948242188e+00 -6.909991502761840820e-01 1.400000000000000000e+01
5.826758861541748047e+00 -4.781046390533447266e+00 -6.594203710556030273e-01 7.000000000000000000e+00
1.969733953475951926e+00 -1.622568845748900923e+00 -6.837999224662780762e-01 1.400000000000000000e+01
2.294639825820922852e+00 -1.891555070877074973e+00 -6.865506172180175781e-01 1.200000000000000000e+01
2.705213785171508789e+00 -2.230799198150635210e+00 -6.815697550773620605e-01 1.100000000000000000e+01
3.330570220947266069e+00 -2.748440265655518022e+00 -6.839314699172973633e-01 1.000000000000000000e+01
4.356211662292479581e+00 -3.597373008728026900e+00 -6.936802864074707031e-01 1.200000000000000000e+01
5.829304695129395419e+00 -4.815569400787354404e+00 -6.615120768547058105e-01 6.000000000000000000e+00
1.964058160781859907e+00 -1.629434704780579057e+00 -6.837999224662780762e-01 1.500000000000000000e+01
2.280526161193848100e+00 -1.893329381942749023e+00 -6.843010783195495605e-01 1.400000000000000000e+01
2.703451633453369141e+00 -2.245245933532714844e+00 -6.830962300300598145e-01 1.100000000000000000e+01
3.317917585372924805e+00 -2.757524251937866211e+00 -6.833057403564453125e-01 1.000000000000000000e+01
4.349732875823974609e+00 -3.617634534835814986e+00 -6.946552395820617676e-01 1.200000000000000000e+01
5.780295848846436435e+00 -4.809128284454345703e+00 -6.578515172004699707e-01 7.000000000000000000e+00
1.968448638916016069e+00 -1.645294904708862083e+00 -6.874234080314636230e-01 1.400000000000000000e+01
2.269087076187133789e+00 -1.897924304008484109e+00 -6.829513907432556152e-01 1.300000000000000000e+01
2.699721336364746094e+00 -2.258919000625609907e+00 -6.842410564422607422e-01 1.100000000000000000e+01
3.307788610458374023e+00 -2.769666433334351030e+00 -6.833057403564453125e-01 1.000000000000000000e+01
4.330358028411865234e+00 -3.628453016281127930e+00 -6.936802864074707031e-01 1.200000000000000000e+01
5.651165008544921875e+00 -4.736850261688232422e+00 -6.451268196105957031e-01 6.000000000000000000e+00
1.964171409606934038e+00 -1.653400063514709029e+00 -6.879410147666931152e-01 1.500000000000000000e+01
2.266919612884521040e+00 -1.909599900245666948e+00 -6.843010783195495605e-01 1.200000000000000000e+01
2.678308010101317915e+00 -2.256943225860596147e+00 -6.808065176010131836e-01 9.000000000000000000e+00
3.314711809158325195e+00 -2.795203924179077148e+00 -6.867473125457763672e-01 1.100000000000000000e+01
2.855450439453125000e+01 -2.408774566650390980e+01 4.586918354034423828e+00 1.900000000000000000e+01
4.308563232421875000e+00 -3.635865211486815962e+00 -6.922178864479064941e-01 1.200000000000000000e+01
5.718330860137938565e+00 -4.827233791351318359e+00 -6.547139286994934082e-01 8.000000000000000000e+00
1.963389515876770020e+00 -1.663308739662169966e+00 -6.894939541816711426e-01 1.600000000000000000e+01
2.260909318923950195e+00 -1.916712164878844993e+00 -6.843010783195495605e-01 1.200000000000000000e+01
2.677193641662598100e+00 -2.270425319671630859e+00 -6.823329925537109375e-01 9.000000000000000000e+00
3.304407835006713867e+00 -2.804325342178345171e+00 -6.864344477653503418e-01 1.000000000000000000e+01
2.843329048156737926e+01 -2.413879013061523082e+01 4.579606056213378906e+00 1.900000000000000000e+01
4.318302631378173828e+00 -3.667372941970825195e+00 -6.956301927566528320e-01 1.200000000000000000e+01
5.608995914459229404e+00 -4.765195846557617188e+00 -6.439066529273986816e-01 6.000000000000000000e+00
1.944344639778136985e+00 -1.658867359161376953e+00 -6.848351955413818359e-01 1.400000000000000000e+01
2.261615037918090820e+00 -1.930919289588928001e+00 -6.865506172180175781e-01 1.300000000000000000e+01
2.672237873077393022e+00 -2.282306671142578125e+00 -6.830962300300598145e-01 1.100000000000000000e+01
3.288592338562012163e+00 -2.810708999633789062e+00 -6.851829290390014648e-01 1.000000000000000000e+01
4.313017845153808594e+00 -3.688875675201416016e+00 -6.968489289283752441e-01 1.000000000000000000e+01
5.436397075653076172e+00 -4.651332378387451172e+00 -6.259525418281555176e-01 6.000000000000000000e+00
1.945868611335753950e+00 -1.671939134597778098e+00 -6.874234080314636230e-01 1.500000000000000000e+01
2.256338834762572798e+00 -1.940072536468506081e+00 -6.870005130767822266e-01 1.200000000000000000e+01
2.679138898849486861e+00 -2.304423093795775923e+00 -6.869123578071594238e-01 1.100000000000000000e+01
3.278760910034180132e+00 -2.822171211242675781e+00 -6.851829290390014648e-01 1.000000000000000000e+01
4.304626941680908203e+00 -3.707795143127440962e+00 -6.975800991058349609e-01 1.200000000000000000e+01
5.406543254852294922e+00 -4.658576011657714844e+00 -6.243837475776672363e-01 6.000000000000000000e+00
1.938559651374816895e+00 -1.677457213401793990e+00 -6.869057416915893555e-01 1.500000000000000000e+01
2.249552965164185014e+00 -1.947936773300170898e+00 -6.870005130767822266e-01 1.300000000000000000e+01
2.668110847473144975e+00 -2.311190128326416016e+00 -6.861491203308105469e-01 1.100000000000000000e+01
3.265904426574707031e+00 -2.831011295318603960e+00 -6.845571994781494141e-01 1.100000000000000000e+01
4.291658401489257812e+00 -3.722798347473144975e+00 -6.975800991058349609e-01 1.200000000000000000e+01
5.525682449340820312e+00 -4.794942855834960938e+00 -6.400717496871948242e-01 7.000000000000000000e+00
1.945504426956176980e+00 -1.695976138114928977e+00 -6.915645003318786621e-01 1.500000000000000000e+01
2.240929841995238814e+00 -1.954887628555298074e+00 -6.865506172180175781e-01 1.300000000000000000e+01
2.649267435073852983e+00 -2.311917781829833984e+00 -6.834778189659118652e-01 1.000000000000000000e+01
3.267409563064575195e+00 -2.853357076644897017e+00 -6.870601773262023926e-01 1.000000000000000000e+01
4.274995326995849609e+00 -3.735890626907349077e+00 -6.970926523208618164e-01 1.200000000000000000e+01
5.626572608947753906e+00 -4.918757438659667969e+00 -6.538423895835876465e-01 9.000000000000000000e+00
1.932313680648803933e+00 -1.696384310722351074e+00 -6.889762878417968750e-01 1.400000000000000000e+01
2.235556364059447798e+00 -1.963984251022339089e+00 -6.870005130767822266e-01 1.200000000000000000e+01
2.642656087875366211e+00 -2.322447299957274947e+00 -6.838594675064086914e-01 1.100000000000000000e+01
3.263362884521483931e+00 -2.869963169097899947e+00 -6.883116364479064941e-01 1.000000000000000000e+01
4.279810428619384766e+00 -3.766527891159058061e+00 -7.000175118446350098e-01 1.200000000000000000e+01
5.615350246429443359e+00 -4.943634033203125000e+00 -6.545396447181701660e-01 1.000000000000000000e+01
1.917992353439331055e+00 -1.695106744766234907e+00 -6.858704686164855957e-01 1.400000000000000000e+01
2.234870195388793945e+00 -1.976550936698914018e+00 -6.888001561164855957e-01 1.300000000000000000e+01
2.639351129531859907e+00 -2.335100650787353960e+00 -6.850042939186096191e-01 1.100000000000000000e+01
3.256785869598389116e+00 -2.883388042449951172e+00 -6.889373660087585449e-01 1.100000000000000000e+01
4.265810966491699219e+00 -3.779383182525635210e+00 -6.997737884521484375e-01 1.000000000000000000e+01
5.566122531890869141e+00 -4.933155059814453125e+00 -6.507048010826110840e-01 7.000000000000000000e+00
1.916392803192138894e+00 -1.705644607543945090e+00 -6.874234080314636230e-01 1.500000000000000000e+01
2.225046634674071822e+00 -1.981747746467590110e+00 -6.879003047943115234e-01 1.300000000000000000e+01
2.638513326644897017e+00 -2.350829601287841797e+00 -6.869123578071594238e-01 1.100000000000000000e+01
3.243752241134643999e+00 -2.892109632492064986e+00 -6.883116364479064941e-01 1.000000000000000000e+01
2.820540428161621094e+01 -2.515660285949707031e+01 4.640541076660156250e+00 1.900000000000000000e+01
4.264442443847656250e+00 -3.804823160171508789e+00 -7.017236948013305664e-01 1.100000000000000000e+01
5.551841259002686435e+00 -4.955207824707031250e+00 -6.510533690452575684e-01 1.100000000000000000e+01
1.913603782653809038e+00 -1.714568495750427024e+00 -6.884586811065673828e-01 1.600000000000000000e+01
2.209757328033446822e+00 -1.981309890747070090e+00 -6.852009296417236328e-01 1.200000000000000000e+01
2.629241466522216797e+00 -2.358255386352539062e+00 -6.865307688713073730e-01 1.200000000000000000e+01
3.237083911895751953e+00 -2.905489444732666016e+00 -6.889373660087585449e-01 1.000000000000000000e+01
4.248847961425781250e+00 -3.816290855407714844e+00 -7.012361884117126465e-01 1.300000000000000000e+01
5.523522853851318359e+00 -4.962938308715820312e+00 -6.496589183807373047e-01 9.000000000000000000e+00
1.919081449508666992e+00 -1.731591105461121050e+00 -6.925997734069824219e-01 1.700000000000000000e+01
2.208613157272338867e+00 -1.994235157966613992e+00 -6.870005130767822266e-01 1.300000000000000000e+01
2.628278255462646040e+00 -2.373998641967772993e+00 -6.884388327598571777e-01 1.100000000000000000e+01
3.235714912414550781e+00 -2.924718856811522993e+00 -6.908146142959594727e-01 1.000000000000000000e+01
4.235500812530517578e+00 -3.831098794937133789e+00 -7.012361884117126465e-01 1.100000000000000000e+01
5.497301101684570312e+00 -4.974168300628662109e+00 -6.486130356788635254e-01 1.800000000000000000e+01
1.908433437347412109e+00 -1.734714984893799050e+00 -6.910468339920043945e-01 1.600000000000000000e+01
2.205613851547241211e+00 -2.006250619888306108e+00 -6.883502006530761719e-01 1.500000000000000000e+01
2.612298965454102007e+00 -2.377009153366088867e+00 -6.865307688713073730e-01 1.000000000000000000e+01
3.227894783020019975e+00 -2.939218521118164062e+00 -6.914403438568115234e-01 1.000000000000000000e+01
4.227299690246582031e+00 -3.851944923400878906e+00 -7.022111415863037109e-01 1.100000000000000000e+01
5.470198154449462891e+00 -4.986230373382568359e+00 -6.475671529769897461e-01 1.800000000000000000e+01
1.896666526794434038e+00 -1.736148595809936968e+00 -6.889762878417968750e-01 1.600000000000000000e+01
2.201471328735352007e+00 -2.016570091247559038e+00 -6.892500519752502441e-01 1.300000000000000000e+01
2.601090908050537109e+00 -2.383460760116577148e+00 -6.857675313949584961e-01 1.000000000000000000e+01
3.208879709243773970e+00 -2.942457675933837891e+00 -6.895630955696105957e-01 1.000000000000000000e+01
4.228454589843750000e+00 -3.880098819732666016e+00 -7.046485543251037598e-01 1.100000000000000000e+01
5.448356151580811435e+00 -5.001252174377441406e+00 -6.470442414283752441e-01 1.400000000000000000e+01
1.886636853218079057e+00 -1.738501310348510964e+00 -6.874234080314636230e-01 1.500000000000000000e+01
2.197637319564818892e+00 -2.026501417160034180e+00 -6.901498436927795410e-01 1.500000000000000000e+01
2.603274106979370117e+00 -2.401391267776488814e+00 -6.884388327598571777e-01 9.000000000000000000e+00
3.193298578262329102e+00 -2.947723150253295898e+00 -6.883116364479064941e-01 1.000000000000000000e+01
4.221396923065186435e+00 -3.899487495422362837e+00 -7.056235074996948242e-01 1.100000000000000000e+01
5.468323707580566406e+00 -5.053096771240234375e+00 -6.514019966125488281e-01 1.000000000000000000e+01
1.886221170425415039e+00 -1.750332474708556907e+00 -6.894939541816711426e-01 1.600000000000000000e+01
2.180553913116455078e+00 -2.024877786636352983e+00 -6.870005130767822266e-01 1.400000000000000000e+01
2.597752809524536133e+00 -2.413136005401610884e+00 -6.892020702362060547e-01 9.000000000000000000e+00
3.194564104080200195e+00 -2.969611406326293945e+00 -6.908146142959594727e-01 1.000000000000000000e+01
4.210666656494140625e+00 -3.916903257369995117e+00 -7.061109542846679688e-01 1.100000000000000000e+01
5.510452747344970703e+00 -5.127802371978759766e+00 -6.585487723350524902e-01 7.000000000000000000e+00
1.888568758964539018e+00 -1.764819979667664018e+00 -6.925997734069824219e-01 1.600000000000000000e+01
2.174896001815795898e+00 -2.033808231353760210e+00 -6.874504089355468750e-01 1.300000000000000000e+01
2.579277276992797852e+00 -2.412800788879394975e+00 -6.865307688713073730e-01 9.000000000000000000e+00
3.184178829193114790e+00 -2.980744361877440962e+00 -6.908146142959594727e-01 1.000000000000000000e+01
2.734053802490234020e+01 -2.560272979736328125e+01 4.599105358123779297e+00 1.900000000000000000e+01
4.191173553466796875e+00 -3.926148891448975053e+00 -7.051360011100769043e-01 1.100000000000000000e+01
2.825611686706542969e+01 -2.646937179565430043e+01 6.132231235504150391e+00 1.400000000000000000e+01
5.456174373626708984e+00 -5.112947463989257812e+00 -6.541910171508789062e-01 1.100000000000000000e+01
1.872548818588257058e+00 -1.762134194374084029e+00 -6.889762878417968750e-01 1.500000000000000000e+01
2.180551767349243164e+00 -2.053411483764647993e+00 -6.914995312690734863e-01 1.400000000000000000e+01
2.577984571456909180e+00 -2.428520441055297852e+00 -6.884388327598571777e-01 1.200000000000000000e+01
3.180941581726074219e+00 -2.998615980148314986e+00 -6.923789381980895996e-01 9.000000000000000000e+00
2.619960975646973012e+01 -2.470653533935546875e+01 4.421663284301757812e+00 1.800000000000000000e+01
4.171667098999023438e+00 -3.935306310653686968e+00 -7.041610479354858398e-01 1.100000000000000000e+01
5.441191673278808594e+00 -5.134696483612061435e+00 -6.545396447181701660e-01 9.000000000000000000e+00
1.871995329856873003e+00 -1.773975133895874023e+00 -6.910468339920043945e-01 1.600000000000000000e+01
2.171956777572631836e+00 -2.059669494628905806e+00 -6.910496354103088379e-01 1.600000000000000000e+01
2.570916175842285156e+00 -2.438855648040771040e+00 -6.888204813003540039e-01 1.100000000000000000e+01
3.177618265151977983e+00 -3.016501426696776900e+00 -6.939432621002197266e-01 1.000000000000000000e+01
2.723310661315917969e+01 -2.586132621765137074e+01 4.611292362213134766e+00 1.900000000000000000e+01
4.169418811798095703e+00 -3.960781574249268022e+00 -7.061109542846679688e-01 1.100000000000000000e+01
2.762666511535644887e+01 -2.624423027038573863e+01 6.035241603851318359e+00 1.300000000000000000e+01
5.427567958831787109e+00 -5.157775878906250000e+00 -6.550625562667846680e-01 8.000000000000000000e+00
1.867189168930053933e+00 -1.781832456588744895e+00 -6.915645003318786621e-01 1.700000000000000000e+01
2.160525798797606978e+00 -2.063200950622559038e+00 -6.896999478340148926e-01 1.700000000000000000e+01
2.568065643310546875e+00 -2.453239440917969194e+00 -6.903469562530517578e-01 1.100000000000000000e+01
3.159929990768433061e+00 -3.020750045776367188e+00 -6.923789381980895996e-01 9.000000000000000000e+00
2.699919891357421875e+01 -2.581903266906737926e+01 4.586918354034423828e+00 1.900000000000000000e+01
4.171346187591552734e+00 -3.990405797958374023e+00 -7.087920904159545898e-01 9.000000000000000000e+00
2.706954765319823863e+01 -2.589535331726073863e+01 5.933246612548828125e+00 1.300000000000000000e+01
5.419607162475585938e+00 -5.186332702636718750e+00 -6.562827229499816895e-01 6.000000000000000000e+00
1.868236064910888894e+00 -1.794706225395203081e+00 -6.941526532173156738e-01 1.600000000000000000e+01
2.152267217636107954e+00 -2.069003582000731978e+00 -6.892500519752502441e-01 1.900000000000000000e+01
2.561331510543822798e+00 -2.463102817535399947e+00 -6.907285451889038086e-01 1.100000000000000000e+01
3.148472070693970171e+00 -3.029842376708983931e+00 -6.920660734176635742e-01 1.000000000000000000e+01
4.156661033630371094e+00 -4.002839565277099609e+00 -7.085483670234680176e-01 1.100000000000000000e+01
2.705012321472167969e+01 -2.605821037292480113e+01 5.948889732360839844e+00 1.300000000000000000e+01
5.433946609497070312e+00 -5.234686374664306641e+00 -6.601175665855407715e-01 8.000000000000000000e+00
1.861959934234618919e+00 -1.801216602325439009e+00 -6.941526532173156738e-01 1.600000000000000000e+01
2.152032852172852007e+00 -2.083281040191649947e+00 -6.914995312690734863e-01 1.900000000000000000e+01
2.552717924118041992e+00 -2.472028493881226030e+00 -6.907285451889038086e-01 1.200000000000000000e+01
3.137876749038695845e+00 -3.040814161300659180e+00 -6.920660734176635742e-01 1.000000000000000000e+01
4.134112834930419922e+00 -4.009033203125000000e+00 -7.070859074592590332e-01 1.100000000000000000e+01
5.378459453582763672e+00 -5.217553615570068359e+00 -6.555854678153991699e-01 8.000000000000000000e+00
1.844277262687683105e+00 -1.797242760658263938e+00 -6.900115609169006348e-01 1.500000000000000000e+01
2.144382715225220171e+00 -2.091154575347899947e+00 -6.914995312690734863e-01 1.900000000000000000e+01
2.543640375137329102e+00 -2.481368064880371094e+00 -6.907285451889038086e-01 1.100000000000000000e+01
3.135191679000854048e+00 -3.060573816299438032e+00 -6.939432621002197266e-01 1.000000000000000000e+01
4.129331111907958984e+00 -4.033868789672851562e+00 -7.087920904159545898e-01 1.100000000000000000e+01
5.290901660919188565e+00 -5.170391082763671875e+00 -6.472185254096984863e-01 1.300000000000000000e+01
2.784398651123046875e+01 -2.724781227111816051e+01 -6.800155639648437500e-01 9.000000000000000000e+00
1.842128992080688032e+00 -1.807728767395019975e+00 -6.915645003318786621e-01 1.500000000000000000e+01
2.139850854873656782e+00 -2.101357936859130859e+00 -6.923993229866027832e-01 1.900000000000000000e+01
2.534963369369506836e+00 -2.490231990814208984e+00 -6.907285451889038086e-01 1.200000000000000000e+01
3.127306461334228960e+00 -3.074268579483031782e+00 -6.945690512657165527e-01 1.000000000000000000e+01
4.112394809722900391e+00 -4.045474052429199219e+00 -7.083046436309814453e-01 9.000000000000000000e+00
5.282762050628662109e+00 -5.198610305786132812e+00 -6.484387516975402832e-01 7.000000000000000000e+00
2.718926811218262074e+01 -2.678419303894042969e+01 8.811332702636718750e+00 1.200000000000000000e+01
2.760057449340819957e+01 -2.719886589050292969e+01 -6.763854622840881348e-01 8.000000000000000000e+00
1.836124181747436968e+00 -1.813827633857727051e+00 -6.915645003318786621e-01 1.700000000000000000e+01
2.131484985351562944e+00 -2.107072353363037109e+00 -6.919494271278381348e-01 1.900000000000000000e+01
2.744754028320312855e+01 -2.713317489624023082e+01 2.022680044174193892e+00 2.200000000000000000e+01
2.533671140670775923e+00 -2.505526781082152876e+00 -6.926366686820983887e-01 1.100000000000000000e+01
3.108669996261597124e+00 -3.076285362243651900e+00 -6.926918029785156250e-01 1.000000000000000000e+01
2.686790275573730113e+01 -2.659728813171387074e+01 4.642003059387207031e+00 1.900000000000000000e+01
4.108830451965332031e+00 -4.068866252899169922e+00 -7.100107669830322266e-01 1.100000000000000000e+01
5.278233051300048828e+00 -5.228719711303710938e+00 -6.500075459480285645e-01 6.000000000000000000e+00
2.696192550659180043e+01 -2.673699188232421875e+01 8.766342163085937500e+00 1.100000000000000000e+01
2.762380027770996094e+01 -2.740290832519530895e+01 -6.791778206825256348e-01 9.000000000000000000e+00
1.837999105453490989e+00 -1.828400492668152078e+00 -6.946703195571899414e-01 1.800000000000000000e+01
2.119973659515380859e+00 -2.110375165939331055e+00 -6.905997395515441895e-01 2.000000000000000000e+01
2.531865596771239790e+00 -2.521282196044921875e+00 -6.945447325706481934e-01 1.100000000000000000e+01
3.104909181594849077e+00 -3.094089746475220171e+00 -6.942561268806457520e-01 1.000000000000000000e+01
2.687893104553223012e+01 -2.679462051391601918e+01 4.660039901733398438e+00 2.000000000000000000e+01
4.098819255828857422e+00 -4.087388992309570312e+00 -7.107419967651367188e-01 9.000000000000000000e+00
5.090682983398438388e+00 -5.078258991241455078e+00 -6.290901303291320801e-01 1.200000000000000000e+01
1.828875899314879927e+00 -1.832070708274841087e+00 -6.936350464820861816e-01 1.500000000000000000e+01
2.115346670150756836e+00 -2.120521783828734907e+00 -6.914995312690734863e-01 1.900000000000000000e+01
2.517503976821898970e+00 -2.524544000625609907e+00 -6.930182576179504395e-01 1.200000000000000000e+01
3.101061582565308061e+00 -3.111905336380004883e+00 -6.958205103874206543e-01 1.100000000000000000e+01
2.659190177917480113e+01 -2.669420433044433949e+01 4.626403808593750000e+00 1.900000000000000000e+01
4.083126068115234375e+00 -4.100265026092529297e+00 -7.104982733726501465e-01 1.100000000000000000e+01
5.101037979125976562e+00 -5.124238491058349609e+00 -6.325764060020446777e-01 1.200000000000000000e+01
1.825189828872681108e+00 -1.841187477111815962e+00 -6.946703195571899414e-01 1.700000000000000000e+01
2.110674619674683061e+00 -2.130661725997924805e+00 -6.923993229866027832e-01 2.000000000000000000e+01
2.503150701522827148e+00 -2.527736425399779829e+00 -6.914917826652526855e-01 1.200000000000000000e+01
3.092959165573120117e+00 -3.125519275665283203e+00 -6.964462399482727051e-01 1.100000000000000000e+01
2.641200447082519887e+01 -2.669936752319335938e+01 4.611292362213134766e+00 1.900000000000000000e+01
4.072976112365722656e+00 -4.118727684020996094e+00 -7.112295031547546387e-01 1.300000000000000000e+01
5.113935470581054688e+00 -5.173185825347900391e+00 -6.364112496376037598e-01 9.000000000000000000e+00
1.808550715446471946e+00 -1.835902452468872070e+00 -6.905292272567749023e-01 1.800000000000000000e+01
2.113540410995482954e+00 -2.147003412246704102e+00 -6.955486536026000977e-01 2.200000000000000000e+01
2.500705480575561968e+00 -2.541185140609741211e+00 -6.930182576179504395e-01 1.100000000000000000e+01
3.090049982070922852e+00 -3.142262935638428178e+00 -6.980105638504028320e-01 1.000000000000000000e+01
4.064190387725830078e+00 -4.135750293731688565e+00 -7.119607329368591309e-01 1.300000000000000000e+01
5.065544605255126953e+00 -5.156535625457763672e+00 -6.324020624160766602e-01 1.400000000000000000e+01
1.808885812759398970e+00 -1.849109172821044922e+00 -6.931173801422119141e-01 1.600000000000000000e+01
2.741844940185546875e+01 -2.803792762756348012e+01 6.845182776451110840e-01 3.300000000000000000e+01
2.104670763015747070e+00 -2.152974367141724077e+00 -6.950987577438354492e-01 2.100000000000000000e+01
2.497308492660522017e+00 -2.555515289306641069e+00 -6.945447325706481934e-01 1.100000000000000000e+01
3.074922323226929155e+00 -3.148790121078491211e+00 -6.970719695091247559e-01 1.100000000000000000e+01
4.044183731079101562e+00 -4.144228935241699219e+00 -7.109857201576232910e-01 1.300000000000000000e+01
2.602074623107910156e+01 -2.667376136779785156e+01 5.901959419250488281e+00 1.300000000000000000e+01
5.046123027801513672e+00 -5.172760009765625000e+00 -6.322277784347534180e-01 1.300000000000000000e+01
1.806133866310120073e+00 -1.859884381294250044e+00 -6.946703195571899414e-01 1.600000000000000000e+01
2.089979887008666992e+00 -2.153681516647338867e+00 -6.928492188453674316e-01 2.000000000000000000e+01
2.748456192016601918e+01 -2.832227516174316051e+01 2.068316936492919922e+00 2.200000000000000000e+01
2.489292144775391069e+00 -2.566060304641724077e+00 -6.949263811111450195e-01 1.200000000000000000e+01
3.063360691070557085e+00 -3.160039186477661133e+00 -6.970719695091247559e-01 1.100000000000000000e+01
4.035872936248779297e+00 -4.166152954101563388e+00 -7.122044563293457031e-01 1.300000000000000000e+01
2.588624572753905895e+01 -2.672186470031737926e+01 5.892573356628417969e+00 1.300000000000000000e+01
5.104747772216796875e+00 -5.271371364593505859e+00 -6.419891715049743652e-01 7.000000000000000000e+00
1.807676672935486062e+00 -1.874521136283874956e+00 -6.977761387825012207e-01 1.700000000000000000e+01
2.077040433883666992e+00 -2.155350685119628906e+00 -6.910496354103088379e-01 2.000000000000000000e+01
2.478957653045653853e+00 -2.573320150375366211e+00 -6.945447325706481934e-01 1.100000000000000000e+01
3.053681373596190962e+00 -3.172136306762694868e+00 -6.973848342895507812e-01 1.100000000000000000e+01
2.682871055603026988e+01 -2.787915611267089844e+01 4.750710964202880859e+00 2.000000000000000000e+01
4.026810646057128906e+00 -4.185937404632568359e+00 -7.131794095039367676e-01 1.300000000000000000e+01
5.116698741912841797e+00 -5.320752620697020596e+00 -6.458240747451782227e-01 1.400000000000000000e+01
1.797113895416259988e+00 -1.876633882522583008e+00 -6.962232589721679688e-01 1.900000000000000000e+01
2.077588319778441939e+00 -2.171035528182982954e+00 -6.937490701675415039e-01 2.000000000000000000e+01
2.467245817184447798e+00 -2.579120159149169922e+00 -6.937814950942993164e-01 1.100000000000000000e+01
3.049415111541748047e+00 -3.189915657043457031e+00 -6.989492177963256836e-01 1.100000000000000000e+01
4.006690025329589844e+00 -4.194226741790770596e+00 -7.122044563293457031e-01 1.500000000000000000e+01
5.067822456359863281e+00 -5.306880474090576172e+00 -6.419891715049743652e-01 1.000000000000000000e+01
1.783895969390868919e+00 -1.875895977020263894e+00 -6.936350464820861816e-01 2.000000000000000000e+01
2.078051805496215820e+00 -2.186750173568726030e+00 -6.964484453201293945e-01 1.900000000000000000e+01
2.462284326553345171e+00 -2.591986894607543945e+00 -6.949263811111450195e-01 1.200000000000000000e+01
3.043701648712158203e+00 -3.206271409988402876e+00 -7.002006769180297852e-01 1.100000000000000000e+01
4.002954483032226562e+00 -4.219708442687988281e+00 -7.141543626785278320e-01 1.300000000000000000e+01
5.035557270050048828e+00 -5.310081481933593750e+00 -6.402460932731628418e-01 1.000000000000000000e+01
1.778334617614746094e+00 -1.883826494216918945e+00 -6.941526532173156738e-01 1.900000000000000000e+01
2.068685770034790039e+00 -2.192934274673461914e+00 -6.959985494613647461e-01 2.200000000000000000e+01
2.456808567047119141e+00 -2.605279207229613814e+00 -6.960712075233459473e-01 1.100000000000000000e+01
3.021091461181641069e+00 -3.205904483795166016e+00 -6.976976990699768066e-01 1.100000000000000000e+01
3.991544246673583984e+00 -4.238687038421630859e+00 -7.148855924606323242e-01 1.500000000000000000e+01
5.039277076721191406e+00 -5.353164196014404297e+00 -6.432093977928161621e-01 9.000000000000000000e+00
1.775711655616760032e+00 -1.894250750541687012e+00 -6.957055926322937012e-01 1.800000000000000000e+01
2.051692485809326172e+00 -2.190186738967895952e+00 -6.928492188453674316e-01 1.900000000000000000e+01
2.446357488632202148e+00 -2.612406253814696822e+00 -6.956896185874938965e-01 1.200000000000000000e+01
3.019330501556396040e+00 -3.226526975631713867e+00 -6.998878121376037598e-01 1.000000000000000000e+01
2.642106246948241832e+01 -2.824404144287109020e+01 4.748760700225830078e+00 2.000000000000000000e+01
3.982147455215454102e+00 -4.258394241333007812e+00 -7.158605456352233887e-01 1.500000000000000000e+01
5.030084609985351562e+00 -5.380910396575927734e+00 -6.444295644760131836e-01 9.000000000000000000e+00
1.780286192893981934e+00 -1.911128401756287065e+00 -6.998466849327087402e-01 1.700000000000000000e+01
2.047457218170166016e+00 -2.199474096298218218e+00 -6.937490701675415039e-01 1.900000000000000000e+01
2.451512813568114790e+00 -2.634451150894165039e+00 -6.995058059692382812e-01 1.200000000000000000e+01
3.009179115295410156e+00 -3.235996484756470171e+00 -6.998878121376037598e-01 1.000000000000000000e+01
3.963344573974608931e+00 -4.265066623687744141e+00 -7.148855924606323242e-01 1.500000000000000000e+01
4.996883392333984375e+00 -5.379168987274169922e+00 -6.423377990722656250e-01 7.000000000000000000e+00
1.763109564781188965e+00 -1.905985951423645020e+00 -6.957055926322937012e-01 1.700000000000000000e+01
2.049026966094971147e+00 -2.216624736785889116e+00 -6.968983411788940430e-01 1.800000000000000000e+01
2.430310249328612837e+00 -2.630015373229980025e+00 -6.960712075233459473e-01 1.200000000000000000e+01
3.013946771621704102e+00 -3.263895988464355025e+00 -7.036422491073608398e-01 1.000000000000000000e+01
3.952471256256103960e+00 -4.283252239227294922e+00 -7.156167626380920410e-01 1.300000000000000000e+01
4.961864948272705078e+00 -5.379004955291748047e+00 -6.402460932731628418e-01 1.100000000000000000e+01
1.749911308288573997e+00 -1.905015230178833008e+00 -6.931173801422119141e-01 1.600000000000000000e+01
2.034687995910644975e+00 -2.216585636138916016e+00 -6.946488618850708008e-01 1.400000000000000000e+01
2.417132854461669922e+00 -2.634143114089965820e+00 -6.949263811111450195e-01 1.300000000000000000e+01
2.999865055084228960e+00 -3.271484851837158203e+00 -7.030164599418640137e-01 1.000000000000000000e+01
3.940177917480469194e+00 -4.299949645996093750e+00 -7.161042690277099609e-01 1.500000000000000000e+01
4.961899757385253906e+00 -5.416861057281494141e+00 -6.426864266395568848e-01 9.000000000000000000e+00
1.749760389328002930e+00 -1.918248295783997026e+00 -6.957055926322937012e-01 1.500000000000000000e+01
2.029563665390015093e+00 -2.226554870605469194e+00 -6.955486536026000977e-01 1.300000000000000000e+01
2.419823884963988814e+00 -2.655624866485596147e+00 -6.983609199523925781e-01 1.200000000000000000e+01
2.979117393493651900e+00 -3.271712303161621094e+00 -7.008264064788818359e-01 1.100000000000000000e+01
3.938504219055175781e+00 -4.328359603881835938e+00 -7.185416221618652344e-01 1.500000000000000000e+01
4.922851085662841797e+00 -5.412040233612061435e+00 -6.400717496871948242e-01 9.000000000000000000e+00
1.744350671768188032e+00 -1.925776124000549094e+00 -6.962232589721679688e-01 1.600000000000000000e+01
2.015240430831909180e+00 -2.226402044296265093e+00 -6.932991743087768555e-01 1.200000000000000000e+01
2.411856651306151900e+00 -2.665511369705200195e+00 -6.987425684928894043e-01 1.200000000000000000e+01
2.979602575302124023e+00 -3.295278549194335938e+00 -7.036422491073608398e-01 1.100000000000000000e+01
3.924702405929564986e+00 -4.343554019927979404e+00 -7.187854051589965820e-01 1.500000000000000000e+01
4.874548912048339844e+00 -5.396663188934326172e+00 -6.362369060516357422e-01 7.000000000000000000e+00
1.746661186218261941e+00 -1.941907644271851030e+00 -6.998466849327087402e-01 1.700000000000000000e+01
2.008759260177611861e+00 -2.234872341156005859e+00 -6.937490701675415039e-01 1.300000000000000000e+01
2.406473875045775923e+00 -2.678295135498046875e+00 -6.998873949050903320e-01 1.300000000000000000e+01
2.969401597976685014e+00 -3.307128906250000000e+00 -7.039551138877868652e-01 1.100000000000000000e+01
3.898910999298096147e+00 -4.345407485961914062e+00 -7.168354988098144531e-01 1.300000000000000000e+01
4.818432331085205078e+00 -5.372116565704345703e+00 -6.313561797142028809e-01 7.000000000000000000e+00
1.733437657356261985e+00 -1.940788626670836958e+00 -6.972585320472717285e-01 1.500000000000000000e+01
2.006136417388916016e+00 -2.247685909271239790e+00 -6.955486536026000977e-01 1.400000000000000000e+01
2.387961149215697798e+00 -2.676424503326416016e+00 -6.972160935401916504e-01 1.200000000000000000e+01
2.969670772552489790e+00 -3.330743789672852007e+00 -7.067708969116210938e-01 1.000000000000000000e+01
3.890321731567382812e+00 -4.366401195526123047e+00 -7.180541753768920898e-01 1.300000000000000000e+01
