-3.606284618377685991e+00 1.789390802383423074e+00 -6.376268863677978516e-01 1.000000000000000000e+01
-4.638584136962890625e+00 2.303622245788574219e+00 -6.359142065048217773e-01 9.000000000000000000e+00
-6.455587387084960938e+00 3.207390785217285156e+00 -6.306589841842651367e-01 3.000000000000000000e+00
-1.059596157073974965e+01 5.269104480743408203e+00 -6.201810836791992188e-01 3.000000000000000000e+00
-2.162075996398925781e+00 1.079856634140015093e+00 -6.475652456283569336e-01 1.800000000000000000e+01
-6.094677734375000000e+01 3.045337867736816051e+01 1.189241886138916016e+00 3.800000000000000000e+01
-2.497838020324707031e+00 1.248643755912780984e+00 -6.447097063064575195e-01 1.300000000000000000e+01
-2.948176622390747070e+00 1.474406599998473899e+00 -6.407365798950195312e-01 1.200000000000000000e+01
-3.600016593933105025e+00 1.801968097686768022e+00 -6.376268863677978516e-01 9.000000000000000000e+00
-4.634064197540283203e+00 2.321578264236450195e+00 -6.364017128944396973e-01 9.000000000000000000e+00
-6.437227725982666016e+00 3.226334333419799805e+00 -6.299617290496826172e-01 2.000000000000000000e+00
-1.057750511169433949e+01 5.306059360504150391e+00 -6.201810836791992188e-01 3.000000000000000000e+00
-2.165194511413574219e+00 1.090873956680298074e+00 -6.496357917785644531e-01 1.900000000000000000e+01
-2.486504077911376953e+00 1.253845453262329102e+00 -6.429101228713989258e-01 1.300000000000000000e+01
-2.946517705917357954e+00 1.486457228660583052e+00 -6.414998173713684082e-01 1.200000000000000000e+01
-3.586651086807250977e+00 1.810962200164794922e+00 -6.363754272460937500e-01 1.000000000000000000e+01
-4.618845462799072266e+00 2.334158658981322798e+00 -6.354267597198486328e-01 9.000000000000000000e+00
-6.429482460021972656e+00 3.250582695007324219e+00 -6.303103566169738770e-01 2.000000000000000000e+00
-1.049119949340819957e+01 5.308682441711425781e+00 -6.162035465240478516e-01 3.000000000000000000e+00
-2.166924238204956055e+00 1.100294709205626997e+00 -6.511887311935424805e-01 1.900000000000000000e+01
-2.491239070892333984e+00 1.266065359115601030e+00 -6.451596021652221680e-01 1.400000000000000000e+01
-2.941833257675170898e+00 1.495706677436829057e+00 -6.414998173713684082e-01 1.200000000000000000e+01
-3.575662612915039062e+00 1.819533348083496094e+00 -6.354367733001708984e-01 1.000000000000000000e+01
-6.104088592529296875e+01 3.107505035400390980e+01 8.410202980041503906e+00 6.300000000000000000e+01
-4.618565082550048828e+00 2.352261304855347124e+00 -6.364017128944396973e-01 9.000000000000000000e+00
-6.412137985229492188e+00 3.267147302627563032e+00 -6.296131014823913574e-01 3.000000000000000000e+00
-1.042109203338623047e+01 5.314394474029541016e+00 -6.130633950233459473e-01 3.000000000000000000e+00
-2.154473066329956055e+00 1.103448748588562012e+00 -6.486005187034606934e-01 1.800000000000000000e+01
-6.099131774902343750e+01 3.125114250183105113e+01 1.196222901344299094e+00 3.700000000000000000e+01
-2.486804485321044922e+00 1.274753689765929954e+00 -6.451596021652221680e-01 1.400000000000000000e+01
-2.927859783172606978e+00 1.501487135887145996e+00 -6.395917534828186035e-01 1.100000000000000000e+01
-3.574561595916748047e+00 1.834709763526916948e+00 -6.363754272460937500e-01 9.000000000000000000e+00
-4.590902805328369141e+00 2.358390808105469194e+00 -6.337205767631530762e-01 7.000000000000000000e+00
-6.393606185913085938e+00 3.285867214202880859e+00 -6.289158463478088379e-01 2.000000000000000000e+00
-1.039182186126708984e+01 5.345257282257080078e+00 -6.124353408813476562e-01 3.000000000000000000e+00
-2.146788120269774947e+00 1.109938621520996094e+00 -6.475652456283569336e-01 1.900000000000000000e+01
-2.483622074127196822e+00 1.285188436508178933e+00 -6.456094980239868164e-01 1.500000000000000000e+01
-2.925559759140015093e+00 1.514523386955261008e+00 -6.403549909591674805e-01 1.200000000000000000e+01
-3.565736532211304155e+00 1.847512722015381081e+00 -6.360625624656677246e-01 8.000000000000000000e+00
-6.098417282104492188e+01 3.161119270324707031e+01 8.434089660644531250e+00 6.300000000000000000e+01
-4.585338115692138672e+00 2.377828836441040039e+00 -6.342080831527709961e-01 9.000000000000000000e+00
-6.370330810546875000e+00 3.304887533187866211e+00 -6.278699636459350586e-01 2.000000000000000000e+00
-1.037476539611816051e+01 5.386960029602050781e+00 -6.126447319984436035e-01 3.000000000000000000e+00
-2.142900705337523970e+00 1.117425560951232910e+00 -6.475652456283569336e-01 2.000000000000000000e+01
-2.482576131820679155e+00 1.295653343200684038e+00 -6.465093493461608887e-01 1.500000000000000000e+01
-2.921995639801024947e+00 1.525634884834289995e+00 -6.407365798950195312e-01 1.300000000000000000e+01
-3.543509006500244141e+00 1.851714372634887917e+00 -6.332467198371887207e-01 5.000000000000000000e+00
-6.104937362670897727e+01 3.191584205627441051e+01 8.458463668823242188e+00 6.300000000000000000e+01
-4.575251102447509766e+00 2.392900228500366211e+00 -6.339643001556396484e-01 9.000000000000000000e+00
-6.387001037597656250e+00 3.341882944107056108e+00 -6.306589841842651367e-01 2.000000000000000000e+00
-1.030989551544188920e+01 5.399051666259765625e+00 -6.099232435226440430e-01 3.000000000000000000e+00
-2.149245977401732954e+00 1.130294084548949973e+00 -6.506710648536682129e-01 1.900000000000000000e+01
-2.457344770431518999e+00 1.293419361114501953e+00 -6.411104798316955566e-01 1.300000000000000000e+01
-2.916652441024779829e+00 1.535825252532958984e+00 -6.407365798950195312e-01 1.300000000000000000e+01
-3.561489343643188032e+00 1.876965999603271040e+00 -6.376268863677978516e-01 5.000000000000000000e+00
-6.093759536743164062e+01 3.212874984741210938e+01 8.458463668823242188e+00 6.300000000000000000e+01
-4.563358783721923828e+00 2.407004117965697798e+00 -6.334768533706665039e-01 9.000000000000000000e+00
-6.354151725769042969e+00 3.352999210357666016e+00 -6.285672187805175781e-01 2.000000000000000000e+00
-1.029098701477050959e+01 5.435006618499755859e+00 -6.099232435226440430e-01 3.000000000000000000e+00
-2.148700714111328125e+00 1.139599800109863059e+00 -6.517063379287719727e-01 1.800000000000000000e+01
-6.089112091064453125e+01 3.230825424194335938e+01 1.203203797340393066e+00 3.600000000000000000e+01
-2.459700107574462891e+00 1.305643916130065918e+00 -6.429101228713989258e-01 1.500000000000000000e+01
-2.899136066436768022e+00 1.539551377296447976e+00 -6.380652785301208496e-01 1.300000000000000000e+01
-3.563637495040893999e+00 1.894021868705749956e+00 -6.391912102699279785e-01 8.000000000000000000e+00
-6.100034713745117188e+01 3.243445968627929688e+01 8.482837677001953125e+00 6.300000000000000000e+01
-4.556681632995604581e+00 2.423850774765015093e+00 -6.337205767631530762e-01 1.200000000000000000e+01
-6.342408657073974609e+00 3.375159025192261186e+00 -6.285672187805175781e-01 2.000000000000000000e+00
-1.027195262908936080e+01 5.470895767211914062e+00 -6.099232435226440430e-01 3.000000000000000000e+00
-2.134887218475341797e+00 1.140881419181823953e+00 -6.486005187034606934e-01 2.000000000000000000e+01
-2.460741281509398970e+00 1.316122055053710938e+00 -6.442598104476928711e-01 1.400000000000000000e+01
-2.892554044723511186e+00 1.547725439071655051e+00 -6.376836895942687988e-01 1.400000000000000000e+01
-3.535031557083129883e+00 1.893084764480591042e+00 -6.351239085197448730e-01 9.000000000000000000e+00
-4.543795108795166016e+00 2.435340642929077148e+00 -6.329893469810485840e-01 1.200000000000000000e+01
-6.314215183258056641e+00 3.385652542114257812e+00 -6.268240809440612793e-01 2.000000000000000000e+00
-1.025471401214599965e+01 5.503139019012451172e+00 -6.099232435226440430e-01 3.000000000000000000e+00
-2.127490520477294922e+00 1.146493673324584961e+00 -6.475652456283569336e-01 1.900000000000000000e+01
-2.462992906570435014e+00 1.328403949737549050e+00 -6.460594534873962402e-01 1.400000000000000000e+01
-2.887133836746215820e+00 1.557812929153441939e+00 -6.376836895942687988e-01 1.400000000000000000e+01
-3.524925470352172852e+00 1.903535604476928933e+00 -6.344981789588928223e-01 1.000000000000000000e+01
-4.538759231567382812e+00 2.453074455261230025e+00 -6.334768533706665039e-01 1.200000000000000000e+01
-6.291842937469482422e+00 3.401986837387084961e+00 -6.257782578468322754e-01 2.000000000000000000e+00
-1.023544216156006037e+01 5.538901329040527344e+00 -6.099232435226440430e-01 3.000000000000000000e+00
-2.121576786041260210e+00 1.153360962867737038e+00 -6.470476388931274414e-01 1.900000000000000000e+01
-2.447836875915526900e+00 1.331834197044373003e+00 -6.433600187301635742e-01 1.400000000000000000e+01
-2.881404876708983931e+00 1.568384408950806108e+00 -6.376836895942687988e-01 1.400000000000000000e+01
-3.514455795288085938e+00 1.914552330970763938e+00 -6.338724493980407715e-01 9.000000000000000000e+00
-4.536709308624267578e+00 2.473494291305541992e+00 -6.344518065452575684e-01 1.000000000000000000e+01
-6.268836975097656250e+00 3.419300317764281782e+00 -6.247323751449584961e-01 2.000000000000000000e+00
-1.021507263183593928e+01 5.576378822326660156e+00 -6.099232435226440430e-01 3.000000000000000000e+00
-2.132784128189086914e+00 1.169117093086242898e+00 -6.517063379287719727e-01 1.900000000000000000e+01
-2.432921886444091797e+00 1.334746718406677024e+00 -6.406605839729309082e-01 1.400000000000000000e+01
-2.875912666320800781e+00 1.578432798385619895e+00 -6.376836895942687988e-01 1.400000000000000000e+01
-3.504288434982299805e+00 1.924906373023987038e+00 -6.332467198371887207e-01 9.000000000000000000e+00
-4.517610549926757812e+00 2.483577251434326172e+00 -6.329893469810485840e-01 1.000000000000000000e+01
-6.256863117218017578e+00 3.441161870956420898e+00 -6.247323751449584961e-01 3.000000000000000000e+00
-1.019554519653319957e+01 5.612002372741699219e+00 -6.099232435226440430e-01 3.000000000000000000e+00
-2.118545532226562944e+00 1.170947670936584029e+00 -6.486005187034606934e-01 2.000000000000000000e+01
-2.428247928619385210e+00 1.343231081962585005e+00 -6.406605839729309082e-01 1.400000000000000000e+01
-2.865231990814208984e+00 1.585610151290893999e+00 -6.365388035774230957e-01 1.600000000000000000e+01
-3.502732038497924805e+00 1.939998030662537065e+00 -6.341853141784667969e-01 8.000000000000000000e+00
-4.498496532440186435e+00 2.493557214736938032e+00 -6.315269470214843750e-01 1.000000000000000000e+01
-6.267464637756347656e+00 3.475542545318603960e+00 -6.269984245300292969e-01 3.000000000000000000e+00
-2.114445209503173828e+00 1.178335666656493919e+00 -6.486005187034606934e-01 2.000000000000000000e+01
-2.426948308944702148e+00 1.353597521781920943e+00 -6.415604352951049805e-01 1.300000000000000000e+01
-2.851107597351074219e+00 1.590819001197814941e+00 -6.346307396888732910e-01 1.500000000000000000e+01
-3.504562377929687944e+00 1.957028627395630105e+00 -6.357496380805969238e-01 9.000000000000000000e+00
-4.482833385467529297e+00 2.505371093750000000e+00 -6.305519938468933105e-01 1.000000000000000000e+01
-6.187472343444824219e+00 3.459478855133057085e+00 -6.202002763748168945e-01 3.000000000000000000e+00
-1.004456996917724965e+01 5.620624065399169922e+00 -6.032242178916931152e-01 3.000000000000000000e+00
-2.103582382202147993e+00 1.181924104690551980e+00 -6.465299725532531738e-01 1.900000000000000000e+01
-2.423907279968262163e+00 1.363016009330749956e+00 -6.420103311538696289e-01 1.200000000000000000e+01
-2.845537185668944868e+00 1.600761532783508079e+00 -6.346307396888732910e-01 1.300000000000000000e+01
-3.490824460983275923e+00 1.965373396873473899e+00 -6.344981789588928223e-01 9.000000000000000000e+00
-4.477519512176513672e+00 2.522952795028686968e+00 -6.310394406318664551e-01 1.000000000000000000e+01
-6.196186542510986328e+00 3.492796421051024947e+00 -6.222919821739196777e-01 2.000000000000000000e+00
-1.000749397277832031e+01 5.645838260650634766e+00 -6.021775007247924805e-01 3.000000000000000000e+00
-2.101124763488769975e+00 1.190211892127990945e+00 -6.470476388931274414e-01 2.100000000000000000e+01
-2.412353515625000000e+00 1.367624402046204057e+00 -6.402106881141662598e-01 1.200000000000000000e+01
-2.845055341720581055e+00 1.613590240478516069e+00 -6.357755661010742188e-01 1.300000000000000000e+01
-3.468481540679932085e+00 1.968770623207092063e+00 -6.316823959350585938e-01 1.000000000000000000e+01
-4.475589752197265625e+00 2.542488813400268999e+00 -6.320143938064575195e-01 1.000000000000000000e+01
-6.161437988281250000e+00 3.501606464385985884e+00 -6.200259327888488770e-01 3.000000000000000000e+00
-9.942586898803710938e+00 5.655063152313232422e+00 -5.994560718536376953e-01 3.000000000000000000e+00
-2.097166299819945845e+00 1.197172880172729048e+00 -6.470476388931274414e-01 2.100000000000000000e+01
-2.399344682693481001e+00 1.370782971382140891e+00 -6.379612088203430176e-01 1.300000000000000000e+01
-2.837984323501586914e+00 1.622041702270508035e+00 -6.353939771652221680e-01 1.200000000000000000e+01
-3.461933612823485884e+00 1.980261683464050071e+00 -6.316823959350585938e-01 1.000000000000000000e+01
-4.446460723876953125e+00 2.545481681823730025e+00 -6.290895342826843262e-01 1.000000000000000000e+01
-6.137689590454101562e+00 3.515088081359862837e+00 -6.188057661056518555e-01 3.000000000000000000e+00
-9.923779487609863281e+00 5.688003063201904297e+00 -5.994560718536376953e-01 3.000000000000000000e+00
-2.094649076461791992e+00 1.205449700355530007e+00 -6.475652456283569336e-01 1.900000000000000000e+01
-2.399611234664916992e+00 1.382067799568176047e+00 -6.393108963966369629e-01 1.400000000000000000e+01
-2.832305192947388139e+00 1.631938219070435014e+00 -6.353939771652221680e-01 1.300000000000000000e+01
-3.463556528091431108e+00 1.997267961502074973e+00 -6.332467198371887207e-01 1.100000000000000000e+01
-4.427232265472412109e+00 2.555033683776855025e+00 -6.276271343231201172e-01 1.000000000000000000e+01
-6.132284164428710938e+00 3.540475845336914062e+00 -6.195030212402343750e-01 2.000000000000000000e+00
-9.855443000793457031e+00 5.694630146026611328e+00 -5.965252518653869629e-01 3.000000000000000000e+00
-2.086874961853026900e+00 1.211179494857788086e+00 -6.465299725532531738e-01 1.900000000000000000e+01
-2.404640197753905806e+00 1.396726250648498979e+00 -6.420103311538696289e-01 1.400000000000000000e+01
-2.819514751434326172e+00 1.638362646102905051e+00 -6.338675022125244141e-01 1.200000000000000000e+01
-3.449382305145264116e+00 2.005976915359497070e+00 -6.319952607154846191e-01 1.100000000000000000e+01
-4.412691116333007812e+00 2.568247556686400923e+00 -6.268959045410156250e-01 1.000000000000000000e+01
-6.119266510009765625e+00 3.562928199768065962e+00 -6.195030212402343750e-01 3.000000000000000000e+00
-9.813796997070312500e+00 5.718647003173828125e+00 -5.952691435813903809e-01 3.000000000000000000e+00
-2.069294929504394975e+00 1.210652232170104980e+00 -6.423888802528381348e-01 2.000000000000000000e+01
-2.403113365173339844e+00 1.407080769538878950e+00 -6.429101228713989258e-01 1.200000000000000000e+01
-2.813778638839722124e+00 1.648194670677185059e+00 -6.338675022125244141e-01 1.200000000000000000e+01
-3.445767402648925781e+00 2.020003318786621094e+00 -6.326209902763366699e-01 1.100000000000000000e+01
-3.607396316528320312e+01 2.115600585937500000e+01 5.134842872619628906e+00 2.700000000000000000e+01
-4.405411243438720703e+00 2.584639549255371094e+00 -6.271396279335021973e-01 1.000000000000000000e+01
-6.075863361358642578e+00 3.566113233566284180e+00 -6.163654327392578125e-01 3.000000000000000000e+00
-9.724889755249023438e+00 5.712405681610107422e+00 -5.910822749137878418e-01 3.000000000000000000e+00
-2.065268993377685991e+00 1.217507600784301980e+00 -6.423888802528381348e-01 1.800000000000000000e+01
-2.388363838195800781e+00 1.409100651741028054e+00 -6.402106881141662598e-01 1.400000000000000000e+01
-2.808297634124755859e+00 1.657516479492187944e+00 -6.338675022125244141e-01 1.200000000000000000e+01
-3.427144289016724077e+00 2.024386167526245117e+00 -6.304308772087097168e-01 1.100000000000000000e+01
-3.600360870361328125e+01 2.127551460266112926e+01 5.134842872619628906e+00 2.700000000000000000e+01
-4.400233745574951172e+00 2.601254701614379883e+00 -6.276271343231201172e-01 1.000000000000000000e+01
-6.053714275360107422e+00 3.580156803131103960e+00 -6.153195500373840332e-01 3.000000000000000000e+00
-9.723080635070800781e+00 5.754796028137207031e+00 -5.921289920806884766e-01 3.000000000000000000e+00
-2.069310188293457031e+00 1.229643702507019043e+00 -6.449770331382751465e-01 2.100000000000000000e+01
-2.375055789947510210e+00 1.412448644638061968e+00 -6.379612088203430176e-01 1.300000000000000000e+01
-2.809243679046630859e+00 1.671324253082274947e+00 -6.353939771652221680e-01 1.200000000000000000e+01
-3.420056819915771040e+00 2.036336660385131836e+00 -6.304308772087097168e-01 1.000000000000000000e+01
-4.380895137786865234e+00 2.610501527786254883e+00 -6.261646747589111328e-01 1.000000000000000000e+01
-6.034335136413574219e+00 3.597185611724853960e+00 -6.146222949028015137e-01 2.000000000000000000e+00
-9.675490379333496094e+00 5.772328376770020419e+00 -5.904542803764343262e-01 3.000000000000000000e+00
-2.076606512069702148e+00 1.243808150291443093e+00 -6.486005187034606934e-01 2.000000000000000000e+01
-2.376796960830688032e+00 1.424738168716431108e+00 -6.397607922554016113e-01 1.300000000000000000e+01
-2.800024986267089844e+00 1.679100871086121050e+00 -6.346307396888732910e-01 1.200000000000000000e+01
-3.406152963638306108e+00 2.044196605682373047e+00 -6.291794180870056152e-01 1.000000000000000000e+01
-3.385275268554688211e+01 2.032470512390137074e+01 4.848206043243408203e+00 2.000000000000000000e+01
-4.358142375946044922e+00 2.617600917816162109e+00 -6.242147684097290039e-01 1.000000000000000000e+01
-6.040527820587158203e+00 3.629515171051024947e+00 -6.165397167205810547e-01 3.000000000000000000e+00
-9.655282020568847656e+00 5.806066989898681641e+00 -5.904542803764343262e-01 3.000000000000000000e+00
-2.062329292297362837e+00 1.245058536529541016e+00 -6.454946994781494141e-01 2.000000000000000000e+01
-2.370141267776488814e+00 1.432018280029297097e+00 -6.393108963966369629e-01 1.400000000000000000e+01
-2.784065723419189009e+00 1.682771205902100053e+00 -6.323410272598266602e-01 1.200000000000000000e+01
-3.400686740875244141e+00 2.057096242904663086e+00 -6.294922828674316406e-01 1.100000000000000000e+01
-3.338079071044921875e+01 2.020020294189453125e+01 4.790683746337890625e+00 2.000000000000000000e+01
-4.357469558715820312e+00 2.637938022613524947e+00 -6.254334449768066406e-01 1.000000000000000000e+01
-6.015892028808593750e+00 3.643353700637816939e+00 -6.153195500373840332e-01 2.000000000000000000e+00
-9.583715438842773438e+00 5.808677673339843750e+00 -5.873141288757324219e-01 3.000000000000000000e+00
-2.044767856597899947e+00 1.244216203689574973e+00 -6.413536071777343750e-01 2.000000000000000000e+01
-2.365128040313721147e+00 1.440282940864562988e+00 -6.393108963966369629e-01 1.400000000000000000e+01
-2.781527996063231978e+00 1.694522023200988992e+00 -6.331042647361755371e-01 1.200000000000000000e+01
-3.386739015579224077e+00 2.064841032028197798e+00 -6.282408237457275391e-01 1.100000000000000000e+01
-3.333380126953125000e+01 2.033107185363769887e+01 4.794095993041992188e+00 2.000000000000000000e+01
-4.351624011993408203e+00 2.655200242996215820e+00 -6.259209513664245605e-01 1.000000000000000000e+01
-6.013341426849365234e+00 3.670559167861938032e+00 -6.163654327392578125e-01 3.000000000000000000e+00
-9.529293060302734375e+00 5.821272373199462891e+00 -5.852206349372863770e-01 3.000000000000000000e+00
-2.048646450042725053e+00 1.256395936012268066e+00 -6.439417600631713867e-01 2.100000000000000000e+01
-2.360086202621459961e+00 1.448529958724976030e+00 -6.393108963966369629e-01 1.300000000000000000e+01
-2.777269124984741211e+00 1.705248236656188965e+00 -6.334858536720275879e-01 1.200000000000000000e+01
-3.367729425430297852e+00 2.069411039352416992e+00 -6.260507106781005859e-01 1.000000000000000000e+01
-4.332183361053466797e+00 2.664134740829468218e+00 -6.244584918022155762e-01 1.000000000000000000e+01
-5.966552734375000000e+00 3.670647621154785156e+00 -6.128791570663452148e-01 3.000000000000000000e+00
-9.451089859008789062e+00 5.818897724151611328e+00 -5.816618204116821289e-01 3.000000000000000000e+00
-2.044248342514038086e+00 1.263539433479309082e+00 -6.439417600631713867e-01 2.100000000000000000e+01
-2.346729040145874023e+00 1.451633572578429954e+00 -6.370613574981689453e-01 1.200000000000000000e+01
-2.782985925674438032e+00 1.722164034843445046e+00 -6.361572146415710449e-01 1.200000000000000000e+01
-3.365523576736450195e+00 2.084274291992187944e+00 -6.269893646240234375e-01 9.000000000000000000e+00
-3.401116943359375000e+01 2.107138633728026988e+01 4.912553310394287109e+00 2.200000000000000000e+01
-4.316108226776123047e+00 2.675057649612427202e+00 -6.234835386276245117e-01 1.000000000000000000e+01
-5.953703403472900391e+00 3.691452503204346147e+00 -6.128791570663452148e-01 3.000000000000000000e+00
-9.464661598205566406e+00 5.872913837432861328e+00 -5.837552547454833984e-01 3.000000000000000000e+00
-2.046384096145629883e+00 1.274753212928771973e+00 -6.460123658180236816e-01 2.100000000000000000e+01
-2.344954967498778853e+00 1.461878180503844993e+00 -6.379612088203430176e-01 1.200000000000000000e+01
-3.382780075073242188e+01 2.109693145751953125e+01 2.089355945587158203e+00 2.300000000000000000e+01
-2.773625850677489790e+00 1.729790091514586958e+00 -6.353939771652221680e-01 1.300000000000000000e+01
-3.361579179763793945e+00 2.098101139068603960e+00 -6.276150941848754883e-01 1.100000000000000000e+01
-4.293275356292724609e+00 2.681694269180297852e+00 -6.215336322784423828e-01 1.000000000000000000e+01
-5.959367275238037109e+00 3.723826169967650923e+00 -6.147966384887695312e-01 3.000000000000000000e+00
-9.423783302307128906e+00 5.893208503723145419e+00 -5.824992060661315918e-01 3.000000000000000000e+00
-2.030691385269165039e+00 1.274344205856323020e+00 -6.423888802528381348e-01 2.000000000000000000e+01
-2.346695423126221147e+00 1.473792076110840066e+00 -6.397607922554016113e-01 1.300000000000000000e+01
-3.358853912353516336e+01 2.110274124145508168e+01 2.078888893127440962e+00 2.200000000000000000e+01
-2.752912998199462891e+00 1.729578375816344993e+00 -6.319593787193298340e-01 1.300000000000000000e+01
-3.356275320053101030e+00 2.110288619995117188e+00 -6.279279589653015137e-01 1.000000000000000000e+01
-4.267557144165039062e+00 2.685344219207764116e+00 -6.190962791442871094e-01 1.000000000000000000e+01
-3.443815994262695312e+01 2.167008018493651988e+01 6.444474220275878906e+00 1.400000000000000000e+01
-5.925066471099854404e+00 3.729769229888916016e+00 -6.125305891036987305e-01 3.000000000000000000e+00
-9.380530357360839844e+00 5.909522056579589844e+00 -5.810337662696838379e-01 3.000000000000000000e+00
-2.019699811935424805e+00 1.277294635772705078e+00 -6.403183341026306152e-01 2.000000000000000000e+01
-2.330009937286376953e+00 1.474679350852966087e+00 -6.366114616394042969e-01 1.100000000000000000e+01
-2.748517513275146040e+00 1.740227580070496050e+00 -6.323410272598266602e-01 1.200000000000000000e+01
-3.343882799148560014e+00 2.118819475173950195e+00 -6.269893646240234375e-01 1.100000000000000000e+01
-4.274922370910645419e+00 2.710855245590209961e+00 -6.215336322784423828e-01 1.000000000000000000e+01
-3.457201385498046875e+01 2.193160247802734020e+01 6.484521389007568359e+00 1.400000000000000000e+01
-5.935564517974854404e+00 3.765370845794678178e+00 -6.149709224700927734e-01 3.000000000000000000e+00
-9.353100776672363281e+00 5.937948226928710938e+00 -5.806151032447814941e-01 3.000000000000000000e+00
-3.287554550170897727e+01 2.087955856323241832e+01 8.991293907165527344e+00 1.200000000000000000e+01
-2.015004634857178178e+00 1.284688591957092063e+00 -6.403183341026306152e-01 2.000000000000000000e+01
-2.332803487777709961e+00 1.488450288772583008e+00 -6.388610005378723145e-01 1.200000000000000000e+01
-2.747085571289062944e+00 1.753458619117737038e+00 -6.334858536720275879e-01 1.300000000000000000e+01
-3.317782640457152876e+00 2.119363784790039062e+00 -6.235477924346923828e-01 1.000000000000000000e+01
-4.258267402648925781e+00 2.722228527069091797e+00 -6.205586791038513184e-01 1.000000000000000000e+01
-3.438872909545897727e+01 2.198405265808105113e+01 6.464498043060302734e+00 1.400000000000000000e+01
-5.888154029846191406e+00 3.765631675720214844e+00 -6.114847064018249512e-01 2.000000000000000000e+00
-9.297629356384277344e+00 5.950656414031982422e+00 -5.785216689109802246e-01 3.000000000000000000e+00
-3.272986984252929688e+01 2.095578002929687855e+01 8.972397804260253906e+00 1.200000000000000000e+01
-2.020259857177733931e+00 1.297979831695557085e+00 -6.434241533279418945e-01 1.800000000000000000e+01
-2.319397926330565962e+00 1.491314649581908958e+00 -6.366114616394042969e-01 1.300000000000000000e+01
-3.369792175292968750e+01 2.167523193359375000e+01 2.099823236465454102e+00 2.300000000000000000e+01
-2.747552633285522017e+00 1.767285346984863059e+00 -6.350123286247253418e-01 1.300000000000000000e+01
-3.308703422546387163e+00 2.129862785339355025e+00 -6.232349276542663574e-01 1.000000000000000000e+01
-4.245401859283447266e+00 2.734925985336304155e+00 -6.200712323188781738e-01 1.000000000000000000e+01
-3.422874832153320312e+01 2.205046844482421875e+01 6.448854446411132812e+00 1.400000000000000000e+01
-5.871624469757080078e+00 3.784003734588623047e+00 -6.111360788345336914e-01 2.000000000000000000e+00
-9.276801109313964844e+00 5.983074665069580078e+00 -5.785216689109802246e-01 3.000000000000000000e+00
-3.270891952514647727e+01 2.110370826721191051e+01 8.986794471740722656e+00 1.200000000000000000e+01
-2.022203445434569868e+00 1.309223532676696999e+00 -6.454946994781494141e-01 1.800000000000000000e+01
-2.309271812438964844e+00 1.496222853660583052e+00 -6.352617740631103516e-01 1.200000000000000000e+01
-2.731482267379761186e+00 1.770458340644835982e+00 -6.327226161956787109e-01 1.200000000000000000e+01
-3.304563283920288086e+00 2.143549442291260210e+00 -6.238606572151184082e-01 9.000000000000000000e+00
-4.229168891906738281e+00 2.745405197143555132e+00 -6.190962791442871094e-01 1.000000000000000000e+01
-5.881773471832275391e+00 3.819668292999268022e+00 -6.135764122009277344e-01 2.000000000000000000e+00
-3.299259185791016336e+01 2.143382835388183949e+01 7.647624492645263672e+00 6.300000000000000000e+01
-9.255860328674316406e+00 6.015420436859130859e+00 -5.785216689109802246e-01 3.000000000000000000e+00
-3.271020889282227273e+01 2.126661682128905895e+01 9.007490158081054688e+00 1.200000000000000000e+01
-2.011149168014525923e+00 1.312052130699157937e+00 -6.434241533279418945e-01 1.700000000000000000e+01
-2.307298421859741211e+00 1.506405234336853027e+00 -6.361615657806396484e-01 1.400000000000000000e+01
-3.298392486572266336e+01 2.154298973083496094e+01 2.064653396606444868e+00 2.200000000000000000e+01
-2.723641872406005859e+00 1.778908610343933105e+00 -6.323410272598266602e-01 1.300000000000000000e+01
-3.303674697875977007e+00 2.159394502639770952e+00 -6.251121163368225098e-01 9.000000000000000000e+00
-3.475220870971679688e+01 2.272388648986816051e+01 5.098282337188720703e+00 2.600000000000000000e+01
-4.216237545013427734e+00 2.757977724075316939e+00 -6.186087727546691895e-01 1.000000000000000000e+01
-5.851732730865479404e+00 3.829266548156737837e+00 -6.118333339691162109e-01 2.000000000000000000e+00
-9.234806060791015625e+00 6.047692775726318359e+00 -5.785216689109802246e-01 3.000000000000000000e+00
-3.265859985351563211e+01 2.139561843872069957e+01 9.013789176940917969e+00 1.200000000000000000e+01
-1.993871331214905007e+00 1.310226798057555930e+00 -6.392830610275268555e-01 1.700000000000000000e+01
-2.308803081512451172e+00 1.518331289291382058e+00 -6.379612088203430176e-01 1.400000000000000000e+01
-2.714447498321533203e+00 1.785772681236267090e+00 -6.315777897834777832e-01 1.300000000000000000e+01
-3.288246154785155806e+00 2.164906740188599077e+00 -6.235477924346923828e-01 1.000000000000000000e+01
-4.203753471374511719e+00 2.769759654998778853e+00 -6.181213259696960449e-01 1.000000000000000000e+01
-5.802404403686523438e+00 3.824527978897095171e+00 -6.079984903335571289e-01 2.000000000000000000e+00
-9.214700698852539062e+00 6.078283309936523438e+00 -5.785216689109802246e-01 3.000000000000000000e+00
-3.236300659179688211e+01 2.135568428039551137e+01 8.951702117919921875e+00 1.200000000000000000e+01
-1.997339367866515891e+00 1.322511434555053933e+00 -6.418712139129638672e-01 1.900000000000000000e+01
-2.301864624023437944e+00 1.525304794311522993e+00 -6.375113129615783691e-01 1.500000000000000000e+01
-2.706561088562012163e+00 1.794152259826659934e+00 -6.311961412429809570e-01 1.200000000000000000e+01
-3.272438764572143999e+00 2.170911550521851030e+00 -6.219834089279174805e-01 9.000000000000000000e+00
-4.203982353210449219e+00 2.791004419326781782e+00 -6.195837259292602539e-01 1.000000000000000000e+01
-5.792338371276854581e+00 3.846963405609130859e+00 -6.083470582962036133e-01 2.000000000000000000e+00
-9.193427085876464844e+00 6.110411643981933594e+00 -5.785216689109802246e-01 3.000000000000000000e+00
-3.232720947265625000e+01 2.149441719055176137e+01 8.962499618530273438e+00 1.200000000000000000e+01
-1.994317889213562012e+00 1.330547571182250977e+00 -6.423888802528381348e-01 1.900000000000000000e+01
-2.281939983367919922e+00 1.523591637611388938e+00 -6.334621906280517578e-01 1.400000000000000000e+01
-2.705179691314696822e+00 1.806860327720642090e+00 -6.323410272598266602e-01 1.200000000000000000e+01
-3.271409988403319868e+00 2.186712265014647993e+00 -6.232349276542663574e-01 9.000000000000000000e+00
-4.179364681243895596e+00 2.795728445053101030e+00 -6.173900961875915527e-01 1.000000000000000000e+01
-5.785498142242431641e+00 3.871591329574584961e+00 -6.090443134307861328e-01 3.000000000000000000e+00
-9.172041893005371094e+00 6.142465114593505859e+00 -5.785216689109802246e-01 3.000000000000000000e+00
-3.355041885375977273e+01 2.247701072692871094e+01 9.323321342468261719e+00 1.200000000000000000e+01
-1.992867708206176980e+00 1.339656472206115945e+00 -6.434241533279418945e-01 1.900000000000000000e+01
-2.281458377838135210e+00 1.534811019897460938e+00 -6.348118782043457031e-01 1.500000000000000000e+01
-2.695598363876343218e+00 1.814099907875061035e+00 -6.315777897834777832e-01 1.200000000000000000e+01
-3.258841753005981001e+00 2.194808006286621094e+00 -6.222962737083435059e-01 9.000000000000000000e+00
-4.161349773406982422e+00 2.804752826690673828e+00 -6.161714196205139160e-01 1.000000000000000000e+01
-5.755428791046142578e+00 3.880624532699584961e+00 -6.073012351989746094e-01 3.000000000000000000e+00
-9.090942382812500000e+00 6.134227275848388672e+00 -5.747534632682800293e-01 3.000000000000000000e+00
-1.978582382202147993e+00 1.340104579925537109e+00 -6.403183341026306152e-01 1.800000000000000000e+01
-2.279313325881958008e+00 1.544952273368835005e+00 -6.357116699218750000e-01 1.600000000000000000e+01
-2.684374809265137163e+00 1.820192813873291016e+00 -6.304329037666320801e-01 1.300000000000000000e+01
-3.257698774337768999e+00 2.210606813430786133e+00 -6.235477924346923828e-01 9.000000000000000000e+00
-3.326383590698242188e+01 2.258062744140625000e+01 4.936439514160156250e+00 2.200000000000000000e+01
-4.149891853332520419e+00 2.818146228790283203e+00 -6.159276366233825684e-01 1.000000000000000000e+01
-3.311116027832031250e+01 2.249387550354003906e+01 6.339975833892822266e+00 1.400000000000000000e+01
-5.761624813079833984e+00 3.914126157760620117e+00 -6.093929409980773926e-01 3.000000000000000000e+00
-9.026531219482421875e+00 6.136727333068847656e+00 -5.720319747924804688e-01 3.000000000000000000e+00
-1.967509627342223899e+00 1.342647314071655051e+00 -6.382477879524230957e-01 2.000000000000000000e+01
-2.275515794754027876e+00 1.553998112678528054e+00 -6.361615657806396484e-01 1.300000000000000000e+01
-2.684489011764525923e+00 1.833981871604918990e+00 -6.319593787193298340e-01 1.300000000000000000e+01
-3.236917018890380859e+00 2.213045597076416016e+00 -6.210448145866394043e-01 9.000000000000000000e+00
-3.312910461425781250e+01 2.265850067138671875e+01 4.928152561187744141e+00 2.200000000000000000e+01
-4.136752605438232422e+00 2.830373048782349077e+00 -6.154401898384094238e-01 9.000000000000000000e+00
-3.297702026367188211e+01 2.257138252258301137e+01 6.329338550567626953e+00 1.400000000000000000e+01
-5.716688156127929688e+00 3.912832736968994141e+00 -6.060810089111328125e-01 3.000000000000000000e+00
-9.024827957153320312e+00 6.181742668151854581e+00 -5.732880830764770508e-01 3.000000000000000000e+00
-3.234545898437500000e+01 2.216398811340332031e+01 9.052480697631835938e+00 1.200000000000000000e+01
-1.969178438186645952e+00 1.353884935379028098e+00 -6.403183341026306152e-01 2.000000000000000000e+01
-2.270077466964722124e+00 1.561931729316710982e+00 -6.361615657806396484e-01 1.400000000000000000e+01
-2.676453828811645952e+00 1.842228174209594949e+00 -6.315777897834777832e-01 1.300000000000000000e+01
-3.299548339843750000e+01 2.271958732604980113e+01 3.504881143569945845e+00 5.400000000000000000e+01
-3.227545499801636186e+00 2.223210573196411133e+00 -6.207319498062133789e-01 1.000000000000000000e+01
-3.299750137329102273e+01 2.273796081542969105e+01 4.920352935791015625e+00 2.200000000000000000e+01
-4.128481864929199219e+00 2.845922470092772993e+00 -6.156839132308959961e-01 1.000000000000000000e+01
-3.295728683471679688e+01 2.271873283386230113e+01 6.339975833892822266e+00 1.400000000000000000e+01
-5.689873218536376953e+00 3.923715114593505859e+00 -6.046865582466125488e-01 3.000000000000000000e+00
-3.335154724121093750e+01 2.300769042968750000e+01 7.875832080841063565e+00 6.300000000000000000e+01
-8.963743209838867188e+00 6.185981273651123047e+00 -5.707759261131286621e-01 3.000000000000000000e+00
-3.241222763061522727e+01 2.237640190124512074e+01 9.092971801757812500e+00 1.200000000000000000e+01
-1.969204783439636008e+00 1.364050507545470969e+00 -6.418712139129638672e-01 2.200000000000000000e+01
-2.255002021789550781e+00 1.563184976577759011e+00 -6.334621906280517578e-01 1.400000000000000000e+01
-2.681299924850463867e+00 1.859390854835510032e+00 -6.342490911483764648e-01 1.200000000000000000e+01
-3.214896917343140093e+00 2.231084585189818892e+00 -6.197933554649353027e-01 9.000000000000000000e+00
-3.297011184692382812e+01 2.288923072814941051e+01 4.928152561187744141e+00 2.200000000000000000e+01
-4.110370159149169922e+00 2.854654550552368164e+00 -6.144652366638183594e-01 9.000000000000000000e+00
-3.357786178588867188e+01 2.332853317260741832e+01 6.475760936737061435e+00 1.400000000000000000e+01
-5.684323310852050781e+00 3.949236631393433061e+00 -6.055580973625183105e-01 3.000000000000000000e+00
-3.327103042602539062e+01 2.312396812438964844e+01 7.875832080841063565e+00 6.300000000000000000e+01
-8.958493232727050781e+00 6.228634357452392578e+00 -5.718226432800292969e-01 3.000000000000000000e+00
-3.216434097290039062e+01 2.237145614624023082e+01 9.045282363891601562e+00 1.200000000000000000e+01
-1.966015577316283958e+00 1.372021675109863059e+00 -6.423888802528381348e-01 1.900000000000000000e+01
-2.247934103012084961e+00 1.569931030273437944e+00 -6.330122947692871094e-01 1.500000000000000000e+01
-2.657089948654174805e+00 1.856370687484740989e+00 -6.300513148307800293e-01 1.300000000000000000e+01
-3.207089424133300781e+00 2.242293119430541992e+00 -6.197933554649353027e-01 9.000000000000000000e+00
-3.289001083374022727e+01 2.300417900085448863e+01 4.928152561187744141e+00 2.200000000000000000e+01
-4.100380897521972656e+00 2.868984937667847124e+00 -6.144652366638183594e-01 9.000000000000000000e+00
-3.366217041015625000e+01 2.355299949645996094e+01 6.507048130035400391e+00 1.400000000000000000e+01
-5.670503616333007812e+00 3.969054460525513139e+00 -6.055580973625183105e-01 2.000000000000000000e+00
-8.877805709838867188e+00 6.218616008758544922e+00 -5.680544972419738770e-01 2.000000000000000000e+00
-3.216904449462891336e+01 2.254174613952637074e+01 9.068676948547363281e+00 1.200000000000000000e+01
-1.951732277870178001e+00 1.372209310531615989e+00 -6.392830610275268555e-01 2.000000000000000000e+01
-2.250409364700316939e+00 1.583375096321105957e+00 -6.352617740631103516e-01 1.400000000000000000e+01
-2.639355659484862837e+00 1.857724428176880105e+00 -6.273799538612365723e-01 1.100000000000000000e+01
-3.202472686767578125e+00 2.255749225616455078e+00 -6.204190850257873535e-01 9.000000000000000000e+00
-4.096831321716308594e+00 2.887855291366577148e+00 -6.154401898384094238e-01 9.000000000000000000e+00
-3.303725814819335938e+01 2.328795433044433949e+01 6.401924133300781250e+00 1.400000000000000000e+01
-5.650101184844970703e+00 3.984231233596802202e+00 -6.048608422279357910e-01 2.000000000000000000e+00
-8.856044769287109375e+00 6.249567508697509766e+00 -5.680544972419738770e-01 2.000000000000000000e+00
-3.308676147460938211e+01 2.335744285583496094e+01 9.350315093994140625e+00 1.200000000000000000e+01
-1.945353984832763894e+00 1.377897143363953081e+00 -6.387653946876525879e-01 1.900000000000000000e+01
-2.251227855682373047e+00 1.595728516578674094e+00 -6.370613574981689453e-01 1.300000000000000000e+01
-2.634456396102904829e+00 1.868061780929564986e+00 -6.277616024017333984e-01 9.000000000000000000e+00
-3.191357135772705078e+00 2.264627933502196822e+00 -6.197933554649353027e-01 9.000000000000000000e+00
-4.086725711822509766e+00 2.902138233184814009e+00 -6.154401898384094238e-01 9.000000000000000000e+00
-3.285268783569335938e+01 2.332993507385253906e+01 6.381900310516357422e+00 1.400000000000000000e+01
-5.623165130615234375e+00 3.994698524475098100e+00 -6.034663915634155273e-01 2.000000000000000000e+00
-8.769062995910644531e+00 6.234152793884277344e+00 -5.638675689697265625e-01 2.000000000000000000e+00
-3.300502777099608664e+01 2.347279548645019887e+01 9.350315093994140625e+00 1.200000000000000000e+01
-1.935814738273621050e+00 1.381313085556030051e+00 -6.372125148773193359e-01 2.000000000000000000e+01
-3.407008361816406250e+01 2.431990051269530895e+01 7.306624650955200195e-01 4.000000000000000000e+01
-2.239300489425659180e+00 1.599047183990478960e+00 -6.352617740631103516e-01 1.400000000000000000e+01
-2.627919673919678178e+00 1.877246260643004927e+00 -6.277616024017333984e-01 9.000000000000000000e+00
-3.175397872924805132e+00 2.270009994506835938e+00 -6.182290315628051758e-01 1.000000000000000000e+01
-3.312849044799804688e+01 2.369144248962401988e+01 5.000786781311035156e+00 2.400000000000000000e+01
-4.076570510864257812e+00 2.916385889053345171e+00 -6.154401898384094238e-01 9.000000000000000000e+00
-3.287387084960938211e+01 2.351802825927734020e+01 6.401924133300781250e+00 1.400000000000000000e+01
-5.592984676361083984e+00 4.002707481384277344e+00 -6.017232537269592285e-01 3.000000000000000000e+00
-8.747248649597167969e+00 6.264724254608154297e+00 -5.638675689697265625e-01 2.000000000000000000e+00
-3.282150650024414062e+01 2.351522445678710938e+01 9.321521759033203125e+00 1.200000000000000000e+01
-1.932549834251404031e+00 1.389189481735229048e+00 -6.377301216125488281e-01 1.600000000000000000e+01
-2.225795269012451172e+00 1.601164102554321067e+00 -6.330122947692871094e-01 1.300000000000000000e+01
-2.635692596435546875e+00 1.896728754043579102e+00 -6.311961412429809570e-01 8.000000000000000000e+00
-3.165851593017578125e+00 2.279926061630249023e+00 -6.179161071777343750e-01 9.000000000000000000e+00
-3.304558944702147727e+01 2.380693817138671875e+01 5.000786781311035156e+00 2.400000000000000000e+01
-4.069586277008056641e+00 2.932919263839722124e+00 -6.159276366233825684e-01 9.000000000000000000e+00
-5.569281578063964844e+00 4.015214920043945312e+00 -6.006773710250854492e-01 2.000000000000000000e+00
-8.709130287170410156e+00 6.283534049987792969e+00 -5.628208518028259277e-01 2.000000000000000000e+00
-3.268233871459960938e+01 2.358859252929687855e+01 9.305325508117675781e+00 1.200000000000000000e+01
-1.935512304306030051e+00 1.401592135429382102e+00 -6.403183341026306152e-01 1.900000000000000000e+01
-2.215458869934082031e+00 1.605493307113647017e+00 -6.316625475883483887e-01 1.400000000000000000e+01
-2.629055738449097124e+00 1.905917525291443093e+00 -6.311961412429809570e-01 8.000000000000000000e+00
-3.165868520736693892e+00 2.296762943267821822e+00 -6.194804906845092773e-01 8.000000000000000000e+00
-4.036834239959716797e+00 2.930779457092285156e+00 -6.125153303146362305e-01 9.000000000000000000e+00
-3.302440261840820312e+01 2.398482894897460938e+01 6.464498043060302734e+00 1.400000000000000000e+01
-5.590697765350341797e+00 4.060389041900634766e+00 -6.045122146606445312e-01 2.000000000000000000e+00
-8.654830932617187500e+00 6.290411472320556641e+00 -5.607274174690246582e-01 2.000000000000000000e+00
-1.932414770126342995e+00 1.409141063690185991e+00 -6.408359408378601074e-01 1.700000000000000000e+01
-2.213270902633666992e+00 1.615128636360168013e+00 -6.325623393058776855e-01 1.400000000000000000e+01
-2.616378307342528853e+00 1.909995079040526900e+00 -6.296696662902832031e-01 9.000000000000000000e+00
-3.163020133972167969e+00 2.310744524002075195e+00 -6.204190850257873535e-01 9.000000000000000000e+00
-3.295008850097656250e+01 2.408051300048828125e+01 5.011023521423339844e+00 2.400000000000000000e+01
-4.023888587951660156e+00 2.941806793212891069e+00 -6.120278239250183105e-01 1.000000000000000000e+01
-3.302862167358397727e+01 2.414675140380859020e+01 6.480141162872313565e+00 1.400000000000000000e+01
-5.538605690002441406e+00 4.050678253173828125e+00 -6.003287434577941895e-01 3.000000000000000000e+00
-8.617807388305664062e+00 6.307281017303466797e+00 -5.596807003021240234e-01 2.000000000000000000e+00
-1.913471698760986106e+00 1.405584692955017090e+00 -6.361772418022155762e-01 1.600000000000000000e+01
-2.217040538787841797e+00 1.629769921302794966e+00 -6.352617740631103516e-01 1.400000000000000000e+01
-2.614439964294434038e+00 1.922605514526366965e+00 -6.308145523071289062e-01 1.000000000000000000e+01
-3.153343677520751953e+00 2.320600748062133789e+00 -6.201062202453613281e-01 8.000000000000000000e+00
-3.295855331420897727e+01 2.426364326477051137e+01 5.025160312652587891e+00 2.500000000000000000e+01
-4.023185729980468750e+00 2.962897777557373047e+00 -6.134902834892272949e-01 9.000000000000000000e+00
-5.501975536346436435e+00 4.053442478179931641e+00 -5.978884100914001465e-01 2.000000000000000000e+00
-8.602168083190917969e+00 6.342065334320068359e+00 -5.600994229316711426e-01 2.000000000000000000e+00
-1.908553719520569070e+00 1.412255406379699929e+00 -6.361772418022155762e-01 1.600000000000000000e+01
-2.205073595046997070e+00 1.632860064506530984e+00 -6.334621906280517578e-01 1.400000000000000000e+01
-2.602980375289916992e+00 1.928214073181151900e+00 -6.296696662902832031e-01 1.000000000000000000e+01
-3.135702848434447798e+00 2.324535369873046875e+00 -6.182290315628051758e-01 9.000000000000000000e+00
-3.319255447387695312e+01 2.461503028869628906e+01 5.073908329010009766e+00 2.600000000000000000e+01
-4.012818813323974609e+00 2.976923465728760210e+00 -6.134902834892272949e-01 9.000000000000000000e+00
-5.487792968750000000e+00 4.072623252868652344e+00 -5.978884100914001465e-01 2.000000000000000000e+00
-8.554323196411132812e+00 6.353001117706298828e+00 -5.584246516227722168e-01 2.000000000000000000e+00
-3.239467239379882812e+01 2.406717872619628906e+01 9.317022323608398438e+00 1.200000000000000000e+01
-1.905161261558532937e+00 1.420063495635986106e+00 -6.366948485374450684e-01 1.800000000000000000e+01
-2.189988136291503906e+00 1.633556365966797097e+00 -6.307627558708190918e-01 1.400000000000000000e+01
-2.600954055786132812e+00 1.940810799598694070e+00 -6.308145523071289062e-01 1.100000000000000000e+01
-3.124403953552246094e+00 2.333103179931641069e+00 -6.176032423973083496e-01 8.000000000000000000e+00
-3.992861747741699219e+00 2.983782768249512163e+00 -6.120278239250183105e-01 9.000000000000000000e+00
-5.473543167114257812e+00 4.091754436492919922e+00 -5.978884100914001465e-01 5.000000000000000000e+00
-8.544888496398925781e+00 6.392393589019775391e+00 -5.592620372772216797e-01 2.000000000000000000e+00
-1.915641427040100098e+00 1.438304305076598899e+00 -6.418712139129638672e-01 1.900000000000000000e+01
-2.187388658523560014e+00 1.643532037734984907e+00 -6.316625475883483887e-01 1.400000000000000000e+01
-2.598871707916260210e+00 1.953416824340820090e+00 -6.319593787193298340e-01 1.400000000000000000e+01
-3.119398117065430132e+00 2.346369981765747070e+00 -6.182290315628051758e-01 8.000000000000000000e+00
-3.222680282592772727e+01 2.424938201904296875e+01 4.952038764953613281e+00 2.300000000000000000e+01
-3.982422113418579102e+00 2.997702360153197798e+00 -6.120278239250183105e-01 9.000000000000000000e+00
-5.444902420043945312e+00 4.100049018859863281e+00 -5.963196158409118652e-01 4.000000000000000000e+00
-8.522522926330566406e+00 6.422182083129882812e+00 -5.592620372772216797e-01 2.000000000000000000e+00
-3.199866676330566051e+01 2.412148284912109020e+01 9.251337051391601562e+00 1.200000000000000000e+01
-1.907527565956115945e+00 1.442651748657227007e+00 -6.408359408378601074e-01 2.000000000000000000e+01
-2.181638240814208984e+00 1.651157498359679954e+00 -6.316625475883483887e-01 1.300000000000000000e+01
-2.582645654678345171e+00 1.955366253852844016e+00 -6.296696662902832031e-01 1.200000000000000000e+01
-3.109614372253417969e+00 2.356051445007324219e+00 -6.179161071777343750e-01 8.000000000000000000e+00
-3.220840454101563211e+01 2.441208839416503906e+01 4.962275981903076172e+00 2.300000000000000000e+01
-3.968770265579224077e+00 3.009186744689940962e+00 -6.115403771400451660e-01 9.000000000000000000e+00
-5.451193809509277344e+00 4.134683132171630859e+00 -5.985856652259826660e-01 5.000000000000000000e+00
-8.353693008422851562e+00 6.340797901153563565e+00 -5.496321916580200195e-01 5.000000000000000000e+00
-1.889151573181151900e+00 1.438105940818787065e+00 -6.361772418022155762e-01 2.100000000000000000e+01
-2.187291383743286133e+00 1.666269540786742942e+00 -6.348118782043457031e-01 1.200000000000000000e+01
-2.573367118835449219e+00 1.961090207099914995e+00 -6.289064288139343262e-01 1.300000000000000000e+01
-3.108480215072631836e+00 2.370600461959838867e+00 -6.191676259040832520e-01 8.000000000000000000e+00
-3.214418029785156250e+01 2.452278518676758168e+01 4.964225769042968750e+00 2.300000000000000000e+01
-3.962453126907349077e+00 3.024048805236815962e+00 -6.120278239250183105e-01 9.000000000000000000e+00
-5.425508499145507812e+00 4.142116069793701172e+00 -5.971911549568176270e-01 4.000000000000000000e+00
-8.265487670898437500e+00 6.314871788024902344e+00 -5.451313257217407227e-01 1.500000000000000000e+01
-1.885653257369994895e+00 1.445867061614990012e+00 -6.366948485374450684e-01 1.900000000000000000e+01
-2.176823616027832031e+00 1.670335531234740989e+00 -6.334621906280517578e-01 1.300000000000000000e+01
-2.566505908966064009e+00 1.970060944557189941e+00 -6.289064288139343262e-01 1.300000000000000000e+01
-3.075121641159058061e+00 2.362183094024658203e+00 -6.141617298126220703e-01 9.000000000000000000e+00
-3.948725461959838867e+00 3.035442113876343218e+00 -6.115403771400451660e-01 9.000000000000000000e+00
-5.411016941070556641e+00 4.161029338836669922e+00 -5.971911549568176270e-01 5.000000000000000000e+00
-8.352609634399414062e+00 6.427731990814208984e+00 -5.523536801338195801e-01 2.000000000000000000e+00
-1.883652567863463911e+00 1.454802155494689941e+00 -6.377301216125488281e-01 1.900000000000000000e+01
-2.158644676208496094e+00 1.668390154838562012e+00 -6.298629641532897949e-01 1.400000000000000000e+01
-2.559613466262816939e+00 1.979007720947266069e+00 -6.289064288139343262e-01 1.200000000000000000e+01
-3.082480669021606001e+00 2.384990930557250977e+00 -6.172903776168823242e-01 8.000000000000000000e+00
-3.938105821609497070e+00 3.049207210540771040e+00 -6.115403771400451660e-01 9.000000000000000000e+00
-5.380707740783691406e+00 4.167691230773925781e+00 -5.954480171203613281e-01 4.000000000000000000e+00
-8.330121994018554688e+00 6.456848621368408203e+00 -5.523536801338195801e-01 2.000000000000000000e+00
