2.646248817443848012e+01 -2.824876976013183949e+01 4.752660751342773438e+00 2.000000000000000000e+01
3.983762502670288086e+00 -4.254164218902587891e+00 -7.156167626380920410e-01 1.300000000000000000e+01
5.039286613464354581e+00 -5.383215427398681641e+00 -6.451268196105957031e-01 9.000000000000000000e+00
1.775684118270874023e+00 -1.904854416847229004e+00 -6.977761387825012207e-01 1.800000000000000000e+01
2.052209854125977007e+00 -2.203037023544311968e+00 -6.950987577438354492e-01 1.900000000000000000e+01
2.635103797912598012e+01 -2.829760932922362926e+01 2.026448249816894975e+00 2.200000000000000000e+01
2.440390825271606001e+00 -2.620664358139038086e+00 -6.960712075233459473e-01 1.200000000000000000e+01
3.015691280364989790e+00 -3.240730285644530806e+00 -7.011392712593078613e-01 1.000000000000000000e+01
3.964833021163939986e+00 -4.263682842254638672e+00 -7.148855924606323242e-01 1.500000000000000000e+01
4.990621566772460938e+00 -5.368669033050537109e+00 -6.412919759750366211e-01 7.000000000000000000e+00
1.766399383544922097e+00 -1.908205747604369895e+00 -6.967408657073974609e-01 1.800000000000000000e+01
2.048477172851562944e+00 -2.214478969573975053e+00 -6.964484453201293945e-01 1.600000000000000000e+01
2.625209999084473012e+01 -2.838941955566405895e+01 2.026448249816894975e+00 2.200000000000000000e+01
2.431228160858153853e+00 -2.629167079925537109e+00 -6.960712075233459473e-01 1.300000000000000000e+01
3.007041931152344194e+00 -3.254138946533203125e+00 -7.017650008201599121e-01 1.000000000000000000e+01
3.948579311370850053e+00 -4.276038646697998047e+00 -7.146418094635009766e-01 1.500000000000000000e+01
4.969148159027099609e+00 -5.383128643035888672e+00 -6.409433484077453613e-01 1.000000000000000000e+01
1.757112979888916016e+00 -1.911515474319458008e+00 -6.957055926322937012e-01 1.700000000000000000e+01
2.042052984237670898e+00 -2.223051071166992188e+00 -6.968983411788940430e-01 1.500000000000000000e+01
2.426019430160522017e+00 -2.641975641250609907e+00 -6.972160935401916504e-01 1.300000000000000000e+01
2.999671220779418945e+00 -3.268982172012329102e+00 -7.027035951614379883e-01 1.100000000000000000e+01
2.592368507385253906e+01 -2.826101493835448863e+01 4.708787918090820312e+00 2.000000000000000000e+01
3.953753232955933061e+00 -4.311741828918457031e+00 -7.182978987693786621e-01 1.500000000000000000e+01
4.961097717285156250e+00 -5.412191390991210938e+00 -6.423377990722656250e-01 1.000000000000000000e+01
1.753034710884094016e+00 -1.920490980148314986e+00 -6.967408657073974609e-01 1.800000000000000000e+01
2.032967329025268999e+00 -2.228725910186768022e+00 -6.964484453201293945e-01 1.400000000000000000e+01
2.415459632873535156e+00 -2.648977279663085938e+00 -6.968344449996948242e-01 1.200000000000000000e+01
2.985581159591674805e+00 -3.276512622833251953e+00 -7.020778656005859375e-01 1.100000000000000000e+01
3.945360898971558061e+00 -4.332855701446533203e+00 -7.195165753364562988e-01 1.300000000000000000e+01
4.939492702484130859e+00 -5.426528930664063388e+00 -6.419891715049743652e-01 9.000000000000000000e+00
1.745022773742676003e+00 -1.925167202949523926e+00 -6.962232589721679688e-01 1.900000000000000000e+01
2.016017675399779829e+00 -2.225698471069335938e+00 -6.932991743087768555e-01 1.200000000000000000e+01
2.418057918548583984e+00 -2.670490503311156782e+00 -7.002689838409423828e-01 1.200000000000000000e+01
2.980752706527709961e+00 -3.294238090515137163e+00 -7.036422491073608398e-01 1.100000000000000000e+01
3.920892715454102007e+00 -4.336294174194335938e+00 -7.178104519844055176e-01 1.500000000000000000e+01
4.885784626007080078e+00 -5.405307769775390625e+00 -6.374570727348327637e-01 7.000000000000000000e+00
1.749923825263977051e+00 -1.944169521331787109e+00 -7.008819580078125000e-01 1.700000000000000000e+01
2.019964933395386186e+00 -2.245761871337891069e+00 -6.973482966423034668e-01 1.400000000000000000e+01
2.402158021926879883e+00 -2.671615362167357954e+00 -6.983609199523925781e-01 1.300000000000000000e+01
2.975836753845214844e+00 -3.311969757080078125e+00 -7.052065730094909668e-01 1.100000000000000000e+01
3.904406309127808061e+00 -4.348477363586425781e+00 -7.175666689872741699e-01 1.300000000000000000e+01
4.813652992248535156e+00 -5.363020420074462891e+00 -6.304846405982971191e-01 7.000000000000000000e+00
1.735402345657349077e+00 -1.941623806953429954e+00 -6.977761387825012207e-01 1.600000000000000000e+01
2.010815382003784180e+00 -2.251345872879027876e+00 -6.968983411788940430e-01 1.500000000000000000e+01
2.391510248184204102e+00 -2.678519725799560991e+00 -6.979793310165405273e-01 1.200000000000000000e+01
2.966887950897216797e+00 -3.325285196304320845e+00 -7.058323025703430176e-01 1.100000000000000000e+01
3.891845464706420898e+00 -4.365043163299561435e+00 -7.180541753768920898e-01 1.300000000000000000e+01
4.845278263092041016e+00 -5.436310291290283203e+00 -6.371085047721862793e-01 1.000000000000000000e+01
1.719637751579284890e+00 -1.937555670738219993e+00 -6.941526532173156738e-01 1.600000000000000000e+01
2.014581918716431108e+00 -2.271472692489624023e+00 -7.009474635124206543e-01 1.400000000000000000e+01
2.383448362350463867e+00 -2.688320398330688032e+00 -6.983609199523925781e-01 1.300000000000000000e+01
2.955262422561645952e+00 -3.335621118545531782e+00 -7.058323025703430176e-01 1.100000000000000000e+01
3.876585006713867188e+00 -4.378601551055908203e+00 -7.180541753768920898e-01 1.600000000000000000e+01
4.789299488067626953e+00 -5.411415100097656250e+00 -6.322277784347534180e-01 6.000000000000000000e+00
1.714141249656677024e+00 -1.944995880126952903e+00 -6.946703195571899414e-01 1.500000000000000000e+01
2.000200986862183061e+00 -2.271178722381591797e+00 -6.986979842185974121e-01 1.300000000000000000e+01
2.376644372940063032e+00 -2.699570894241333008e+00 -6.991241574287414551e-01 1.100000000000000000e+01
2.933162689208983931e+00 -3.334051847457886186e+00 -7.033293843269348145e-01 1.100000000000000000e+01
3.852102518081665039e+00 -4.381670475006104404e+00 -7.163479924201965332e-01 1.500000000000000000e+01
4.766435146331787109e+00 -5.423610210418701172e+00 -6.317048072814941406e-01 7.000000000000000000e+00
2.208032035827637074e+01 -2.516005706787109020e+01 -5.843065381050109863e-01 6.000000000000000000e+00
1.714974999427794966e+00 -1.959690093994141069e+00 -6.977761387825012207e-01 1.400000000000000000e+01
1.976866722106934038e+00 -2.260543823242187944e+00 -6.932991743087768555e-01 1.300000000000000000e+01
2.378835916519165039e+00 -2.721153259277344194e+00 -7.025586962699890137e-01 1.200000000000000000e+01
2.929304361343383789e+00 -3.353196144104003906e+00 -7.052065730094909668e-01 1.100000000000000000e+01
3.828951120376586914e+00 -4.386117458343505859e+00 -7.148855924606323242e-01 2.200000000000000000e+01
4.731754302978515625e+00 -5.422201156616210938e+00 -6.296131014823913574e-01 7.000000000000000000e+00
1.708123922348022017e+00 -1.965664505958556907e+00 -6.977761387825012207e-01 1.500000000000000000e+01
1.970241665840148926e+00 -2.268902063369750977e+00 -6.937490701675415039e-01 1.100000000000000000e+01
2.361601114273070845e+00 -2.720544815063477007e+00 -7.002689838409423828e-01 1.200000000000000000e+01
2.922759294509888139e+00 -3.369369506835937944e+00 -7.064580321311950684e-01 1.100000000000000000e+01
3.803215503692626953e+00 -4.387456417083740234e+00 -7.129356861114501953e-01 2.200000000000000000e+01
4.639731884002686435e+00 -5.354364395141601562e+00 -6.198516488075256348e-01 8.000000000000000000e+00
2.174449729919433949e+01 -2.512910842895508168e+01 -5.800482034683227539e-01 6.000000000000000000e+00
1.701252102851867898e+00 -1.971615076065063032e+00 -6.977761387825012207e-01 1.500000000000000000e+01
1.968672513961791992e+00 -2.283144950866699219e+00 -6.959985494613647461e-01 1.200000000000000000e+01
2.348244667053223100e+00 -2.724310636520386186e+00 -6.991241574287414551e-01 1.100000000000000000e+01
2.914847612380981001e+00 -3.384041547775268999e+00 -7.073966264724731445e-01 1.000000000000000000e+01
3.780107259750366211e+00 -4.391678333282470703e+00 -7.114732265472412109e-01 3.700000000000000000e+01
4.572931766510009766e+00 -5.314647197723388672e+00 -6.134021282196044922e-01 8.000000000000000000e+00
2.184170150756835938e+01 -2.542023277282714844e+01 -5.850046873092651367e-01 6.000000000000000000e+00
1.691845536231995073e+00 -1.974607467651366965e+00 -6.967408657073974609e-01 1.600000000000000000e+01
1.973365068435668945e+00 -2.304805755615233931e+00 -7.004975676536560059e-01 1.300000000000000000e+01
2.345103740692139116e+00 -2.739948511123656782e+00 -7.010322213172912598e-01 1.200000000000000000e+01
2.906869411468505859e+00 -3.398699045181273970e+00 -7.083352804183959961e-01 1.100000000000000000e+01
3.757015943527222124e+00 -4.395792484283447266e+00 -7.100107669830322266e-01 3.900000000000000000e+01
4.537527561187744141e+00 -5.310884952545166016e+00 -6.111360788345336914e-01 7.000000000000000000e+00
2.163083267211914062e+01 -2.535332107543944957e+01 -5.817236304283142090e-01 1.200000000000000000e+01
1.688698053359984907e+00 -1.984915256500243919e+00 -6.982938051223754883e-01 1.600000000000000000e+01
1.961521029472351074e+00 -2.307225942611693892e+00 -6.991478800773620605e-01 1.200000000000000000e+01
2.336796760559082031e+00 -2.749613761901855025e+00 -7.014138698577880859e-01 1.100000000000000000e+01
2.888594388961791992e+00 -3.401297092437744141e+00 -7.067708969116210938e-01 1.000000000000000000e+01
3.733942031860352007e+00 -4.399798870086669922e+00 -7.085483670234680176e-01 3.100000000000000000e+01
4.609186172485351562e+00 -5.433043003082275391e+00 -6.233378648757934570e-01 9.000000000000000000e+00
1.681411623954772949e+00 -1.991091370582581010e+00 -6.982938051223754883e-01 1.600000000000000000e+01
1.946767449378967063e+00 -2.306953191757202148e+00 -6.968983411788940430e-01 1.200000000000000000e+01
2.331766843795775923e+00 -2.764162540435791016e+00 -7.029403448104858398e-01 1.100000000000000000e+01
2.876108646392821822e+00 -3.411861419677733931e+00 -7.067708969116210938e-01 1.100000000000000000e+01
3.703722953796387163e+00 -4.396754741668701172e+00 -7.058672308921813965e-01 2.800000000000000000e+01
4.569992065429688388e+00 -5.427039623260498047e+00 -6.207231879234313965e-01 8.000000000000000000e+00
1.678174972534179910e+00 -2.001389503479003906e+00 -6.998466849327087402e-01 1.500000000000000000e+01
1.938702821731566939e+00 -2.313734531402587891e+00 -6.968983411788940430e-01 1.200000000000000000e+01
2.318321943283081055e+00 -2.767770051956177202e+00 -7.017954587936401367e-01 1.200000000000000000e+01
2.869253158569335938e+00 -3.427939176559447798e+00 -7.080224156379699707e-01 1.000000000000000000e+01
3.697268009185791016e+00 -4.420314788818359375e+00 -7.075734138488769531e-01 2.400000000000000000e+01
4.628979206085205078e+00 -5.536197185516357422e+00 -6.313561797142028809e-01 7.000000000000000000e+00
1.667470335960387962e+00 -2.002781152725220171e+00 -6.982938051223754883e-01 1.500000000000000000e+01
1.930614590644835982e+00 -2.320487737655640093e+00 -6.968983411788940430e-01 1.200000000000000000e+01
2.301114082336425781e+00 -2.766788959503173828e+00 -6.995058059692382812e-01 1.200000000000000000e+01
2.864845514297484907e+00 -3.447049140930175781e+00 -7.098996043205261230e-01 1.100000000000000000e+01
3.675474405288695845e+00 -4.425558567047119141e+00 -7.063547372817993164e-01 2.800000000000000000e+01
4.589263439178466797e+00 -5.527794361114501953e+00 -6.285672187805175781e-01 7.000000000000000000e+00
1.660469174385071023e+00 -2.008589506149291992e+00 -6.982938051223754883e-01 1.500000000000000000e+01
1.928708434104918990e+00 -2.334724903106689009e+00 -6.991478800773620605e-01 1.100000000000000000e+01
2.293942451477050781e+00 -2.777832269668579102e+00 -7.002689838409423828e-01 1.100000000000000000e+01
2.852795600891112837e+00 -3.457028150558472124e+00 -7.098996043205261230e-01 1.100000000000000000e+01
3.651163339614868164e+00 -4.427640438079833984e+00 -7.046485543251037598e-01 2.400000000000000000e+01
4.606691837310791016e+00 -5.588364124298095703e+00 -6.336222290992736816e-01 7.000000000000000000e+00
1.729442787170410156e+01 -2.099474525451660156e+01 -1.425526738166809082e+00 1.300000000000000000e+01
1.655025243759155051e+00 -2.015577793121337891e+00 -6.988114118576049805e-01 1.400000000000000000e+01
1.923427939414978027e+00 -2.344120740890502930e+00 -7.000476717948913574e-01 1.400000000000000000e+01
2.293433666229248047e+00 -2.796049356460570845e+00 -7.029403448104858398e-01 1.100000000000000000e+01
2.831298112869263139e+00 -3.454247474670410156e+00 -7.073966264724731445e-01 1.100000000000000000e+01
3.628913402557373047e+00 -4.430509567260742188e+00 -7.031860947608947754e-01 2.000000000000000000e+01
4.581823825836181641e+00 -5.595901966094970703e+00 -6.327506899833679199e-01 7.000000000000000000e+00
1.717918014526366832e+01 -2.099633216857910156e+01 -1.421758532524109109e+00 1.300000000000000000e+01
1.650420904159545898e+00 -2.024337291717528853e+00 -6.998466849327087402e-01 1.400000000000000000e+01
1.914002776145935059e+00 -2.349309682846068892e+00 -6.995977759361267090e-01 1.300000000000000000e+01
2.288618803024291992e+00 -2.810127019882202148e+00 -7.044668197631835938e-01 1.100000000000000000e+01
2.827951431274414062e+00 -3.474834203720093218e+00 -7.095867395401000977e-01 1.100000000000000000e+01
3.614678621292113814e+00 -4.444690227508544922e+00 -7.034298777580261230e-01 1.600000000000000000e+01
4.460460186004638672e+00 -5.486638069152832031e+00 -6.186314821243286133e-01 1.200000000000000000e+01
1.706296539306640980e+01 -2.100346374511719105e+01 -1.418199777603148970e+00 1.200000000000000000e+01
1.646991133689879927e+00 -2.034590482711791992e+00 -7.013996243476867676e-01 1.500000000000000000e+01
1.900888204574584961e+00 -2.349916219711304155e+00 -6.977981925010681152e-01 1.300000000000000000e+01
2.275092363357543945e+00 -2.813519001007080078e+00 -7.033219337463378906e-01 1.000000000000000000e+01
2.820770978927611861e+00 -3.490830183029174805e+00 -7.108381986618041992e-01 1.100000000000000000e+01
3.596647500991820845e+00 -4.454191684722900391e+00 -7.029423713684082031e-01 1.800000000000000000e+01
4.378709793090820312e+00 -5.424657344818115234e+00 -6.099159121513366699e-01 1.300000000000000000e+01
1.696195983886719105e+01 -2.102869606018066051e+01 -1.415897011756896973e+00 1.200000000000000000e+01
1.633827805519104004e+00 -2.032798290252685991e+00 -6.988114118576049805e-01 1.400000000000000000e+01
1.903656482696532981e+00 -2.370211362838745117e+00 -7.018473148345947266e-01 1.300000000000000000e+01
2.261570215225220171e+00 -2.816850662231444868e+00 -7.021771073341369629e-01 1.100000000000000000e+01
2.811040878295897993e+00 -3.503736972808837891e+00 -7.114639282226562500e-01 1.100000000000000000e+01
3.577352285385131836e+00 -4.462072849273681641e+00 -7.022111415863037109e-01 1.500000000000000000e+01
4.419555664062500000e+00 -5.514534473419188565e+00 -6.182828545570373535e-01 8.000000000000000000e+00
1.686098480224609020e+01 -2.105348014831542969e+01 -1.413594126701354980e+00 1.200000000000000000e+01
1.627927064895630105e+00 -2.039999008178710938e+00 -6.993290781974792480e-01 1.500000000000000000e+01
1.897801280021667036e+00 -2.379889249801636186e+00 -7.027471065521240234e-01 1.300000000000000000e+01
2.256618738174438032e+00 -2.830868721008300781e+00 -7.037035822868347168e-01 1.200000000000000000e+01
2.801254987716674805e+00 -3.516618013381958008e+00 -7.120896577835083008e-01 1.100000000000000000e+01
3.554337263107299805e+00 -4.465214252471923828e+00 -7.007487416267395020e-01 1.900000000000000000e+01
4.439977645874023438e+00 -5.579817295074462891e+00 -6.238608360290527344e-01 9.000000000000000000e+00
1.676998901367187855e+01 -2.109032058715819957e+01 -1.412128806114196999e+00 1.200000000000000000e+01
1.620796203613281028e+00 -2.045669317245482954e+00 -6.993290781974792480e-01 1.400000000000000000e+01
1.885853409767151101e+00 -2.381915807723999023e+00 -7.013973593711853027e-01 1.200000000000000000e+01
2.249160289764403853e+00 -2.841807365417480025e+00 -7.044668197631835938e-01 1.200000000000000000e+01
2.785286426544189009e+00 -3.521726846694945845e+00 -7.111510634422302246e-01 1.000000000000000000e+01
3.544883489608765093e+00 -4.485381126403808594e+00 -7.019674181938171387e-01 3.500000000000000000e+01
4.317958831787109375e+00 -5.465522766113281250e+00 -6.093929409980773926e-01 7.000000000000000000e+00
1.662696456909180043e+01 -2.106094360351562855e+01 -1.406267166137695090e+00 1.200000000000000000e+01
1.614840030670166016e+00 -2.052832841873168945e+00 -6.998466849327087402e-01 1.500000000000000000e+01
1.875118851661681907e+00 -2.385420083999633789e+00 -7.004975676536560059e-01 1.300000000000000000e+01
2.244078874588013139e+00 -2.855815649032593218e+00 -7.059932947158813477e-01 1.200000000000000000e+01
2.774196386337279829e+00 -3.532981395721435991e+00 -7.114639282226562500e-01 1.100000000000000000e+01
3.519401550292969194e+00 -4.485233783721923828e+00 -7.000175118446350098e-01 3.100000000000000000e+01
4.484531402587890625e+00 -5.717279434204101562e+00 -6.357139945030212402e-01 9.000000000000000000e+00
1.651145553588866832e+01 -2.106540870666503906e+01 -1.402708292007446067e+00 1.200000000000000000e+01
1.610042691230773926e+00 -2.061502218246459961e+00 -7.008819580078125000e-01 1.600000000000000000e+01
1.865581750869750977e+00 -2.390414476394652876e+00 -7.000476717948913574e-01 1.300000000000000000e+01
2.228058338165283203e+00 -2.855892181396483931e+00 -7.040851712226867676e-01 1.200000000000000000e+01
2.765490770339965820e+00 -3.547317266464232954e+00 -7.124025821685791016e-01 1.100000000000000000e+01
3.495183944702147993e+00 -4.486529827117919922e+00 -6.983113288879394531e-01 2.900000000000000000e+01
4.479237079620361328e+00 -5.751761913299561435e+00 -6.378057003021240234e-01 1.000000000000000000e+01
1.638630485534667969e+01 -2.105671501159667969e+01 -1.398312091827393022e+00 2.500000000000000000e+01
1.606388211250304954e+00 -2.071689605712891069e+00 -7.024348974227905273e-01 1.600000000000000000e+01
1.862000703811645952e+00 -2.403073787689208984e+00 -7.018473148345947266e-01 1.400000000000000000e+01
2.220480203628540039e+00 -2.866756439208983931e+00 -7.048484086990356445e-01 1.200000000000000000e+01
2.755509614944458008e+00 -3.560073375701903853e+00 -7.130283117294311523e-01 1.000000000000000000e+01
3.472214937210083008e+00 -4.489281654357910156e+00 -6.968489289283752441e-01 3.600000000000000000e+01
4.485943317413330078e+00 -5.802039146423339844e+00 -6.416406035423278809e-01 7.000000000000000000e+00
1.621989822387694957e+01 -2.099366950988769887e+01 -1.390357017517090066e+00 1.200000000000000000e+01
1.596789956092834029e+00 -2.074222803115845171e+00 -7.013996243476867676e-01 1.600000000000000000e+01
1.861918449401855025e+00 -2.420370817184447798e+00 -7.049965858459472656e-01 1.300000000000000000e+01
2.215247154235839844e+00 -2.880714893341064009e+00 -7.063748836517333984e-01 1.200000000000000000e+01
2.744269371032714844e+00 -3.571236371994018999e+00 -7.133411765098571777e-01 1.100000000000000000e+01
3.474658250808715820e+00 -4.524991512298583984e+00 -7.005049586296081543e-01 2.400000000000000000e+01
4.470515727996826172e+00 -5.823984146118164062e+00 -6.423377990722656250e-01 1.100000000000000000e+01
1.618055534362792969e+01 -2.109453201293944957e+01 -1.393287777900696023e+00 1.200000000000000000e+01
1.587193727493285911e+00 -2.076714277267456055e+00 -7.003643512725830078e-01 1.600000000000000000e+01
1.848727226257323997e+00 -2.420660495758057085e+00 -7.031970024108886719e-01 1.200000000000000000e+01
2.206369400024414062e+00 -2.889990568161011186e+00 -7.067565321922302246e-01 1.300000000000000000e+01
2.732984781265258789e+00 -3.582364559173583984e+00 -7.136540412902832031e-01 1.000000000000000000e+01
3.506981611251831055e+00 -4.600239276885986328e+00 -7.102545499801635742e-01 1.800000000000000000e+01
4.459819793701171875e+00 -5.852231502532958984e+00 -6.437323093414306641e-01 1.000000000000000000e+01
1.586941242218018022e+00 -2.091475725173950195e+00 -7.034701704978942871e-01 1.600000000000000000e+01
1.837911486625670943e+00 -2.423993349075316939e+00 -7.022972106933593750e-01 1.200000000000000000e+01
2.201011419296265093e+00 -2.903933048248291016e+00 -7.082830071449279785e-01 1.300000000000000000e+01
2.720463514328002930e+00 -3.591882467269897017e+00 -7.136540412902832031e-01 1.000000000000000000e+01
3.484912633895874023e+00 -4.604538917541503906e+00 -7.090358138084411621e-01 2.200000000000000000e+01
4.444172859191895419e+00 -5.874118804931640625e+00 -6.444295644760131836e-01 7.000000000000000000e+00
1.579630970954895020e+00 -2.097002506256103960e+00 -7.034701704978942871e-01 1.500000000000000000e+01
1.827095031738281028e+00 -2.427280187606811968e+00 -7.013973593711853027e-01 1.200000000000000000e+01
2.180237770080565962e+00 -2.897479534149169922e+00 -7.048484086990356445e-01 1.200000000000000000e+01
2.707908868789672852e+00 -3.601356983184814009e+00 -7.136540412902832031e-01 1.000000000000000000e+01
3.454509258270264116e+00 -4.597630977630615234e+00 -7.061109542846679688e-01 1.500000000000000000e+01
4.421248435974121094e+00 -5.886409759521484375e+00 -6.440809369087219238e-01 7.000000000000000000e+00
1.571144461631774902e+00 -2.100956678390502930e+00 -7.029525041580200195e-01 1.600000000000000000e+01
1.822110652923583984e+00 -2.438326358795166016e+00 -7.027471065521240234e-01 1.100000000000000000e+01
2.171285390853881836e+00 -2.906645298004149947e+00 -7.052300572395324707e-01 1.300000000000000000e+01
2.702411174774169922e+00 -3.620285272598267046e+00 -7.155312299728393555e-01 1.000000000000000000e+01
3.400458812713623047e+00 -4.558743476867675781e+00 -6.983113288879394531e-01 1.700000000000000000e+01
4.423302650451660156e+00 -5.932154655456542969e+00 -6.473928689956665039e-01 7.000000000000000000e+00
1.638803863525390980e+01 -2.199425125122069957e+01 -1.437459349632262962e+00 1.300000000000000000e+01
1.561498165130615012e+00 -2.103325843811035156e+00 -7.019172310829162598e-01 1.600000000000000000e+01
1.818232536315917969e+00 -2.450932264328002930e+00 -7.045466899871826172e-01 1.200000000000000000e+01
2.166973114013671875e+00 -2.922091484069824219e+00 -7.071381211280822754e-01 1.400000000000000000e+01
2.685053110122681108e+00 -3.623347997665404829e+00 -7.142797708511352539e-01 1.000000000000000000e+01
3.329002141952515093e+00 -4.495605468750000000e+00 -6.868556141853332520e-01 1.900000000000000000e+01
4.404939651489257812e+00 -5.950761795043945312e+00 -6.477414965629577637e-01 8.000000000000000000e+00
1.555292725563049094e+00 -2.110318899154663086e+00 -7.024348974227905273e-01 1.500000000000000000e+01
1.811977267265320046e+00 -2.460402250289916992e+00 -7.054464817047119141e-01 1.300000000000000000e+01
2.155596017837523970e+00 -2.928056955337523970e+00 -7.067565321922302246e-01 1.700000000000000000e+01
2.670047760009766069e+00 -3.629516124725341797e+00 -7.136540412902832031e-01 1.000000000000000000e+01
3.286247014999390093e+00 -4.470411777496337891e+00 -6.812496185302734375e-01 1.900000000000000000e+01
4.354645729064941406e+00 -5.925963401794433594e+00 -6.433836817741394043e-01 1.200000000000000000e+01
1.550198316574096902e+00 -2.118853330612183061e+00 -7.034701704978942871e-01 1.500000000000000000e+01
1.798777341842650923e+00 -2.460419654846190962e+00 -7.036468982696533203e-01 1.100000000000000000e+01
2.149995565414429155e+00 -2.941903829574584961e+00 -7.082830071449279785e-01 1.700000000000000000e+01
2.657362222671508789e+00 -3.638814210891724077e+00 -7.136540412902832031e-01 1.100000000000000000e+01
3.271792411804199219e+00 -4.483458995819091797e+00 -6.814933419227600098e-01 2.100000000000000000e+01
4.336281776428222656e+00 -5.944347381591796875e+00 -6.437323093414306641e-01 1.100000000000000000e+01
1.547333598136902078e+00 -2.130503892898560014e+00 -7.055407166481018066e-01 1.500000000000000000e+01
1.790177941322327104e+00 -2.466683626174927202e+00 -7.036468982696533203e-01 1.100000000000000000e+01
2.137407779693603960e+00 -2.946212530136107954e+00 -7.075197696685791016e-01 1.600000000000000000e+01
2.649281740188599077e+00 -3.654465198516846147e+00 -7.149055004119873047e-01 1.000000000000000000e+01
3.320173263549805132e+00 -4.583270549774169922e+00 -6.948990225791931152e-01 1.500000000000000000e+01
4.292134761810302734e+00 -5.927173137664794922e+00 -6.402460932731628418e-01 1.200000000000000000e+01
1.541017174720763938e+00 -2.137459278106689009e+00 -7.060583829879760742e-01 1.500000000000000000e+01
1.783834934234618919e+00 -2.476079702377318892e+00 -7.045466899871826172e-01 1.200000000000000000e+01
2.131699800491333008e+00 -2.960027933120727983e+00 -7.090462446212768555e-01 1.600000000000000000e+01
2.643432140350341797e+00 -3.673310995101929155e+00 -7.167826890945434570e-01 1.000000000000000000e+01
3.207962036132812944e+00 -4.461064815521240234e+00 -6.746686697006225586e-01 2.400000000000000000e+01
4.290025711059570312e+00 -5.968003749847412109e+00 -6.430350542068481445e-01 9.000000000000000000e+00
1.523427963256835938e+00 -2.128686428070067915e+00 -7.013996243476867676e-01 1.300000000000000000e+01
1.777448058128356934e+00 -2.485461711883544922e+00 -7.054464817047119141e-01 1.100000000000000000e+01
2.114503860473632812e+00 -2.957868337631226030e+00 -7.067565321922302246e-01 1.700000000000000000e+01
2.635186672210692915e+00 -3.688945293426514116e+00 -7.180342078208923340e-01 1.000000000000000000e+01
3.195830345153809038e+00 -4.477082252502441406e+00 -6.753998994827270508e-01 2.100000000000000000e+01
4.302728176116943359e+00 -6.029975891113281250e+00 -6.480901241302490234e-01 8.000000000000000000e+00
1.519344568252563032e+00 -2.138715982437133789e+00 -7.029525041580200195e-01 1.400000000000000000e+01
1.773273468017577903e+00 -2.498007297515869141e+00 -7.072461247444152832e-01 1.100000000000000000e+01
2.110983133316040039e+00 -2.974837779998778853e+00 -7.090462446212768555e-01 1.300000000000000000e+01
2.617723464965819868e+00 -3.691675901412963867e+00 -7.167826890945434570e-01 1.000000000000000000e+01
3.266258001327515093e+00 -4.609688758850097656e+00 -6.936802864074707031e-01 1.500000000000000000e+01
4.289714336395263672e+00 -6.056339263916015625e+00 -6.493102908134460449e-01 9.000000000000000000e+00
2.765931320190430043e+01 -3.910805130004882812e+01 -8.361098766326904297e-01 1.200000000000000000e+01
1.516322970390320046e+00 -2.150321483612060991e+00 -7.050230503082275391e-01 1.500000000000000000e+01
1.753318190574645996e+00 -2.488251924514770952e+00 -7.027471065521240234e-01 1.000000000000000000e+01
2.106238842010498047e+00 -2.990213632583618164e+00 -7.109543085098266602e-01 1.500000000000000000e+01
2.607095003128052202e+00 -3.704021692276000977e+00 -7.174084782600402832e-01 1.000000000000000000e+01
3.215887069702147993e+00 -4.572350978851318359e+00 -6.863681674003601074e-01 1.500000000000000000e+01
4.247920989990234375e+00 -6.041938781738281250e+00 -6.461727023124694824e-01 1.100000000000000000e+01
2.733419990539551137e+01 -3.893595123291016336e+01 -8.303855061531066895e-01 1.200000000000000000e+01
1.508807778358459029e+00 -2.155601501464844194e+00 -7.050230503082275391e-01 1.400000000000000000e+01
1.751323461532592995e+00 -2.503938436508179155e+00 -7.054464817047119141e-01 1.000000000000000000e+01
2.091288328170775923e+00 -2.991111755371094194e+00 -7.094278335571289062e-01 1.400000000000000000e+01
2.594149827957152876e+00 -3.713099479675292969e+00 -7.174084782600402832e-01 1.000000000000000000e+01
3.181725740432738814e+00 -4.557505607604979581e+00 -6.824682950973510742e-01 1.500000000000000000e+01
4.241627693176270419e+00 -6.077970027923583984e+00 -6.484387516975402832e-01 7.000000000000000000e+00
1.652764511108398082e+01 -2.370063781738280895e+01 -1.514288544654845969e+00 1.400000000000000000e+01
1.503478646278380904e+00 -2.164028167724608931e+00 -7.060583829879760742e-01 1.500000000000000000e+01
1.751463055610656960e+00 -2.522842645645142046e+00 -7.090457081794738770e-01 1.000000000000000000e+01
2.080834865570067915e+00 -2.998393297195435014e+00 -7.094278335571289062e-01 1.400000000000000000e+01
2.589052438735961914e+00 -3.733494997024536133e+00 -7.195985317230224609e-01 1.100000000000000000e+01
3.234766721725463867e+00 -4.668114185333251953e+00 -6.973363757133483887e-01 1.500000000000000000e+01
4.237403869628906250e+00 -6.117306709289550781e+00 -6.510533690452575684e-01 9.000000000000000000e+00
1.627430725097655895e+01 -2.351185035705566051e+01 -1.498587727546691895e+00 1.400000000000000000e+01
1.488238573074341042e+00 -2.158130407333374023e+00 -7.024348974227905273e-01 1.500000000000000000e+01
1.742645978927612083e+00 -2.528941154479980025e+00 -7.090457081794738770e-01 1.000000000000000000e+01
2.072583198547362837e+00 -3.008872270584106001e+00 -7.101910710334777832e-01 1.400000000000000000e+01
2.577124357223511186e+00 -3.744136810302733931e+00 -7.199113965034484863e-01 1.000000000000000000e+01
3.257825136184691939e+00 -4.736622333526611328e+00 -7.058672308921813965e-01 1.600000000000000000e+01
4.166357994079589844e+00 -6.059822082519531250e+00 -6.433836817741394043e-01 7.000000000000000000e+00
1.627130508422851918e+01 -2.368374824523926137e+01 -1.505914807319640891e+00 1.400000000000000000e+01
1.482878565788269043e+00 -2.166500568389893022e+00 -7.034701704978942871e-01 1.400000000000000000e+01
1.736008048057555930e+00 -2.538225650787353960e+00 -7.099454998970031738e-01 1.100000000000000000e+01
2.064283609390258789e+00 -3.019329786300659180e+00 -7.109543085098266602e-01 1.400000000000000000e+01
2.561810731887816939e+00 -3.749847888946533203e+00 -7.192856669425964355e-01 1.000000000000000000e+01
3.207694768905640093e+00 -4.698780536651611328e+00 -6.985550522804260254e-01 1.900000000000000000e+01
4.154163837432861328e+00 -6.087494373321533203e+00 -6.447781920433044434e-01 7.000000000000000000e+00
1.613227272033691051e+01 -2.365789604187012074e+01 -1.500681161880492942e+00 1.400000000000000000e+01
1.482906103134155051e+00 -2.182849407196044922e+00 -7.070936560630798340e-01 1.500000000000000000e+01
1.718381285667418990e+00 -2.531371355056763139e+00 -7.063463330268859863e-01 1.100000000000000000e+01
2.058141231536864790e+00 -3.033015251159667969e+00 -7.124807834625244141e-01 1.300000000000000000e+01
2.547596931457519975e+00 -3.757132291793822798e+00 -7.189728021621704102e-01 1.100000000000000000e+01
3.162322521209716797e+00 -4.667220592498779297e+00 -6.922178864479064941e-01 2.100000000000000000e+01
4.096018791198729581e+00 -6.047520160675048828e+00 -6.390259265899658203e-01 7.000000000000000000e+00
1.605630874633789062e+01 -2.372398757934569957e+01 -1.501309275627136008e+00 1.400000000000000000e+01
1.475277543067931907e+00 -2.188012599945067915e+00 -7.070936560630798340e-01 1.400000000000000000e+01
1.713890194892883079e+00 -2.543818712234497070e+00 -7.081459164619445801e-01 1.100000000000000000e+01
2.042057991027832031e+00 -3.032039165496826172e+00 -7.105727195739746094e-01 1.300000000000000000e+01
2.543289899826049805e+00 -3.779112815856934038e+00 -7.214757800102233887e-01 1.100000000000000000e+01
3.101701736450194868e+00 -4.612340450286865234e+00 -6.824682950973510742e-01 1.500000000000000000e+01
4.098226070404052734e+00 -6.096505165100097656e+00 -6.426864266395568848e-01 6.000000000000000000e+00
1.598453617095947088e+01 -2.379646873474121094e+01 -1.502355933189392090e+00 1.400000000000000000e+01
1.469779729843140093e+00 -2.196359872817993164e+00 -7.081289291381835938e-01 1.500000000000000000e+01
1.703916907310486062e+00 -2.548165798187255859e+00 -7.076960206031799316e-01 1.200000000000000000e+01
2.033643722534180132e+00 -3.042413234710692915e+00 -7.113359570503234863e-01 1.100000000000000000e+01
2.526791334152222124e+00 -3.783039569854735884e+00 -7.205371260643005371e-01 1.000000000000000000e+01
3.116438627243041992e+00 -4.669370651245117188e+00 -6.892930269241333008e-01 1.700000000000000000e+01
4.093506813049316406e+00 -6.135633945465087891e+00 -6.453011035919189453e-01 6.000000000000000000e+00
1.453553795814513938e+00 -2.188602924346923828e+00 -7.039877772331237793e-01 1.600000000000000000e+01
1.698244452476501021e+00 -2.558969259262084961e+00 -7.090457081794738770e-01 1.200000000000000000e+01
2.018670082092285156e+00 -3.042949438095093218e+00 -7.098094820976257324e-01 1.100000000000000000e+01
2.515753507614136186e+00 -3.795129537582397017e+00 -7.211628556251525879e-01 1.000000000000000000e+01
3.067233562469481978e+00 -4.630571842193604404e+00 -6.819808483123779297e-01 2.400000000000000000e+01
4.110563278198242188e+00 -6.208028793334960938e+00 -6.514019966125488281e-01 7.000000000000000000e+00
1.577834224700927912e+01 -2.384751701354980113e+01 -1.498587727546691895e+00 1.400000000000000000e+01
1.446585297584533913e+00 -2.195528984069824219e+00 -7.045054435729980469e-01 1.500000000000000000e+01
1.689925551414489968e+00 -2.566804170608520952e+00 -7.094956040382385254e-01 1.300000000000000000e+01
2.021534442901610884e+00 -3.071647405624390093e+00 -7.147704958915710449e-01 1.000000000000000000e+01
2.501826763153076172e+00 -3.804324865341186968e+00 -7.211628556251525879e-01 1.100000000000000000e+01
3.089486598968505859e+00 -4.701505661010742188e+00 -6.907554268836975098e-01 5.000000000000000000e+01
4.075749397277832031e+00 -6.204735279083251953e+00 -6.494845747947692871e-01 6.000000000000000000e+00
1.559657859802245916e+01 -2.376159286499023082e+01 -1.489585995674133079e+00 1.400000000000000000e+01
1.441027045249938965e+00 -2.203798770904541016e+00 -7.055407166481018066e-01 1.600000000000000000e+01
1.679889559745789018e+00 -2.571056127548218218e+00 -7.090457081794738770e-01 1.100000000000000000e+01
2.010800123214722124e+00 -3.078685045242310014e+00 -7.147704958915710449e-01 1.000000000000000000e+01
2.492850303649901900e+00 -3.819651603698730025e+00 -7.224143743515014648e-01 1.000000000000000000e+01
3.075225114822388139e+00 -4.715586662292479581e+00 -6.912429332733154297e-01 4.500000000000000000e+01
4.307580947875976562e+00 -6.607816219329833984e+00 -6.900991797447204590e-01 6.000000000000000000e+00
1.552008056640625000e+01 -2.382593154907226918e+01 -1.490213990211487038e+00 1.400000000000000000e+01
1.440022349357604980e+00 -2.218287467956542969e+00 -7.086465358734130859e-01 1.400000000000000000e+01
1.670293927192687988e+00 -2.574977636337279829e+00 -7.085958123207092285e-01 1.200000000000000000e+01
1.996307373046875000e+00 -3.078747034072875977e+00 -7.132440209388732910e-01 1.000000000000000000e+01
2.486615180969237837e+00 -3.837844133377075195e+00 -7.242915630340576172e-01 1.000000000000000000e+01
2.645256614685058949e+01 -4.084253311157227273e+01 5.974766254425048828e+00 4.900000000000000000e+01
3.062807321548461914e+00 -4.730757713317871094e+00 -6.919741034507751465e-01 2.900000000000000000e+01
4.300800323486328125e+00 -6.645481586456298828e+00 -6.925395131111145020e-01 6.000000000000000000e+00
1.547352313995360973e+01 -2.392758178710937855e+01 -1.493354201316833052e+00 1.400000000000000000e+01
2.768729209899901988e+01 -4.284721374511718750e+01 1.366926860809325994e+01 1.600000000000000000e+01
1.430177927017211914e+00 -2.220052480697631836e+00 -7.076112627983093262e-01 1.600000000000000000e+01
1.664459705352782981e+00 -2.585708141326903853e+00 -7.099454998970031738e-01 1.100000000000000000e+01
1.987673044204711914e+00 -3.088998794555664062e+00 -7.140072584152221680e-01 1.000000000000000000e+01
2.475340127944945845e+00 -3.849823713302611861e+00 -7.249172925949096680e-01 1.000000000000000000e+01
3.037691116333007812e+00 -4.728059291839599609e+00 -6.900241971015930176e-01 4.700000000000000000e+01
4.177447319030761719e+00 -6.504545688629150391e+00 -6.763285398483276367e-01 3.000000000000000000e+00
1.530792427062987926e+01 -2.385369873046875000e+01 -1.485399127006530984e+00 1.300000000000000000e+01
2.774612045288085938e+01 -4.326884078979492188e+01 1.377279663085938033e+01 1.600000000000000000e+01
1.417217016220092995e+00 -2.216892957687377930e+00 -7.050230503082275391e-01 1.500000000000000000e+01
1.663816332817078081e+00 -2.604640722274779829e+00 -7.135447263717651367e-01 1.100000000000000000e+01
1.977934956550597922e+00 -3.097572803497314009e+00 -7.143889069557189941e-01 9.000000000000000000e+00
2.457636356353760210e+00 -3.851779699325561968e+00 -7.236658334732055664e-01 1.000000000000000000e+01
3.041445016860961914e+00 -4.770436763763427734e+00 -6.946552395820617676e-01 2.400000000000000000e+01
4.233956336975097656e+00 -6.643421173095703125e+00 -6.892276406288146973e-01 5.000000000000000000e+00
1.519881820678710938e+01 -2.386655616760253906e+01 -1.482887029647826926e+00 1.300000000000000000e+01
1.412574648857116921e+00 -2.226720333099364790e+00 -7.065759897232055664e-01 1.400000000000000000e+01
1.654714226722717063e+00 -2.610432624816894975e+00 -7.135447263717651367e-01 1.100000000000000000e+01
1.968161106109618919e+00 -3.106116771697998047e+00 -7.147704958915710449e-01 1.000000000000000000e+01
2.439949274063109907e+00 -3.853659152984619141e+00 -7.224143743515014648e-01 1.000000000000000000e+01
3.075717926025391069e+00 -4.861546993255615234e+00 -7.063547372817993164e-01 1.800000000000000000e+01
1.506206798553466975e+01 -2.383504486083984020e+01 -1.477653384208678977e+00 1.300000000000000000e+01
1.407880783081054910e+00 -2.236542224884033203e+00 -7.081289291381835938e-01 1.400000000000000000e+01
1.639366626739501953e+00 -2.606295347213745117e+00 -7.108453512191772461e-01 1.100000000000000000e+01
1.963576793670654075e+00 -3.122940063476562944e+00 -7.170602083206176758e-01 1.000000000000000000e+01
2.432787895202637163e+00 -3.872188568115233931e+00 -7.242915630340576172e-01 1.000000000000000000e+01
2.524839401245116832e+01 -4.020261383056641336e+01 5.829010486602783203e+00 4.500000000000000000e+01
3.034453630447388139e+00 -4.833584785461425781e+00 -7.007487416267395020e-01 2.200000000000000000e+01
4.192769050598145419e+00 -6.681255817413330078e+00 -6.900991797447204590e-01 5.000000000000000000e+00
1.496816635131835938e+01 -2.387055587768555043e+01 -1.476606726646422896e+00 1.300000000000000000e+01
2.669862747192383168e+01 -4.261080551147460938e+01 1.347360229492188033e+01 1.600000000000000000e+01
1.399041771888732910e+00 -2.239804506301879883e+00 -7.076112627983093262e-01 1.500000000000000000e+01
1.626131772994994895e+00 -2.605389356613159180e+00 -7.090457081794738770e-01 1.100000000000000000e+01
1.942271709442138894e+00 -3.113118648529053178e+00 -7.132440209388732910e-01 1.000000000000000000e+01
2.423436880111693892e+00 -3.887362241744995117e+00 -7.255430221557617188e-01 1.000000000000000000e+01
3.003918170928955078e+00 -4.822243690490722656e+00 -6.975800991058349609e-01 4.500000000000000000e+01
4.029352664947509766e+00 -6.470907688140869141e+00 -6.669157147407531738e-01 4.000000000000000000e+00
1.482144355773925959e+01 -2.382091140747069957e+01 -1.470326304435729980e+00 1.300000000000000000e+01
2.601743507385253906e+01 -4.183129882812500000e+01 1.137307548522949041e+01 1.400000000000000000e+01
2.638652420043944957e+01 -4.244124221801757812e+01 1.339077949523925959e+01 1.600000000000000000e+01
1.390197157859802024e+00 -2.243032455444335938e+00 -7.070936560630798340e-01 1.400000000000000000e+01
1.625235557556151900e+00 -2.624303817749022993e+00 -7.126449346542358398e-01 1.000000000000000000e+01
1.936560034751892090e+00 -3.128225803375244141e+00 -7.151521444320678711e-01 1.100000000000000000e+01
2.414009332656859907e+00 -3.902517795562744141e+00 -7.267945408821105957e-01 1.100000000000000000e+01
2.982892274856566939e+00 -4.825945377349854404e+00 -6.966051459312438965e-01 4.200000000000000000e+01
4.149164676666259766e+00 -6.715448379516601562e+00 -6.906220912933349609e-01 5.000000000000000000e+00
1.472351360321044922e+01 -2.384870910644530895e+01 -1.468860983848571999e+00 1.300000000000000000e+01
2.598693275451660156e+01 -4.212575149536132812e+01 -8.639639019966125488e-01 1.300000000000000000e+01
2.624498748779296875e+01 -4.256068801879882812e+01 1.339802646636963068e+01 1.600000000000000000e+01
1.383370995521544966e+00 -2.249516963958739790e+00 -7.076112627983093262e-01 1.400000000000000000e+01
1.622186660766602007e+00 -2.639922857284545898e+00 -7.153443694114685059e-01 1.100000000000000000e+01
1.922546029090880904e+00 -3.129947900772095171e+00 -7.140072584152221680e-01 1.000000000000000000e+01
2.406572103500366211e+00 -3.921021699905395952e+00 -7.286717295646667480e-01 1.100000000000000000e+01
2.974330902099608931e+00 -4.849865913391113281e+00 -6.985550522804260254e-01 3.600000000000000000e+01
4.078838825225830078e+00 -6.653453350067138672e+00 -6.827780604362487793e-01 5.000000000000000000e+00
1.464017677307129084e+01 -2.389995956420898082e+01 -1.468860983848571999e+00 1.300000000000000000e+01
1.375510215759276900e+00 -2.254332304000854048e+00 -7.076112627983093262e-01 1.400000000000000000e+01
1.613976120948791948e+00 -2.647233247756958008e+00 -7.157942652702331543e-01 1.000000000000000000e+01
1.917738914489746094e+00 -3.146698474884033203e+00 -7.162969708442687988e-01 1.000000000000000000e+01
2.388760805130004883e+00 -3.922649860382080078e+00 -7.274202704429626465e-01 1.000000000000000000e+01
2.980085134506226030e+00 -4.897526741027832031e+00 -7.039173245429992676e-01 2.200000000000000000e+01
4.088721275329589844e+00 -6.722122192382813388e+00 -6.883560419082641602e-01 6.000000000000000000e+00
1.374636054039001021e+00 -2.270688295364379883e+00 -7.112347483634948730e-01 1.500000000000000000e+01
1.593630790710448997e+00 -2.634509325027465820e+00 -7.108453512191772461e-01 1.000000000000000000e+01
1.908774971961975098e+00 -3.156733512878417969e+00 -7.170602083206176758e-01 1.000000000000000000e+01
2.377096891403197798e+00 -3.934345722198485884e+00 -7.280460000038146973e-01 1.000000000000000000e+01
2.980412721633911133e+00 -4.936789512634277344e+00 -7.080608606338500977e-01 1.600000000000000000e+01
4.189793586730957031e+00 -6.942759990692138672e+00 -7.094477415084838867e-01 6.000000000000000000e+00
2.533024215698241832e+01 -4.202358245849608664e+01 1.132808494567870916e+01 1.400000000000000000e+01
2.629422378540039062e+01 -4.365731430053710938e+01 1.365581035614014027e+01 1.600000000000000000e+01
1.372669577598571999e+00 -2.285409212112427202e+00 -7.143405675888061523e-01 1.500000000000000000e+01
1.588436126708983931e+00 -2.646739721298218218e+00 -7.126449346542358398e-01 1.000000000000000000e+01
1.894714355468750000e+00 -3.158326625823975053e+00 -7.159153223037719727e-01 1.100000000000000000e+01
2.373505115509033203e+00 -3.959562301635742188e+00 -7.311747074127197266e-01 1.100000000000000000e+01
2.953981637954711914e+00 -4.931836128234863281e+00 -7.058672308921813965e-01 2.000000000000000000e+01
4.182932376861572266e+00 -6.986402988433837891e+00 -7.124110460281372070e-01 8.000000000000000000e+00
2.528341674804687855e+01 -4.227899551391602273e+01 1.137307548522949041e+01 1.400000000000000000e+01
2.611560630798339844e+01 -4.368789291381835938e+01 1.363821029663085938e+01 1.600000000000000000e+01
1.354794621467590110e+00 -2.273591279983520952e+00 -7.091642022132873535e-01 1.600000000000000000e+01
1.581181526184082031e+00 -2.655617237091064009e+00 -7.135447263717651367e-01 1.000000000000000000e+01
1.882674098014831987e+00 -3.163233995437622070e+00 -7.155337333679199219e-01 1.100000000000000000e+01
2.353610992431641069e+00 -3.957636117935181108e+00 -7.292974591255187988e-01 1.000000000000000000e+01
2.395430946350098012e+01 -4.029557800292968750e+01 5.755888938903808594e+00 4.300000000000000000e+01
2.925593614578247070e+00 -4.923345565795898438e+00 -7.031860947608947754e-01 1.500000000000000000e+01
4.146309375762938565e+00 -6.980405807495117188e+00 -7.103192806243896484e-01 9.000000000000000000e+00
1.429078292846680043e+01 -2.407799339294433949e+01 -1.467395544052124023e+00 1.300000000000000000e+01
1.349214553833008035e+00 -2.281397104263306108e+00 -7.101994752883911133e-01 1.500000000000000000e+01
1.578314900398253950e+00 -2.670912265777587891e+00 -7.162441611289978027e-01 1.000000000000000000e+01
1.874171018600464089e+00 -3.172840595245360884e+00 -7.162969708442687988e-01 1.000000000000000000e+01
2.344490289688109907e+00 -3.972223997116088867e+00 -7.305489778518676758e-01 1.100000000000000000e+01
2.891099691390991211e+00 -4.902242183685302734e+00 -6.987988352775573730e-01 1.400000000000000000e+01
4.102902889251708984e+00 -6.959790229797363281e+00 -7.068330645561218262e-01 6.000000000000000000e+00
1.416017436981200994e+01 -2.403920555114746094e+01 -1.462161898612976074e+00 1.300000000000000000e+01
2.601361083984375000e+01 -4.419762039184570312e+01 1.374173831939697088e+01 1.600000000000000000e+01
1.336354851722717063e+00 -2.277761697769165039e+00 -7.076112627983093262e-01 1.400000000000000000e+01
1.569967627525330034e+00 -2.678086519241333008e+00 -7.166940569877624512e-01 1.000000000000000000e+01
1.863084316253662109e+00 -3.179363250732421875e+00 -7.162969708442687988e-01 1.000000000000000000e+01
2.322625398635863814e+00 -3.966746330261230025e+00 -7.280460000038146973e-01 1.000000000000000000e+01
2.919079542160034180e+00 -4.989407062530517578e+00 -7.097670435905456543e-01 1.800000000000000000e+01
4.007170677185058594e+00 -6.851958751678466797e+00 -6.944569349288940430e-01 4.000000000000000000e+00
1.404594516754150035e+01 -2.403675460815430043e+01 -1.459021806716918945e+00 1.300000000000000000e+01
2.593713760375976918e+01 -4.443949127197266336e+01 1.378729057312012074e+01 1.600000000000000000e+01
1.335198163986206055e+00 -2.294100046157836914e+00 -7.112347483634948730e-01 1.500000000000000000e+01
1.551792860031127930e+00 -2.668389081954956055e+00 -7.126449346542358398e-01 1.000000000000000000e+01
1.855921626091002974e+00 -3.192636489868164062e+00 -7.178234457969665527e-01 1.000000000000000000e+01
2.313725471496582031e+00 -3.983370304107666016e+00 -7.296103239059448242e-01 1.100000000000000000e+01
2.852819681167602983e+00 -4.915438652038574219e+00 -6.978238821029663086e-01 1.400000000000000000e+01
4.035218238830566406e+00 -6.955519676208496094e+00 -7.035211324691772461e-01 6.000000000000000000e+00
1.392589664459229049e+01 -2.402343177795410156e+01 -1.455253601074218972e+00 1.300000000000000000e+01
1.322352409362792969e+00 -2.290381669998168945e+00 -7.086465358734130859e-01 1.300000000000000000e+01
1.548311591148376021e+00 -2.683917522430419922e+00 -7.153443694114685059e-01 1.100000000000000000e+01
1.848688840866089089e+00 -3.205898523330688032e+00 -7.193499207496643066e-01 1.000000000000000000e+01
2.304737806320189986e+00 -3.999980449676514116e+00 -7.311747074127197266e-01 1.100000000000000000e+01
2.840596437454224077e+00 -4.933968544006347656e+00 -6.990425586700439453e-01 1.500000000000000000e+01
4.002964019775390625e+00 -6.955748081207275391e+00 -7.021266818046569824e-01 5.000000000000000000e+00
1.380810356140137074e+01 -2.401302719116210938e+01 -1.451694726943969949e+00 1.300000000000000000e+01
2.627281188964844105e+01 -4.574523162841796875e+01 1.413514328002930043e+01 1.700000000000000000e+01
1.320109963417053001e+00 -2.305042028427124023e+00 -7.117523550987243652e-01 1.400000000000000000e+01
1.540869355201720969e+00 -2.692688703536986861e+00 -7.162441611289978027e-01 1.000000000000000000e+01
1.828713774681091087e+00 -3.196994781494141069e+00 -7.159153223037719727e-01 1.000000000000000000e+01
2.294682264328002930e+00 -4.014861106872558594e+00 -7.324261665344238281e-01 1.100000000000000000e+01
2.848951816558837891e+00 -4.988672733306884766e+00 -7.053797841072082520e-01 1.800000000000000000e+01
3.958904504776000977e+00 -6.935072422027587891e+00 -6.986404061317443848e-01 4.000000000000000000e+00
1.370836544036865057e+01 -2.403332328796387074e+01 -1.450019955635071023e+00 1.300000000000000000e+01
1.307284712791443093e+00 -2.301237344741820845e+00 -7.091642022132873535e-01 1.500000000000000000e+01
1.531460762023926003e+00 -2.698050737380981001e+00 -7.162441611289978027e-01 1.100000000000000000e+01
1.822387218475342019e+00 -3.211896419525146040e+00 -7.178234457969665527e-01 1.000000000000000000e+01
2.281627893447875977e+00 -4.024565219879150391e+00 -7.327390313148498535e-01 1.200000000000000000e+01
2.812930822372436968e+00 -4.965769767761229581e+00 -7.007487416267395020e-01 1.700000000000000000e+01
