-1.111440062522887962e+00 -1.049934864044189009e+00 -2.421605587005614957e-01 5.300000000000000000e+01
-1.128822803497314009e+00 -1.065610289573668990e+00 -1.906036585569381991e-01 4.800000000000000000e+01
-1.133159041404723899e+00 -1.069329619407654031e+00 -1.363115757703781128e-01 6.000000000000000000e+01
-1.145021200180053933e+00 -1.079768180847167969e+00 -8.248146623373031616e-02 5.300000000000000000e+01
-1.158437728881835938e+00 -1.091656565666198953e+00 -2.778423018753528942e-02 4.300000000000000000e+01
-1.233017325401305930e+00 -1.161936759948730025e+00 4.539686143398284912e-01 5.200000000000000000e+01
-1.126237988471985085e+00 -1.058347940444946067e+00 -4.141104817390441895e-01 5.200000000000000000e+01
-1.126512289047240989e+00 -1.057865500450134055e+00 -3.567723631858826239e-01 6.100000000000000000e+01
-1.117911934852600098e+00 -1.049422144889831987e+00 -2.980436384677886963e-01 6.100000000000000000e+01
-1.119420409202575906e+00 -1.050103187561034934e+00 -2.430991530418395996e-01 5.500000000000000000e+01
-1.129639148712157981e+00 -1.058948159217834029e+00 -1.901161819696426114e-01 4.500000000000000000e+01
-1.154330611228943093e+00 -1.081715941429137962e+00 -1.384033262729645053e-01 6.000000000000000000e+01
-1.144409775733947976e+00 -1.071669220924376997e+00 -8.216745406389236450e-02 4.000000000000000000e+01
-1.187063097953795943e+00 -1.110834002494812012e+00 -2.837761305272578846e-02 9.000000000000000000e+00
-1.244321703910828081e+00 -1.164008378982543945e+00 4.565567970275878906e-01 4.700000000000000000e+01
-1.137357831001281960e+00 -1.060603380203247070e+00 -4.166986644268035889e-01 5.200000000000000000e+01
-1.129140257835387962e+00 -1.052203655242919922e+00 -3.563224673271179199e-01 5.900000000000000000e+01
-1.123369812965393066e+00 -1.046460151672363059e+00 -2.984252572059630793e-01 5.800000000000000000e+01
-1.132119417190551980e+00 -1.053872942924499956e+00 -2.449763715267181119e-01 6.000000000000000000e+01
-1.140964150428771973e+00 -1.061363101005553977e+00 -1.913348734378814975e-01 4.200000000000000000e+01
-1.177443027496337891e+00 -1.094913721084594949e+00 -1.406693756580353061e-01 4.600000000000000000e+01
-2.988116645812987926e+01 -2.774786186218262074e+01 -7.117789387702941895e-01 9.000000000000000000e+00
-1.254242181777954102e+00 -1.164698123931884988e+00 4.586273431777954102e-01 4.500000000000000000e+01
-1.136800765991210938e+00 -1.052688956260680930e+00 -4.151457548141478937e-01 5.200000000000000000e+01
-1.138527512550354004e+00 -1.053550004959106001e+00 -3.581220805644989014e-01 5.900000000000000000e+01
-1.128456950187683105e+00 -1.043865561485290971e+00 -2.988068759441375732e-01 5.600000000000000000e+01
-1.135791301727294922e+00 -1.049914598464966042e+00 -2.449763715267181119e-01 5.600000000000000000e+01
-1.153411030769347922e+00 -1.065455794334412065e+00 -1.927973031997680942e-01 1.000000000000000000e+01
-3.007192802429198863e+01 -2.773014640808105113e+01 -7.140128612518310547e-01 9.000000000000000000e+00
-1.254039406776428001e+00 -1.156384110450745073e+00 4.570744335651398260e-01 4.300000000000000000e+01
-1.143312454223633035e+00 -1.051329612731934038e+00 -4.161810278892517090e-01 5.000000000000000000e+01
-1.150807619094849077e+00 -1.057480812072753906e+00 -3.608214855194091797e-01 5.800000000000000000e+01
-1.137877225875854048e+00 -1.045232653617859109e+00 -3.003333508968353271e-01 5.500000000000000000e+01
-1.137994050979614036e+00 -1.044607758522033913e+00 -2.446635067462920865e-01 4.500000000000000000e+01
-4.792333126068115234e+00 -4.395982742309570312e+00 -7.984879612922668457e-01 1.000000000000000000e+01
-5.866551876068115234e+00 -5.379473209381104404e+00 -6.963743567466735840e-01 5.000000000000000000e+00
-3.026292800903319957e+01 -2.771143722534180043e+01 -7.162467837333679199e-01 1.000000000000000000e+01
-1.258068323135375977e+00 -1.151999592781066895e+00 4.570744335651398260e-01 5.000000000000000000e+01
-1.149828433990478960e+00 -1.049937605857848899e+00 -4.172163009643555243e-01 5.000000000000000000e+01
-1.160250067710876021e+00 -1.058711409568787065e+00 -3.626210987567902166e-01 5.500000000000000000e+01
-1.156023502349853960e+00 -1.054485082626342995e+00 -3.041495382785797119e-01 5.600000000000000000e+01
-1.143093347549438032e+00 -1.041959762573241965e+00 -2.449763715267181119e-01 2.800000000000000000e+01
-4.850207328796386719e+00 -4.417993545532226562e+00 -8.055563569068908691e-01 1.200000000000000000e+01
-5.936854839324951172e+00 -5.405911922454833984e+00 -7.024753093719482422e-01 5.000000000000000000e+00
-3.048671340942383168e+01 -2.772132682800292969e+01 -7.192485928535461426e-01 1.000000000000000000e+01
-1.265141248703002930e+00 -1.149979591369628906e+00 4.581097066402434748e-01 5.100000000000000000e+01
-1.154917597770690918e+00 -1.047215223312377930e+00 -4.177339375019072931e-01 4.900000000000000000e+01
-1.150941729545593040e+00 -1.042878389358520952e+00 -3.585719764232634943e-01 5.000000000000000000e+01
-1.166972637176513894e+00 -1.057033300399780051e+00 -3.060576319694519043e-01 4.800000000000000000e+01
-3.567584037780762163e+00 -3.229219198226929155e+00 -7.621487379074096680e-01 1.200000000000000000e+01
-4.858238697052001953e+00 -4.394378185272216797e+00 -8.043376803398132324e-01 1.000000000000000000e+01
-5.943866252899169922e+00 -5.374464988708496094e+00 -7.010807991027832031e-01 5.000000000000000000e+00
-3.073171234130859020e+01 -2.774875259399414062e+01 -7.227390408515930176e-01 1.000000000000000000e+01
-1.278984665870666948e+00 -1.154840588569640891e+00 4.617331624031066895e-01 3.700000000000000000e+01
-1.172922372817992942e+00 -1.056104063987731934e+00 -4.229103326797484796e-01 4.100000000000000000e+01
-1.167612910270690918e+00 -1.050585627555846946e+00 -3.626210987567902166e-01 4.600000000000000000e+01
-1.176494002342223899e+00 -1.058205008506774902e+00 -3.075841069221497137e-01 1.400000000000000000e+01
-3.570019721984862837e+00 -3.208823442459106001e+00 -7.602714896202087402e-01 1.200000000000000000e+01
-4.885362625122070312e+00 -4.388004779815673828e+00 -8.062875866889953613e-01 1.000000000000000000e+01
-5.958142757415770596e+00 -5.349691390991210938e+00 -7.005578875541687012e-01 6.000000000000000000e+00
-3.085220718383789062e+01 -2.766267013549805043e+01 -7.232975363731384277e-01 1.000000000000000000e+01
-1.297391533851623979e+00 -1.163265585899353027e+00 4.669095575809478760e-01 2.400000000000000000e+01
-1.192257285118103027e+00 -1.066375613212585005e+00 -4.286043345928192139e-01 3.900000000000000000e+01
-1.181261062622070090e+00 -1.055798411369323953e+00 -3.657703995704650879e-01 3.300000000000000000e+01
-2.848974466323852983e+00 -2.545488357543944868e+00 -7.426286339759826660e-01 1.200000000000000000e+01
-3.593902349472045898e+00 -3.208807706832886186e+00 -7.630873322486877441e-01 1.200000000000000000e+01
-4.904330730438232422e+00 -4.375744819641113281e+00 -8.070188164710998535e-01 1.000000000000000000e+01
-5.987745761871337891e+00 -5.340513229370117188e+00 -7.019523382186889648e-01 5.000000000000000000e+00
-3.104531288146973012e+01 -2.765064811706542969e+01 -7.256710529327392578e-01 1.000000000000000000e+01
-1.308658361434936968e+00 -1.165152907371520996e+00 4.694977402687072754e-01 1.200000000000000000e+01
-1.200305581092834029e+00 -1.066055893898010032e+00 -4.301572442054749090e-01 4.100000000000000000e+01
-1.196599245071410911e+00 -1.062017083168030007e+00 -3.693696260452271063e-01 5.000000000000000000e+00
-2.859311103820800781e+00 -2.536830902099608931e+00 -7.430102229118347168e-01 1.300000000000000000e+01
-3.600647211074829102e+00 -3.192311763763428178e+00 -7.621487379074096680e-01 1.200000000000000000e+01
-4.931461811065673828e+00 -4.369130134582520419e+00 -8.089687228202819824e-01 8.000000000000000000e+00
-5.982486724853515625e+00 -5.298443794250488281e+00 -6.991633772850036621e-01 8.000000000000000000e+00
-3.132738494873046875e+01 -2.770638275146484020e+01 -7.299992442131042480e-01 1.000000000000000000e+01
-1.321401476860045943e+00 -1.168255209922790971e+00 4.726035892963408869e-01 1.100000000000000000e+01
-1.209815025329590066e+00 -1.066970825195312944e+00 -4.322278201580048163e-01 8.000000000000000000e+00
-2.393288135528564009e+00 -2.109225034713745117e+00 -7.364897727966308594e-01 1.300000000000000000e+01
-2.875514507293701172e+00 -2.533323764801024947e+00 -7.449183464050292969e-01 1.400000000000000000e+01
-3.595459222793579102e+00 -3.165365219116210938e+00 -7.587071657180786133e-01 1.200000000000000000e+01
-4.946682929992675781e+00 -4.351889610290527344e+00 -8.089687228202819824e-01 8.000000000000000000e+00
-5.997952938079833984e+00 -5.274897575378417969e+00 -6.988147497177124023e-01 6.000000000000000000e+00
-3.142991638183594105e+01 -2.760213851928710938e+01 -7.301388978958129883e-01 1.000000000000000000e+01
-1.338537335395812988e+00 -1.175106167793273926e+00 4.772623181343079168e-01 1.300000000000000000e+01
-1.262945413589477983e+00 -1.106014490127563032e+00 -4.498274922370911200e-01 1.000000000000000000e+00
-2.387437820434569868e+00 -2.089307785034180132e+00 -7.324406504631042480e-01 1.300000000000000000e+01
-2.881384611129761186e+00 -2.520685434341431108e+00 -7.441551089286804199e-01 1.400000000000000000e+01
-3.618384122848511186e+00 -3.163196563720703125e+00 -7.612100839614868164e-01 1.100000000000000000e+01
-4.964833736419677734e+00 -4.337207794189453125e+00 -8.094561696052551270e-01 8.000000000000000000e+00
-6.049344539642333984e+00 -5.282760143280029297e+00 -7.026495933532714844e-01 8.000000000000000000e+00
-3.161951637268066051e+01 -2.757374572753905895e+01 -7.323029637336730957e-01 1.000000000000000000e+01
-1.354280829429626021e+00 -1.180582165718079057e+00 4.814034104347229004e-01 1.900000000000000000e+01
-2.053991794586182085e+00 -1.786137342453002930e+00 -7.293520569801330566e-01 3.100000000000000000e+01
-2.403542041778564009e+00 -2.088630914688109907e+00 -7.351400256156921387e-01 1.200000000000000000e+01
-2.888683795928955078e+00 -2.509324789047241211e+00 -7.437734603881835938e-01 1.300000000000000000e+01
-3.620453119277954102e+00 -3.142777204513549805e+00 -7.593328952789306641e-01 1.100000000000000000e+01
-4.973944664001464844e+00 -4.314647674560546875e+00 -8.084812164306640625e-01 8.000000000000000000e+00
-6.058716773986816406e+00 -5.253780364990234375e+00 -7.016037106513977051e-01 7.000000000000000000e+00
-3.183953475952148082e+01 -2.757054519653319957e+01 -7.351651787757873535e-01 2.000000000000000000e+01
-1.374252915382385032e+00 -1.189995408058166948e+00 4.870974421501160223e-01 2.900000000000000000e+01
-2.060214281082152876e+00 -1.778956770896912065e+00 -7.293520569801330566e-01 3.100000000000000000e+01
-2.412293434143065962e+00 -2.081501245498656782e+00 -7.355899214744567871e-01 1.400000000000000000e+01
-2.891479015350341797e+00 -2.494096755981444868e+00 -7.422469854354858398e-01 1.300000000000000000e+01
-3.640378952026367188e+00 -3.137858390808105025e+00 -7.612100839614868164e-01 1.100000000000000000e+01
-4.987471580505371094e+00 -4.295963764190673828e+00 -8.082374930381774902e-01 1.000000000000000000e+01
-6.089097499847412109e+00 -5.242999553680419922e+00 -7.029982209205627441e-01 9.000000000000000000e+00
-3.203261947631835938e+01 -2.754267501831055043e+01 -7.373991012573242188e-01 1.000000000000000000e+01
-1.378605246543884055e+00 -1.184950590133666992e+00 4.870974421501160223e-01 4.400000000000000000e+01
-2.057303905487060991e+00 -1.764568805694580078e+00 -7.262462377548217773e-01 3.100000000000000000e+01
-2.428060531616210938e+00 -2.081099510192871094e+00 -7.382893562316894531e-01 1.400000000000000000e+01
-2.901224613189696822e+00 -2.485772132873535156e+00 -7.426286339759826660e-01 1.200000000000000000e+01
-3.644762516021728960e+00 -3.120630264282227007e+00 -7.599586248397827148e-01 1.100000000000000000e+01
-4.988114833831787109e+00 -4.267786502838134766e+00 -8.060438632965087891e-01 1.000000000000000000e+01
-6.112506866455078125e+00 -5.227958679199218750e+00 -7.036954760551452637e-01 7.000000000000000000e+00
-3.232145309448242188e+01 -2.760513114929198863e+01 -7.419366836547851562e-01 1.000000000000000000e+01
-1.386728048324584961e+00 -1.184377551078795943e+00 4.886503517627716064e-01 4.700000000000000000e+01
-2.063450813293457031e+00 -1.757376670837401900e+00 -7.262462377548217773e-01 3.100000000000000000e+01
-2.429373979568481001e+00 -2.067559242248535156e+00 -7.364897727966308594e-01 1.400000000000000000e+01
-2.914369821548461914e+00 -2.479446172714232954e+00 -7.437734603881835938e-01 1.300000000000000000e+01
-3.646603345870972124e+00 -3.100211858749390093e+00 -7.580814361572265625e-01 1.100000000000000000e+01
-5.012058734893798828e+00 -4.258059978485107422e+00 -8.075062632560729980e-01 1.000000000000000000e+01
-6.124643802642822266e+00 -5.201431274414063388e+00 -7.029982209205627441e-01 8.000000000000000000e+00
-3.260673141479492188e+01 -2.765251922607421875e+01 -7.462648749351501465e-01 1.000000000000000000e+01
-1.395480394363403098e+00 -1.183034777641295943e+00 4.902032613754271906e-01 2.900000000000000000e+01
-2.079898357391356978e+00 -1.758895277976989968e+00 -7.298697233200073242e-01 2.700000000000000000e+01
-2.426157236099243164e+00 -2.050261735916138139e+00 -7.333404421806335449e-01 1.500000000000000000e+01
-2.930505752563477007e+00 -2.475592613220214844e+00 -7.456815242767333984e-01 1.300000000000000000e+01
-3.645327091217041016e+00 -3.077270030975341797e+00 -7.555784583091735840e-01 1.100000000000000000e+01
-5.025374412536621094e+00 -4.239258766174316406e+00 -8.072625398635864258e-01 7.000000000000000000e+00
-6.183887481689453125e+00 -5.214699268341063565e+00 -7.077046036720275879e-01 6.000000000000000000e+00
-3.277341842651367188e+01 -2.759778213500976918e+01 -7.478705048561096191e-01 1.000000000000000000e+01
-1.397918105125427024e+00 -1.177156329154968040e+00 4.896856248378754217e-01 9.000000000000000000e+00
-2.088984251022338867e+00 -1.754109025001526101e+00 -7.309049963951110840e-01 2.400000000000000000e+01
-2.436284780502318892e+00 -2.044285535812377930e+00 -7.342402338981628418e-01 1.600000000000000000e+01
-2.922583580017089844e+00 -2.451469659805297852e+00 -7.414837479591369629e-01 1.200000000000000000e+01
-3.677241086959838867e+00 -3.082292079925537109e+00 -7.599586248397827148e-01 1.100000000000000000e+01
-5.035576343536376953e+00 -4.217867374420166016e+00 -8.065313100814819336e-01 8.000000000000000000e+00
-6.165390014648438388e+00 -5.162384033203125000e+00 -7.035211324691772461e-01 7.000000000000000000e+00
-3.294625854492188211e+01 -2.754734802246094105e+01 -7.496157884597778320e-01 1.000000000000000000e+01
-1.412599086761475053e+00 -1.180697321891784890e+00 4.933091104030609131e-01 1.000000000000000000e+00
-2.089159488677978960e+00 -1.741857886314392090e+00 -7.288344502449035645e-01 2.100000000000000000e+01
-2.449394464492797852e+00 -2.040758609771728960e+00 -7.360398769378662109e-01 1.500000000000000000e+01
-2.934139966964722124e+00 -2.443765878677368164e+00 -7.422469854354858398e-01 1.200000000000000000e+01
-3.684941291809082031e+00 -3.066910028457642046e+00 -7.593328952789306641e-01 1.100000000000000000e+01
-5.051795005798339844e+00 -4.201533317565917969e+00 -8.067750334739685059e-01 7.000000000000000000e+00
-6.218609809875488281e+00 -5.170127391815186435e+00 -7.075303196907043457e-01 6.000000000000000000e+00
-3.308837509155272727e+01 -2.747049713134765980e+01 -7.506629228591918945e-01 1.000000000000000000e+01
-2.083322286605834961e+00 -1.724699378013611062e+00 -7.246932983398437500e-01 2.100000000000000000e+01
-2.453500032424927202e+00 -2.029711723327637163e+00 -7.351400256156921387e-01 1.500000000000000000e+01
-2.936600685119628906e+00 -2.428504228591918945e+00 -7.407205104827880859e-01 1.200000000000000000e+01
-3.701715230941772017e+00 -3.059062004089355025e+00 -7.605843544006347656e-01 1.100000000000000000e+01
-5.037347793579101562e+00 -4.159857749938964844e+00 -8.021439909934997559e-01 1.000000000000000000e+01
-6.247374534606933594e+00 -5.157267570495604581e+00 -7.087504863739013672e-01 6.000000000000000000e+00
-3.332293319702147727e+01 -2.746930694580078125e+01 -7.538043260574340820e-01 1.000000000000000000e+01
-2.095299482345581055e+00 -1.722323536872863992e+00 -7.267639040946960449e-01 2.400000000000000000e+01
-2.465087890625000000e+00 -2.024845838546752930e+00 -7.364897727966308594e-01 1.700000000000000000e+01
-2.946577310562133789e+00 -2.419484615325928178e+00 -7.411021590232849121e-01 1.300000000000000000e+01
-3.697099924087523970e+00 -3.033591508865356001e+00 -7.574557065963745117e-01 1.100000000000000000e+01
-5.090213775634765625e+00 -4.173715114593505859e+00 -8.082374930381774902e-01 7.000000000000000000e+00
-6.310025215148925781e+00 -5.172056198120117188e+00 -7.138055562973022461e-01 6.000000000000000000e+00
-3.366620635986328125e+01 -2.755547142028808949e+01 -7.593891024589538574e-01 1.100000000000000000e+01
-2.107285261154174805e+00 -1.719885230064392090e+00 -7.288344502449035645e-01 2.500000000000000000e+01
-2.461569547653197798e+00 -2.007607221603393999e+00 -7.333404421806335449e-01 1.500000000000000000e+01
-2.962613105773925781e+00 -2.415387392044066939e+00 -7.430102229118347168e-01 1.200000000000000000e+01
-3.716855287551879883e+00 -3.028153896331787109e+00 -7.593328952789306641e-01 1.100000000000000000e+01
-5.072423934936523438e+00 -4.129602432250976562e+00 -8.031189441680908203e-01 8.000000000000000000e+00
-6.320313930511474609e+00 -5.143710613250732422e+00 -7.129339575767517090e-01 6.000000000000000000e+00
-3.385219573974608664e+01 -2.751093292236328125e+01 -7.614135742187500000e-01 1.100000000000000000e+01
-2.113276004791260210e+00 -1.712518930435181108e+00 -7.288344502449035645e-01 2.100000000000000000e+01
-2.464019060134888139e+00 -1.995323300361633079e+00 -7.319907546043395996e-01 1.600000000000000000e+01
-2.957292795181273970e+00 -2.393913984298706055e+00 -7.395756840705871582e-01 1.200000000000000000e+01
-3.730474472045897993e+00 -3.017645835876464844e+00 -7.599586248397827148e-01 1.100000000000000000e+01
-5.089895725250244141e+00 -4.114367008209229404e+00 -8.036064505577087402e-01 1.000000000000000000e+01
-6.407966136932373047e+00 -5.177967548370361328e+00 -7.207779884338378906e-01 6.000000000000000000e+00
-3.409119415283203125e+01 -2.750812721252441051e+01 -7.646248340606689453e-01 1.100000000000000000e+01
-2.116230726242064986e+00 -1.702709674835205078e+00 -7.277991771697998047e-01 2.200000000000000000e+01
-2.480081558227539062e+00 -1.994036674499511941e+00 -7.346901297569274902e-01 1.700000000000000000e+01
-2.965631008148192915e+00 -2.383576393127440962e+00 -7.395756840705871582e-01 1.200000000000000000e+01
-3.740985393524169922e+00 -3.004605770111083984e+00 -7.599586248397827148e-01 1.100000000000000000e+01
-5.113515377044677734e+00 -4.104030132293701172e+00 -8.050689101219177246e-01 1.000000000000000000e+01
-6.433772087097167969e+00 -5.161801815032958984e+00 -7.216495275497436523e-01 8.000000000000000000e+00
-3.422134399414063211e+01 -2.741646575927734020e+01 -7.653927206993103027e-01 1.100000000000000000e+01
-2.120651960372924805e+00 -1.694106578826904075e+00 -7.272815108299255371e-01 2.000000000000000000e+01
-2.490072727203369141e+00 -1.987799048423767090e+00 -7.355899214744567871e-01 1.700000000000000000e+01
-2.973933219909667969e+00 -2.373209953308105025e+00 -7.395756840705871582e-01 1.200000000000000000e+01
-3.751450538635253906e+00 -2.991528987884521040e+00 -7.599586248397827148e-01 1.100000000000000000e+01
-5.134019851684570312e+00 -4.091104030609130859e+00 -8.060438632965087891e-01 8.000000000000000000e+00
-6.454867839813232422e+00 -5.141795158386229581e+00 -7.219981551170349121e-01 6.000000000000000000e+00
-3.449211502075195312e+01 -2.743626594543457031e+01 -7.693020701408386230e-01 1.100000000000000000e+01
-2.123525381088256836e+00 -1.684292793273926003e+00 -7.262462377548217773e-01 1.900000000000000000e+01
-2.492414712905883789e+00 -1.975463509559630904e+00 -7.342402338981628418e-01 1.800000000000000000e+01
-2.988354206085205078e+00 -2.367691278457642046e+00 -7.411021590232849121e-01 1.200000000000000000e+01
-3.752577781677246094e+00 -2.971058607101439986e+00 -7.580814361572265625e-01 1.100000000000000000e+01
-5.095338821411132812e+00 -4.031280994415283203e+00 -7.977567315101623535e-01 1.200000000000000000e+01
-6.496217250823974609e+00 -5.137771129608154297e+00 -7.246128320693969727e-01 7.000000000000000000e+00
-3.469124984741210938e+01 -2.739749717712401988e+01 -7.716057896614074707e-01 1.100000000000000000e+01
-2.132427215576171875e+00 -1.679260373115539995e+00 -7.272815108299255371e-01 1.700000000000000000e+01
-2.493169546127318892e+00 -1.961930871009827104e+00 -7.324406504631042480e-01 1.800000000000000000e+01
-3.002773046493529829e+00 -2.362100839614868164e+00 -7.426286339759826660e-01 1.100000000000000000e+01
-3.762925863265991211e+00 -2.957941532135010210e+00 -7.580814361572265625e-01 1.100000000000000000e+01
-5.128112316131591797e+00 -4.028184890747070312e+00 -8.006815910339355469e-01 1.000000000000000000e+01
-6.481204509735107422e+00 -5.089223861694335938e+00 -7.209523320198059082e-01 6.000000000000000000e+00
-1.280752658843993963e+01 -1.004960441589354936e+01 -8.531807661056518555e-01 4.000000000000000000e+00
-3.486535263061522727e+01 -2.733792877197265980e+01 -7.733510136604309082e-01 1.100000000000000000e+01
-2.142841815948485884e+00 -1.675376296043395996e+00 -7.288344502449035645e-01 1.900000000000000000e+01
-2.500002622604370117e+00 -1.953216195106505904e+00 -7.324406504631042480e-01 1.600000000000000000e+01
-2.998621940612792969e+00 -2.341937541961669922e+00 -7.395756840705871582e-01 1.100000000000000000e+01
-3.763884544372559038e+00 -2.937496423721313032e+00 -7.562041878700256348e-01 1.100000000000000000e+01
-5.153099536895751953e+00 -4.018805503845214844e+00 -8.023877739906311035e-01 1.000000000000000000e+01
-6.508357524871826172e+00 -5.073919296264648438e+00 -7.219981551170349121e-01 6.000000000000000000e+00
-3.511836242675781250e+01 -2.733889770507812855e+01 -7.768415212631225586e-01 1.100000000000000000e+01
-2.145915269851685014e+00 -1.665142536163330078e+00 -7.277991771697998047e-01 1.600000000000000000e+01
-2.508684873580933061e+00 -1.945234179496764915e+00 -7.328905463218688965e-01 1.600000000000000000e+01
-3.000978469848632812e+00 -2.326120138168334961e+00 -7.380492091178894043e-01 1.200000000000000000e+01
-3.787119150161743164e+00 -2.933358430862427202e+00 -7.587071657180786133e-01 1.100000000000000000e+01
-5.159945487976074219e+00 -3.993816137313843218e+00 -8.011690378189086914e-01 1.000000000000000000e+01
-6.460727691650390625e+00 -4.998823642730712891e+00 -7.146770954132080078e-01 6.000000000000000000e+00
-3.533542633056641336e+01 -2.730047035217285156e+01 -7.794244885444641113e-01 1.100000000000000000e+01
-2.144062757492064986e+00 -1.651746869087219016e+00 -7.252109646797180176e-01 1.500000000000000000e+01
-2.518548011779785156e+00 -1.938842892646789995e+00 -7.337903380393981934e-01 1.600000000000000000e+01
-3.012191772460937944e+00 -2.318025350570679155e+00 -7.388124465942382812e-01 1.100000000000000000e+01
-3.797335386276245117e+00 -2.920120954513549805e+00 -7.587071657180786133e-01 1.100000000000000000e+01
-5.162836551666259766e+00 -3.967313528060913086e+00 -7.994629144668579102e-01 8.000000000000000000e+00
-6.606120109558104581e+00 -5.074552059173583984e+00 -7.287963032722473145e-01 7.000000000000000000e+00
-7.093000411987304688e+00 -5.444617748260498047e+00 -4.686161577701569159e-01 3.000000000000000000e+00
-3.562725448608397727e+01 -2.732787704467773082e+01 -7.837526798248291016e-01 1.100000000000000000e+01
-2.149815320968627930e+00 -1.644252657890320046e+00 -7.252109646797180176e-01 1.600000000000000000e+01
-2.519107103347777876e+00 -1.925306320190429910e+00 -7.319907546043395996e-01 1.600000000000000000e+01
-3.028064966201781782e+00 -2.313456058502196822e+00 -7.407205104827880859e-01 1.200000000000000000e+01
-3.794944524765015093e+00 -2.897258520126343218e+00 -7.562041878700256348e-01 1.200000000000000000e+01
-5.176653861999511719e+00 -3.949267625808715820e+00 -7.994629144668579102e-01 1.000000000000000000e+01
-6.653894424438476562e+00 -5.074417114257813388e+00 -7.321082353591918945e-01 7.000000000000000000e+00
-3.588152313232421875e+01 -2.732449913024901988e+01 -7.872431278228759766e-01 1.100000000000000000e+01
-2.169389009475708008e+00 -1.647252678871155007e+00 -7.298697233200073242e-01 1.700000000000000000e+01
-2.522707462310791016e+00 -1.914145350456238015e+00 -7.310909032821655273e-01 1.400000000000000000e+01
-3.034557819366455078e+00 -2.301685571670531782e+00 -7.403389215469360352e-01 1.100000000000000000e+01
-3.800312042236328125e+00 -2.880414247512816939e+00 -7.552655935287475586e-01 1.200000000000000000e+01
-5.203067302703857422e+00 -3.940762042999268022e+00 -8.014128208160400391e-01 1.000000000000000000e+01
-6.587378025054931641e+00 -4.987419128417968750e+00 -7.228697538375854492e-01 7.000000000000000000e+00
-3.616809844970703125e+01 -2.734379768371582031e+01 -7.914317250251770020e-01 1.100000000000000000e+01
-2.174553394317626953e+00 -1.640429258346558061e+00 -7.298697233200073242e-01 1.700000000000000000e+01
-2.533376932144165039e+00 -1.909729838371277078e+00 -7.324406504631042480e-01 1.500000000000000000e+01
-3.043341636657714844e+00 -2.293322563171387163e+00 -7.407205104827880859e-01 1.200000000000000000e+01
-3.826700448989868164e+00 -2.881531953811645952e+00 -7.587071657180786133e-01 1.300000000000000000e+01
-5.161490917205811435e+00 -3.883815765380858931e+00 -7.931256890296936035e-01 1.000000000000000000e+01
-6.633266448974609375e+00 -4.989455223083496094e+00 -7.261816263198852539e-01 7.000000000000000000e+00
-3.632737350463867188e+01 -2.728528022766112926e+01 -7.930373549461364746e-01 1.100000000000000000e+01
-2.174081087112427202e+00 -1.628196597099303977e+00 -7.277991771697998047e-01 1.700000000000000000e+01
-2.540027618408203125e+00 -1.900874972343445046e+00 -7.324406504631042480e-01 1.500000000000000000e+01
-3.040324211120605025e+00 -2.274452924728393999e+00 -7.380492091178894043e-01 1.200000000000000000e+01
-3.831989288330078125e+00 -2.864608526229857954e+00 -7.577685713768005371e-01 1.200000000000000000e+01
-5.127305984497070312e+00 -3.830135107040404829e+00 -7.858135104179382324e-01 1.400000000000000000e+01
-6.720884323120117188e+00 -5.018722534179688388e+00 -7.338513731956481934e-01 8.000000000000000000e+00
-3.668851089477539062e+01 -2.735673522949219105e+01 -7.988315224647521973e-01 1.100000000000000000e+01
-2.171012401580810991e+00 -1.612924098968506081e+00 -7.246932983398437500e-01 1.700000000000000000e+01
-2.548872470855712891e+00 -1.892269611358643022e+00 -7.328905463218688965e-01 1.400000000000000000e+01
-3.061647415161132812e+00 -2.272122144699097124e+00 -7.411021590232849121e-01 1.100000000000000000e+01
-3.839786767959595171e+00 -2.847520351409912109e+00 -7.571427822113037109e-01 1.200000000000000000e+01
-5.116456508636474609e+00 -3.791509151458739790e+00 -7.819136977195739746e-01 1.400000000000000000e+01
-6.770524024963378906e+00 -5.015412330627441406e+00 -7.371632456779479980e-01 8.000000000000000000e+00
-3.692832946777343750e+01 -2.731555175781250000e+01 -8.017635345458984375e-01 1.200000000000000000e+01
-2.178184270858765093e+00 -1.606482744216918945e+00 -7.252109646797180176e-01 1.600000000000000000e+01
-2.553893566131591797e+00 -1.882204771041869895e+00 -7.324406504631042480e-01 1.300000000000000000e+01
-3.066398620605469194e+00 -2.259092330932617188e+00 -7.403389215469360352e-01 1.300000000000000000e+01
-3.840158462524414062e+00 -2.827072858810424805e+00 -7.552655935287475586e-01 1.300000000000000000e+01
-5.131258964538574219e+00 -3.774802684783935991e+00 -7.821574211120605469e-01 1.500000000000000000e+01
-6.810461044311523438e+00 -5.008273124694824219e+00 -7.396036386489868164e-01 6.000000000000000000e+00
-3.722653961181641336e+01 -2.733561134338378906e+01 -8.061615824699401855e-01 1.200000000000000000e+01
-2.194689750671387163e+00 -1.606858372688293013e+00 -7.288344502449035645e-01 1.900000000000000000e+01
-2.551011562347412109e+00 -1.866374492645263894e+00 -7.297412157058715820e-01 1.300000000000000000e+01
-3.075850248336791992e+00 -2.249533653259276900e+00 -7.407205104827880859e-01 1.200000000000000000e+01
-3.859572649002075195e+00 -2.820644378662108931e+00 -7.571427822113037109e-01 1.300000000000000000e+01
-5.184482097625732422e+00 -3.786136388778686968e+00 -7.882509231567382812e-01 1.500000000000000000e+01
-6.892270565032958984e+00 -5.031459808349609375e+00 -7.465760707855224609e-01 6.000000000000000000e+00
-3.744131088256835938e+01 -2.729266738891601918e+01 -8.087444901466369629e-01 1.200000000000000000e+01
-2.198722600936890093e+00 -1.598051905632019043e+00 -7.283167839050292969e-01 1.900000000000000000e+01
-2.560664415359497070e+00 -1.859748840332031028e+00 -7.306410074234008789e-01 1.200000000000000000e+01
-3.077329158782958984e+00 -2.234169721603393999e+00 -7.391940355300903320e-01 1.200000000000000000e+01
-3.859801292419434038e+00 -2.800194978713988814e+00 -7.552655935287475586e-01 1.200000000000000000e+01
-5.207309722900390625e+00 -3.775006771087646040e+00 -7.897133231163024902e-01 1.900000000000000000e+01
-6.971096992492675781e+00 -5.051797389984130859e+00 -7.531999349594116211e-01 6.000000000000000000e+00
-3.781824111938477273e+01 -2.736578369140625000e+01 -8.148179650306701660e-01 1.200000000000000000e+01
-2.199587345123291016e+00 -1.586976170539855957e+00 -7.267639040946960449e-01 1.700000000000000000e+01
-2.563978910446166992e+00 -1.848519802093506081e+00 -7.297412157058715820e-01 1.300000000000000000e+01
-3.078738212585449219e+00 -2.218822717666625977e+00 -7.376675605773925781e-01 1.200000000000000000e+01
-3.880773067474364790e+00 -2.794785261154174805e+00 -7.574557065963745117e-01 1.100000000000000000e+01
-5.210787773132324219e+00 -3.749849796295166016e+00 -7.882509231567382812e-01 1.900000000000000000e+01
-6.991923332214354581e+00 -5.029759883880615234e+00 -7.535485625267028809e-01 7.000000000000000000e+00
-3.809218978881835938e+01 -2.736193466186523082e+01 -8.186574578285217285e-01 1.200000000000000000e+01
-2.198831319808959961e+00 -1.574789047241210938e+00 -7.246932983398437500e-01 1.800000000000000000e+01
-2.584678411483765093e+00 -1.849765777587891069e+00 -7.337903380393981934e-01 1.300000000000000000e+01
-3.088061332702637163e+00 -2.209204673767089844e+00 -7.380492091178894043e-01 1.200000000000000000e+01
-3.890505075454711914e+00 -2.781221866607666016e+00 -7.574557065963745117e-01 1.100000000000000000e+01
-5.283611297607421875e+00 -3.774331331253052202e+00 -7.972692251205444336e-01 1.000000000000000000e+01
-7.006195068359375000e+00 -5.003007411956787109e+00 -7.531999349594116211e-01 6.000000000000000000e+00
-3.825585174560546875e+01 -2.727756118774414062e+01 -8.201234936714172363e-01 1.200000000000000000e+01
-2.200892686843872070e+00 -1.565249562263488992e+00 -7.236580252647399902e-01 1.800000000000000000e+01
-2.590798139572143999e+00 -1.841184496879578081e+00 -7.337903380393981934e-01 1.300000000000000000e+01
-3.100171804428101030e+00 -2.202363014221190962e+00 -7.391940355300903320e-01 1.200000000000000000e+01
-3.880377054214477983e+00 -2.754583835601807085e+00 -7.537012696266174316e-01 1.100000000000000000e+01
-5.304193973541259766e+00 -3.762532234191894975e+00 -7.984879612922668457e-01 1.000000000000000000e+01
-7.042250156402587891e+00 -4.993576049804688388e+00 -7.552916407585144043e-01 6.000000000000000000e+00
-3.853867721557617188e+01 -2.728690338134765980e+01 -8.242422342300415039e-01 1.200000000000000000e+01
-2.209499359130858931e+00 -1.559785723686218040e+00 -7.246932983398437500e-01 1.800000000000000000e+01
-2.587655067443848100e+00 -1.825389742851257102e+00 -7.310909032821655273e-01 1.300000000000000000e+01
-3.112653970718383789e+00 -2.194922208786011186e+00 -7.403389215469360352e-01 1.200000000000000000e+01
-3.889968872070312944e+00 -2.741021871566772017e+00 -7.537012696266174316e-01 1.100000000000000000e+01
-5.320541381835938388e+00 -3.746279954910277876e+00 -7.989754080772399902e-01 8.000000000000000000e+00
-7.071043014526367188e+00 -4.976990699768066406e+00 -7.565118670463562012e-01 6.000000000000000000e+00
-3.889545822143554688e+01 -2.733618545532226918e+01 -8.298270106315612793e-01 1.200000000000000000e+01
-2.227314949035644975e+00 -1.561321377754210982e+00 -7.288344502449035645e-01 1.600000000000000000e+01
-2.592097759246826172e+00 -1.815680742263793945e+00 -7.306410074234008789e-01 1.300000000000000000e+01
-3.113482713699340820e+00 -2.180083990097045898e+00 -7.388124465942382812e-01 1.200000000000000000e+01
-3.902274131774901900e+00 -2.730372190475463867e+00 -7.543269991874694824e-01 1.100000000000000000e+01
-5.337815761566162109e+00 -3.732028245925902876e+00 -7.997066378593444824e-01 8.000000000000000000e+00
-7.129968166351318359e+00 -4.983190536499023438e+00 -7.610439658164978027e-01 6.000000000000000000e+00
-3.909084320068358664e+01 -2.728029441833496094e+01 -8.320609331130981445e-01 1.200000000000000000e+01
-2.231165647506713867e+00 -1.552433729171752930e+00 -7.283167839050292969e-01 1.600000000000000000e+01
-2.600019931793212891e+00 -1.807734012603759988e+00 -7.310909032821655273e-01 1.300000000000000000e+01
-3.121073484420775923e+00 -2.169202566146851030e+00 -7.388124465942382812e-01 1.200000000000000000e+01
-3.921515941619873047e+00 -2.723495006561278853e+00 -7.562041878700256348e-01 1.100000000000000000e+01
-5.341025352478027344e+00 -3.706582307815552202e+00 -7.982441782951354980e-01 1.000000000000000000e+01
-7.134222984313964844e+00 -4.949186801910400391e+00 -7.596494555473327637e-01 6.000000000000000000e+00
-3.937651824951171875e+01 -2.727576255798339844e+01 -8.361098766326904297e-01 1.200000000000000000e+01
-2.222800254821776900e+00 -1.533979773521422896e+00 -7.236580252647399902e-01 1.800000000000000000e+01
-2.616567611694335938e+00 -1.804375171661376953e+00 -7.337903380393981934e-01 1.100000000000000000e+01
-3.124530315399169922e+00 -2.153859853744506836e+00 -7.376675605773925781e-01 1.200000000000000000e+01
-3.915676593780518022e+00 -2.697211742401123047e+00 -7.530755400657653809e-01 1.100000000000000000e+01
-5.365029335021972656e+00 -3.692800045013428178e+00 -7.997066378593444824e-01 1.000000000000000000e+01
-7.153173923492431641e+00 -4.921756744384765625e+00 -7.596494555473327637e-01 6.000000000000000000e+00
-3.968533706665039062e+01 -2.726477813720703125e+01 -8.404380679130554199e-01 1.200000000000000000e+01
-2.229735136032104048e+00 -1.527303218841552956e+00 -7.241756916046142578e-01 1.900000000000000000e+01
-2.608376979827880859e+00 -1.785324454307555930e+00 -7.297412157058715820e-01 1.200000000000000000e+01
-3.133650064468383789e+00 -2.144048690795897993e+00 -7.380492091178894043e-01 1.200000000000000000e+01
-3.926698446273804155e+00 -2.684641838073730025e+00 -7.533884048461914062e-01 9.000000000000000000e+00
-5.372969627380371094e+00 -3.670690536499022993e+00 -7.989754080772399902e-01 1.200000000000000000e+01
-7.139049530029296875e+00 -4.875408649444580078e+00 -7.563375234603881836e-01 6.000000000000000000e+00
-9.118089675903320312e+00 -6.222271442413330078e+00 -5.785216689109802246e-01 3.000000000000000000e+00
-3.988930511474608664e+01 -2.720043945312500000e+01 -8.427417874336242676e-01 1.300000000000000000e+01
-2.246236085891724077e+00 -1.527113676071166992e+00 -7.277991771697998047e-01 1.700000000000000000e+01
-2.612981081008911133e+00 -1.775113463401793990e+00 -7.292913198471069336e-01 1.200000000000000000e+01
-3.145987510681151900e+00 -2.136405944824219194e+00 -7.391940355300903320e-01 1.200000000000000000e+01
-3.931141853332519975e+00 -2.667591094970703125e+00 -7.524497509002685547e-01 1.100000000000000000e+01
-5.369320392608642578e+00 -3.640772342681885210e+00 -7.965380549430847168e-01 1.200000000000000000e+01
-7.139532089233398438e+00 -4.839280128479003906e+00 -7.545944452285766602e-01 5.000000000000000000e+00
-9.172827720642089844e+00 -6.212806224822998047e+00 -5.806151032447814941e-01 3.000000000000000000e+00
-4.018936157226563211e+01 -2.720001602172851918e+01 -8.470699787139892578e-01 1.300000000000000000e+01
-2.254755735397338867e+00 -1.521424651145935059e+00 -7.288344502449035645e-01 1.800000000000000000e+01
-2.617545604705810991e+00 -1.764892220497130904e+00 -7.288414239883422852e-01 1.200000000000000000e+01
-3.155053853988647017e+00 -2.126508712768555132e+00 -7.395756840705871582e-01 1.200000000000000000e+01
-3.943706512451171875e+00 -2.656059741973876953e+00 -7.530755400657653809e-01 1.100000000000000000e+01
-5.375408649444580078e+00 -3.617574453353881836e+00 -7.955631017684936523e-01 1.200000000000000000e+01
-7.252262115478515625e+00 -4.878831863403320312e+00 -7.647044658660888672e-01 7.000000000000000000e+00
-9.373474121093750000e+00 -6.301088333129882812e+00 -5.919196605682373047e-01 3.000000000000000000e+00
-4.044010162353516336e+01 -2.716437530517578125e+01 -8.503510355949401855e-01 1.300000000000000000e+01
-2.247211694717406782e+00 -1.504945039749145952e+00 -7.246932983398437500e-01 1.800000000000000000e+01
-2.631788253784180132e+00 -1.761163473129272017e+00 -7.310909032821655273e-01 1.200000000000000000e+01
-3.157562017440795898e+00 -2.112207889556885210e+00 -7.384307980537414551e-01 1.200000000000000000e+01
-3.966091871261597124e+00 -2.651059389114379883e+00 -7.555784583091735840e-01 1.100000000000000000e+01
-5.384702205657958984e+00 -3.596583604812622070e+00 -7.950755953788757324e-01 8.000000000000000000e+00
-7.136688232421875000e+00 -4.764980316162109375e+00 -7.507595419883728027e-01 9.000000000000000000e+00
-9.415349006652832031e+00 -6.281631946563720703e+00 -5.931757092475891113e-01 6.000000000000000000e+00
-4.073766708374022727e+01 -2.715837478637694957e+01 -8.546094298362731934e-01 1.300000000000000000e+01
-2.250842332839965820e+00 -1.496022343635559082e+00 -7.241756916046142578e-01 1.900000000000000000e+01
-2.636296510696411133e+00 -1.750887989997863992e+00 -7.306410074234008789e-01 1.200000000000000000e+01
-3.164915800094604048e+00 -2.101172924041748047e+00 -7.384307980537414551e-01 1.200000000000000000e+01
-3.975321769714355025e+00 -2.637198925018310991e+00 -7.555784583091735840e-01 1.100000000000000000e+01
-5.408805847167968750e+00 -3.585443258285522017e+00 -7.967817783355712891e-01 8.000000000000000000e+00
-7.299432277679443359e+00 -4.836887359619140625e+00 -7.660989761352539062e-01 7.000000000000000000e+00
-9.513822555541992188e+00 -6.299449920654296875e+00 -5.979906320571899414e-01 6.000000000000000000e+00
-4.094562149047852273e+01 -2.709103965759276988e+01 -8.569829463958740234e-01 1.300000000000000000e+01
-2.257143259048461914e+00 -1.490007996559143066e+00 -7.246932983398437500e-01 1.800000000000000000e+01
-2.641783952713013139e+00 -1.742597222328186035e+00 -7.306410074234008789e-01 1.200000000000000000e+01
-3.173140287399291992e+00 -2.092300415039062944e+00 -7.388124465942382812e-01 1.200000000000000000e+01
-3.973690032958983931e+00 -2.618176221847534180e+00 -7.537012696266174316e-01 1.100000000000000000e+01
-5.362012386322020596e+00 -3.530227422714232954e+00 -7.882509231567382812e-01 1.200000000000000000e+01
-7.264663219451904297e+00 -4.781072139739990234e+00 -7.608696222305297852e-01 6.000000000000000000e+00
-9.558596611022949219e+00 -6.285991668701171875e+00 -5.995607376098632812e-01 1.300000000000000000e+01
-4.126783370971679688e+01 -2.711821174621582031e+01 -8.619394302368164062e-01 1.300000000000000000e+01
-2.265562534332274947e+00 -1.484237313270569070e+00 -7.257286310195922852e-01 1.600000000000000000e+01
-2.638067960739136186e+00 -1.726961016654968040e+00 -7.279416322708129883e-01 1.300000000000000000e+01
-3.178781509399414062e+00 -2.080136299133300781e+00 -7.384307980537414551e-01 1.200000000000000000e+01
-3.977844953536986861e+00 -2.601046085357666016e+00 -7.527626752853393555e-01 1.100000000000000000e+01
-5.379288196563720703e+00 -3.514746427536011186e+00 -7.889821529388427734e-01 1.500000000000000000e+01
-7.324678897857666016e+00 -4.784011363983154297e+00 -7.654017210006713867e-01 7.000000000000000000e+00
-9.583826065063476562e+00 -6.254770755767822266e+00 -5.997700691223144531e-01 1.300000000000000000e+01
-4.152639389038085938e+01 -2.708104324340819957e+01 -8.653601408004760742e-01 1.300000000000000000e+01
-2.277724981307982954e+00 -1.479737043380737083e+00 -7.277991771697998047e-01 1.600000000000000000e+01
-2.649583101272583008e+00 -1.720002055168152078e+00 -7.292913198471069336e-01 1.100000000000000000e+01
-3.176863908767700195e+00 -2.061503410339355025e+00 -7.361410856246948242e-01 1.200000000000000000e+01
-3.981173276901245117e+00 -2.581454277038574219e+00 -7.515111565589904785e-01 1.100000000000000000e+01
-5.401073932647705078e+00 -3.499462604522705078e+00 -7.902008295059204102e-01 1.200000000000000000e+01
-7.404868602752686435e+00 -4.795926094055175781e+00 -7.718512415885925293e-01 7.000000000000000000e+00
-9.646337509155273438e+00 -6.242883682250976562e+00 -6.021775007247924805e-01 1.000000000000000000e+01
-4.183493041992188211e+01 -2.705387306213378906e+01 -8.696185350418090820e-01 1.300000000000000000e+01
-2.281252622604370117e+00 -1.470730543136596902e+00 -7.272815108299255371e-01 1.600000000000000000e+01
-2.657209157943726030e+00 -1.711798191070557085e+00 -7.297412157058715820e-01 1.300000000000000000e+01
-3.179088592529296875e+00 -2.047212600708007812e+00 -7.349962592124938965e-01 1.100000000000000000e+01
-4.001788139343261719e+00 -2.575024127960205078e+00 -7.537012696266174316e-01 1.100000000000000000e+01
-5.431623458862304688e+00 -3.492397546768188032e+00 -7.928819656372070312e-01 1.000000000000000000e+01
-7.429944515228270596e+00 -4.775434970855712891e+00 -7.727228403091430664e-01 7.000000000000000000e+00
-9.632779121398925781e+00 -6.186508655548095703e+00 -5.999794006347656250e-01 1.300000000000000000e+01
-4.216135787963867188e+01 -2.705672073364258168e+01 -8.744353652000427246e-01 1.300000000000000000e+01
-2.274473190307617188e+00 -1.456264734268188032e+00 -7.236580252647399902e-01 1.700000000000000000e+01
-2.667498588562012163e+00 -1.706592440605164018e+00 -7.310909032821655273e-01 1.100000000000000000e+01
-3.195428133010863814e+00 -2.043561697006226030e+00 -7.372859716415405273e-01 1.200000000000000000e+01
-3.998206377029418945e+00 -2.554993629455565962e+00 -7.515111565589904785e-01 1.100000000000000000e+01
-5.450933933258056641e+00 -3.480658054351807085e+00 -7.941006422042846680e-01 8.000000000000000000e+00
-7.507049083709716797e+00 -4.791732788085938388e+00 -7.791723608970642090e-01 8.000000000000000000e+00
-9.460201263427734375e+00 -6.033779144287109375e+00 -5.880467891693115234e-01 9.000000000000000000e+00
-4.245525741577147727e+01 -2.705739974975585938e+01 -8.787635564804077148e-01 1.300000000000000000e+01
-2.282803773880004883e+00 -1.450388550758362038e+00 -7.246932983398437500e-01 1.700000000000000000e+01
-2.668503761291503906e+00 -1.694137334823607954e+00 -7.297412157058715820e-01 1.300000000000000000e+01
-3.200884580612183061e+00 -2.031342983245850053e+00 -7.369043231010437012e-01 1.200000000000000000e+01
-4.002095699310302734e+00 -2.537847995758057085e+00 -7.505725622177124023e-01 1.100000000000000000e+01
-5.493232727050781250e+00 -3.480734586715697798e+00 -7.984879612922668457e-01 1.000000000000000000e+01
-7.616303443908691406e+00 -4.824134826660156250e+00 -7.887594699859619141e-01 8.000000000000000000e+00
-9.462641716003417969e+00 -5.988970756530761719e+00 -5.868954062461853027e-01 9.000000000000000000e+00
-4.272859573364257812e+01 -2.702233505249023082e+01 -8.824634552001953125e-01 1.300000000000000000e+01
-2.288356065750122070e+00 -1.441612482070923074e+00 -7.246932983398437500e-01 1.700000000000000000e+01
-2.673339843750000000e+00 -1.682840466499329057e+00 -7.292913198471069336e-01 1.300000000000000000e+01
-3.215307235717772993e+00 -2.023220062255858931e+00 -7.384307980537414551e-01 1.200000000000000000e+01
-4.018500328063964844e+00 -2.526668310165404829e+00 -7.518240213394165039e-01 1.100000000000000000e+01
-5.474620819091796875e+00 -3.439551353454589844e+00 -7.938569188117980957e-01 7.000000000000000000e+00
-7.612836360931395596e+00 -4.781079769134520596e+00 -7.864934206008911133e-01 8.000000000000000000e+00
-9.793463706970214844e+00 -6.145810127258300781e+00 -6.059457063674926758e-01 6.000000000000000000e+00
-4.303533935546875000e+01 -2.698555183410644887e+01 -8.866520524024963379e-01 1.300000000000000000e+01
-2.298288583755493164e+00 -1.436687946319580078e+00 -7.262462377548217773e-01 1.600000000000000000e+01
-2.677545070648192915e+00 -1.672466158866882102e+00 -7.288414239883422852e-01 1.300000000000000000e+01
-3.210692882537841797e+00 -2.004705667495727983e+00 -7.357594966888427734e-01 1.200000000000000000e+01
-4.037351131439208984e+00 -2.518899440765380859e+00 -7.537012696266174316e-01 1.100000000000000000e+01
-5.471432685852050781e+00 -3.410969018936156782e+00 -7.916632294654846191e-01 5.000000000000000000e+00
-7.428258419036865234e+00 -4.629081726074218750e+00 -7.657503485679626465e-01 7.000000000000000000e+00
-9.892847061157226562e+00 -6.160150527954101562e+00 -6.107606291770935059e-01 7.000000000000000000e+00
-4.321416473388671875e+01 -2.688798522949219105e+01 -8.883972764015197754e-01 1.300000000000000000e+01
-2.298364400863647017e+00 -1.425601720809936968e+00 -7.246932983398437500e-01 1.700000000000000000e+01
-2.683366775512694868e+00 -1.663109540939331055e+00 -7.288414239883422852e-01 1.300000000000000000e+01
-3.210995435714722124e+00 -1.989350080490112083e+00 -7.342330217361450195e-01 1.300000000000000000e+01
-4.039400577545166016e+00 -2.500632047653197798e+00 -7.524497509002685547e-01 1.100000000000000000e+01
-5.498499870300292969e+00 -3.401247978210449219e+00 -7.938569188117980957e-01 8.000000000000000000e+00
-7.588412761688232422e+00 -4.692189693450927734e+00 -7.805668115615844727e-01 7.000000000000000000e+00
-9.955067634582519531e+00 -6.150775909423828125e+00 -6.132727265357971191e-01 7.000000000000000000e+00
-4.352215576171875000e+01 -2.686933708190917969e+01 -8.927953243255615234e-01 1.400000000000000000e+01
-2.296745777130126953e+00 -1.413520097732543945e+00 -7.226227521896362305e-01 1.800000000000000000e+01
-2.690815687179564986e+00 -1.654753565788269043e+00 -7.292913198471069336e-01 1.300000000000000000e+01
-3.224610090255736861e+00 -1.982242107391356978e+00 -7.357594966888427734e-01 1.300000000000000000e+01
-4.058204174041748047e+00 -2.492720127105712891e+00 -7.543269991874694824e-01 1.100000000000000000e+01
-5.517106056213378906e+00 -3.386187314987183061e+00 -7.948318719863891602e-01 7.000000000000000000e+00
-7.567383766174316406e+00 -4.642750740051270419e+00 -7.767319679260253906e-01 7.000000000000000000e+00
-9.993505477905273438e+00 -6.126427173614501953e+00 -6.143194437026977539e-01 7.000000000000000000e+00
-4.369752883911132812e+01 -2.676739120483398082e+01 -8.944707512855529785e-01 1.400000000000000000e+01
-2.303069114685059038e+00 -1.406903147697448953e+00 -7.231404185295104980e-01 1.900000000000000000e+01
-2.689634799957274947e+00 -1.641760110855102983e+00 -7.274917364120483398e-01 1.200000000000000000e+01
-3.229489803314208984e+00 -1.970515370368957964e+00 -7.353778481483459473e-01 1.200000000000000000e+01
-4.052955150604248047e+00 -2.471022367477416992e+00 -7.518240213394165039e-01 1.100000000000000000e+01
-5.533390522003173828e+00 -3.370971679687500000e+00 -7.955631017684936523e-01 5.000000000000000000e+00
-7.492548465728759766e+00 -4.562708377838134766e+00 -7.674934864044189453e-01 8.000000000000000000e+00
-1.001035404205322088e+01 -6.091177463531494141e+00 -6.141101121902465820e-01 7.000000000000000000e+00
-4.394666671752929688e+01 -2.671999359130859020e+01 -8.977518081665039062e-01 1.400000000000000000e+01
-2.316226482391356978e+00 -1.403861999511718972e+00 -7.257286310195922852e-01 1.600000000000000000e+01
-2.693682432174683061e+00 -1.631352066993712935e+00 -7.270417809486389160e-01 1.300000000000000000e+01
-3.243066310882567915e+00 -1.963297247886657937e+00 -7.369043231010437012e-01 1.300000000000000000e+01
-4.063246250152587891e+00 -2.457882404327393022e+00 -7.521368861198425293e-01 1.200000000000000000e+01
-5.526436328887938565e+00 -3.340340614318848100e+00 -7.928819656372070312e-01 7.000000000000000000e+00
