-2.427656650543212891e+00 1.352326512336730957e+00 -6.415604352951049805e-01 1.300000000000000000e+01
-2.857084989547729048e+00 1.592193126678467019e+00 -6.357755661010742188e-01 1.700000000000000000e+01
-3.484884262084960938e+00 1.943646907806396040e+00 -6.319952607154846191e-01 9.000000000000000000e+00
-4.485877990722656250e+00 2.503990888595581055e+00 -6.307957172393798828e-01 1.000000000000000000e+01
-6.224073886871337891e+00 3.475666522979735884e+00 -6.236864924430847168e-01 2.000000000000000000e+00
-1.009632778167724965e+01 5.642646789550781250e+00 -6.061550378799438477e-01 3.000000000000000000e+00
-2.107570171356201172e+00 1.182713270187377930e+00 -6.475652456283569336e-01 2.100000000000000000e+01
-2.429717779159545898e+00 1.364609479904175027e+00 -6.433600187301635742e-01 1.300000000000000000e+01
-2.849798202514647993e+00 1.601194739341736062e+00 -6.353939771652221680e-01 1.300000000000000000e+01
-3.488409519195557085e+00 1.961608886718750000e+00 -6.338724493980407715e-01 9.000000000000000000e+00
-4.478840351104736328e+00 2.520607948303223100e+00 -6.310394406318664551e-01 1.000000000000000000e+01
-6.192805767059326172e+00 3.486619234085083008e+00 -6.217690706253051758e-01 3.000000000000000000e+00
-9.965207099914550781e+00 5.615105628967285156e+00 -5.994560718536376953e-01 3.000000000000000000e+00
-2.095021963119506836e+00 1.185306429862976074e+00 -6.449770331382751465e-01 1.900000000000000000e+01
-2.421548128128052202e+00 1.371162056922913042e+00 -6.424602270126342773e-01 1.100000000000000000e+01
-2.845899820327758789e+00 1.612100362777709961e+00 -6.357755661010742188e-01 1.300000000000000000e+01
-3.478104114532471147e+00 1.971825361251831055e+00 -6.332467198371887207e-01 9.000000000000000000e+00
-4.468287944793701172e+00 2.535247087478638139e+00 -6.307957172393798828e-01 1.000000000000000000e+01
-6.171934127807617188e+00 3.503297328948975053e+00 -6.208975315093994141e-01 2.000000000000000000e+00
-9.945546150207519531e+00 5.649856567382813388e+00 -5.994560718536376953e-01 3.000000000000000000e+00
-2.087515592575072798e+00 1.190697908401489036e+00 -6.439417600631713867e-01 1.800000000000000000e+01
-2.416747093200684038e+00 1.379606485366821067e+00 -6.424602270126342773e-01 1.400000000000000000e+01
-2.833435773849486861e+00 1.618130087852478027e+00 -6.342490911483764648e-01 1.200000000000000000e+01
-3.469484806060791016e+00 1.982973933219909890e+00 -6.329338550567626953e-01 1.000000000000000000e+01
-4.442179679870604581e+00 2.540972471237183061e+00 -6.283583641052246094e-01 1.000000000000000000e+01
-6.166584491729736328e+00 3.528778314590454102e+00 -6.215947866439819336e-01 2.000000000000000000e+00
-9.925764083862304688e+00 5.684538364410400391e+00 -5.994560718536376953e-01 3.000000000000000000e+00
-2.095069646835327148e+00 1.204718470573425071e+00 -6.475652456283569336e-01 1.900000000000000000e+01
-2.405160665512084961e+00 1.384146094322205034e+00 -6.406605839729309082e-01 1.300000000000000000e+01
-2.839680194854735884e+00 1.634867668151855025e+00 -6.369204521179199219e-01 1.200000000000000000e+01
-3.462541818618773970e+00 1.995072603225708008e+00 -6.329338550567626953e-01 1.000000000000000000e+01
-4.435002803802490234e+00 2.557454824447631836e+00 -6.286020874977111816e-01 1.000000000000000000e+01
-6.136971473693847656e+00 3.540326356887816939e+00 -6.198516488075256348e-01 2.000000000000000000e+00
-9.905860900878906250e+00 5.719151496887207031e+00 -5.994560718536376953e-01 3.000000000000000000e+00
-2.087508916854857954e+00 1.210086584091186968e+00 -6.465299725532531738e-01 1.900000000000000000e+01
-2.400314331054687944e+00 1.392533183097838911e+00 -6.406605839729309082e-01 1.300000000000000000e+01
-2.825466156005858931e+00 1.639842629432678001e+00 -6.350123286247253418e-01 1.100000000000000000e+01
-3.445307731628417969e+00 2.001194000244141069e+00 -6.310566067695617676e-01 1.000000000000000000e+01
-4.412319183349609375e+00 2.564939022064208984e+00 -6.266521811485290527e-01 9.000000000000000000e+00
-6.128020763397216797e+00 3.563730001449584961e+00 -6.202002763748168945e-01 3.000000000000000000e+00
-9.837503433227539062e+00 5.725564002990722656e+00 -5.965252518653869629e-01 3.000000000000000000e+00
-2.091611862182617188e+00 1.222239375114440918e+00 -6.491181850433349609e-01 1.900000000000000000e+01
-2.390392303466796875e+00 1.397952079772948997e+00 -6.393108963966369629e-01 1.300000000000000000e+01
-2.811252117156981978e+00 1.644738316535949929e+00 -6.331042647361755371e-01 1.200000000000000000e+01
-3.445120096206665039e+00 2.017200708389281782e+00 -6.323081254959106445e-01 1.000000000000000000e+01
-3.608503341674804688e+01 2.113711357116698863e+01 5.134842872619628906e+00 2.700000000000000000e+01
-4.408476829528808594e+00 2.583336114883422852e+00 -6.273833513259887695e-01 1.000000000000000000e+01
-6.096636295318604404e+00 3.574015378952025923e+00 -6.182828545570373535e-01 3.000000000000000000e+00
-9.779559135437011719e+00 5.737633228302001953e+00 -5.942224264144897461e-01 3.000000000000000000e+00
-2.070687294006348100e+00 1.219728112220763938e+00 -6.439417600631713867e-01 1.900000000000000000e+01
-2.393891811370850053e+00 1.411235809326172097e+00 -6.415604352951049805e-01 1.300000000000000000e+01
-2.805493831634521040e+00 1.654541373252869096e+00 -6.331042647361755371e-01 1.200000000000000000e+01
-3.426149606704711914e+00 2.022185564041138139e+00 -6.301180124282836914e-01 1.100000000000000000e+01
-3.592556381225585938e+01 2.121248054504394887e+01 5.122655868530273438e+00 2.700000000000000000e+01
-4.392595767974854404e+00 2.594670534133911133e+00 -6.264083981513977051e-01 1.000000000000000000e+01
-6.085838794708251953e+00 3.596288442611693892e+00 -6.184571385383605957e-01 2.000000000000000000e+00
-9.707898139953613281e+00 5.741234779357910156e+00 -5.910822749137878418e-01 3.000000000000000000e+00
-2.071400403976439986e+00 1.229907631874084029e+00 -6.454946994781494141e-01 1.900000000000000000e+01
-2.385600566864014116e+00 1.417592406272887962e+00 -6.406605839729309082e-01 1.300000000000000000e+01
-2.804764032363892046e+00 1.667333960533142090e+00 -6.342490911483764648e-01 1.200000000000000000e+01
-3.417372226715087891e+00 2.033122777938843218e+00 -6.298051476478576660e-01 1.000000000000000000e+01
-4.386923313140869141e+00 2.612018823623656782e+00 -6.268959045410156250e-01 1.000000000000000000e+01
-6.035590171813964844e+00 3.595078945159912109e+00 -6.146222949028015137e-01 3.000000000000000000e+00
-9.694660186767578125e+00 5.779177665710449219e+00 -5.915009975433349609e-01 3.000000000000000000e+00
-2.065437078475952148e+00 1.236138582229614036e+00 -6.449770331382751465e-01 1.900000000000000000e+01
-2.367263317108153853e+00 1.417900323867798074e+00 -6.370613574981689453e-01 1.400000000000000000e+01
-2.802294969558715820e+00 1.679132461547852007e+00 -6.350123286247253418e-01 1.200000000000000000e+01
-3.403478145599364790e+00 2.040975570678710938e+00 -6.285536885261535645e-01 1.000000000000000000e+01
-3.384622573852539062e+01 2.030471801757812855e+01 4.846256256103515625e+00 2.000000000000000000e+01
-4.370970249176025391e+00 2.623229980468750000e+00 -6.259209513664245605e-01 1.000000000000000000e+01
-6.057167530059813565e+00 3.636636495590209961e+00 -6.181085109710693359e-01 2.000000000000000000e+00
-9.599101066589355469e+00 5.767721652984619141e+00 -5.868954062461853027e-01 3.000000000000000000e+00
-2.071034669876099077e+00 1.249327898025512917e+00 -6.480829119682312012e-01 1.900000000000000000e+01
-2.360631227493286133e+00 1.425147891044616921e+00 -6.366114616394042969e-01 1.300000000000000000e+01
-2.791375160217285156e+00 1.685859203338623047e+00 -6.338675022125244141e-01 1.200000000000000000e+01
-3.406476259231566939e+00 2.058974504470825195e+00 -6.304308772087097168e-01 1.000000000000000000e+01
-3.349655532836914062e+01 2.025428771972655895e+01 4.806282997131347656e+00 2.000000000000000000e+01
-4.344801902770996094e+00 2.628197193145751953e+00 -6.234835386276245117e-01 1.000000000000000000e+01
-6.010344982147216797e+00 3.637127399444580078e+00 -6.146222949028015137e-01 2.000000000000000000e+00
-9.585742950439453125e+00 5.805332183837890625e+00 -5.873141288757324219e-01 3.000000000000000000e+00
-2.058407545089722124e+00 1.251531362533568892e+00 -6.454946994781494141e-01 2.100000000000000000e+01
-2.360636472702025923e+00 1.436418294906615989e+00 -6.379612088203430176e-01 1.400000000000000000e+01
-2.775411367416381836e+00 1.689467668533324973e+00 -6.315777897834777832e-01 1.200000000000000000e+01
-3.387459516525268999e+00 2.063658714294434038e+00 -6.282408237457275391e-01 9.000000000000000000e+00
-3.342565155029296875e+01 2.037108802795410156e+01 4.806282997131347656e+00 2.000000000000000000e+01
-4.332211494445800781e+00 2.641280651092528853e+00 -6.229960918426513672e-01 1.000000000000000000e+01
-5.997612476348876953e+00 3.658085346221923828e+00 -6.146222949028015137e-01 3.000000000000000000e+00
-9.592696189880371094e+00 5.855406761169433594e+00 -5.889888405799865723e-01 3.000000000000000000e+00
-2.045790433883666992e+00 1.253661990165710005e+00 -6.429064869880676270e-01 2.200000000000000000e+01
-2.367236375808715820e+00 1.451781272888184038e+00 -6.411104798316955566e-01 1.200000000000000000e+01
-2.776190757751464844e+00 1.703252077102660911e+00 -6.331042647361755371e-01 1.200000000000000000e+01
-3.381918668746947798e+00 2.076504230499268022e+00 -6.285536885261535645e-01 1.000000000000000000e+01
-4.329730510711669922e+00 2.660543918609619141e+00 -6.239710450172424316e-01 1.000000000000000000e+01
-5.964438915252686435e+00 3.666477918624877930e+00 -6.125305891036987305e-01 3.000000000000000000e+00
-9.572198867797851562e+00 5.888855934143066406e+00 -5.889888405799865723e-01 3.000000000000000000e+00
-2.043045520782471147e+00 1.261810660362244096e+00 -6.434241533279418945e-01 2.000000000000000000e+01
-2.353866100311278853e+00 1.454912662506103960e+00 -6.388610005378723145e-01 1.300000000000000000e+01
-2.781917095184326172e+00 1.720159888267517090e+00 -6.357755661010742188e-01 1.200000000000000000e+01
-3.364571094512939009e+00 2.082059860229492188e+00 -6.266764402389526367e-01 1.000000000000000000e+01
-3.401852416992188211e+01 2.105951309204101918e+01 4.912553310394287109e+00 2.200000000000000000e+01
-4.327167510986328125e+00 2.679821968078612837e+00 -6.249459981918334961e-01 1.000000000000000000e+01
-5.954991340637207031e+00 3.689373970031737837e+00 -6.128791570663452148e-01 3.000000000000000000e+00
-9.483686447143554688e+00 5.880134582519531250e+00 -5.848019719123840332e-01 3.000000000000000000e+00
-2.036988496780395952e+00 1.267913699150085005e+00 -6.429064869880676270e-01 2.100000000000000000e+01
-2.342156887054442915e+00 1.458998918533324973e+00 -6.370613574981689453e-01 1.400000000000000000e+01
-2.767564773559569868e+00 1.724668502807616965e+00 -6.338675022125244141e-01 1.200000000000000000e+01
-3.360635280609130859e+00 2.095882415771483931e+00 -6.273022294044494629e-01 1.000000000000000000e+01
-4.311050891876220703e+00 2.690706014633179155e+00 -6.239710450172424316e-01 1.000000000000000000e+01
-3.462082672119141336e+01 2.161669540405273082e+01 6.464498043060302734e+00 1.400000000000000000e+01
-5.979257106781005859e+00 3.733352899551392046e+00 -6.167140603065490723e-01 5.000000000000000000e+00
-9.402127265930175781e+00 5.875101089477539062e+00 -5.810337662696838379e-01 3.000000000000000000e+00
-2.040956258773804155e+00 1.279793143272399902e+00 -6.454946994781494141e-01 1.900000000000000000e+01
-2.334004640579224077e+00 1.464686036109924094e+00 -6.361615657806396484e-01 1.100000000000000000e+01
-3.359958267211914062e+01 2.108515167236328125e+01 2.078888893127440962e+00 2.200000000000000000e+01
-2.758504867553710938e+00 1.731748938560486062e+00 -6.331042647361755371e-01 1.200000000000000000e+01
-3.341958045959473100e+00 2.099658966064453125e+00 -6.251121163368225098e-01 1.100000000000000000e+01
-4.278577327728270596e+00 2.690194368362427202e+00 -6.205586791038513184e-01 1.000000000000000000e+01
-3.443902969360352273e+01 2.165385246276855113e+01 6.443222522735595703e+00 1.400000000000000000e+01
-5.916248798370361328e+00 3.721335887908935991e+00 -6.114847064018249512e-01 5.000000000000000000e+00
-9.406256675720214844e+00 5.921143054962158203e+00 -5.824992060661315918e-01 3.000000000000000000e+00
-3.295547485351563211e+01 2.075317192077637074e+01 8.991293907165527344e+00 1.200000000000000000e+01
-2.023411750793457031e+00 1.278653502464293990e+00 -6.413536071777343750e-01 2.000000000000000000e+01
-2.335465669631958008e+00 1.476990699768065962e+00 -6.379612088203430176e-01 1.200000000000000000e+01
-2.749124765396118164e+00 1.739268064498900923e+00 -6.323410272598266602e-01 1.200000000000000000e+01
-3.342953205108643022e+00 2.116595268249512163e+00 -6.266764402389526367e-01 1.100000000000000000e+01
-6.104770278930664062e+01 3.866736221313477273e+01 8.872818946838378906e+00 6.300000000000000000e+01
-4.269160747528076172e+00 2.705112934112548828e+00 -6.205586791038513184e-01 1.000000000000000000e+01
-3.464356231689453125e+01 2.195156097412109020e+01 6.495784759521484375e+00 1.400000000000000000e+01
-5.909954071044921875e+00 3.746231555938721147e+00 -6.121819615364074707e-01 2.000000000000000000e+00
-9.345053672790527344e+00 5.928263664245604581e+00 -5.799870491027832031e-01 3.000000000000000000e+00
-3.288283538818358664e+01 2.086808013916015980e+01 8.991293907165527344e+00 1.200000000000000000e+01
-2.017082214355469194e+00 1.285023093223571999e+00 -6.408359408378601074e-01 2.200000000000000000e+01
-2.336609363555908203e+00 1.489731192588805930e+00 -6.397607922554016113e-01 1.200000000000000000e+01
-2.744386911392211914e+00 1.750388145446776900e+00 -6.327226161956787109e-01 1.200000000000000000e+01
-3.331842899322510210e+00 2.126708030700684038e+00 -6.260507106781005859e-01 1.000000000000000000e+01
-4.259217262268066406e+00 2.720741987228393999e+00 -6.205586791038513184e-01 1.000000000000000000e+01
-3.445632934570313211e+01 2.201033020019530895e+01 6.475760936737061435e+00 1.400000000000000000e+01
-5.887789249420166016e+00 3.762503385543822798e+00 -6.113103628158569336e-01 3.000000000000000000e+00
-9.360280036926269531e+00 5.986148834228515625e+00 -5.822898745536804199e-01 3.000000000000000000e+00
-3.275031661987304688e+01 2.095275497436523082e+01 8.975996971130371094e+00 1.200000000000000000e+01
-2.015835762023925781e+00 1.294143557548522949e+00 -6.418712139129638672e-01 1.900000000000000000e+01
-2.319918394088745117e+00 1.490504860877990945e+00 -6.366114616394042969e-01 1.300000000000000000e+01
-2.734957218170166016e+00 1.757834196090698020e+00 -6.319593787193298340e-01 1.200000000000000000e+01
-3.321076393127440962e+00 2.136188030242919922e+00 -6.254249811172485352e-01 1.000000000000000000e+01
-3.450051116943358664e+01 2.219998741149901988e+01 5.037347316741943359e+00 2.500000000000000000e+01
-4.256371021270751953e+00 2.739890813827515093e+00 -6.215336322784423828e-01 1.000000000000000000e+01
-3.431949234008789062e+01 2.209197998046875000e+01 6.464498043060302734e+00 1.400000000000000000e+01
-5.869594573974609375e+00 3.779796361923218218e+00 -6.107874512672424316e-01 3.000000000000000000e+00
-9.278889656066894531e+00 5.979835987091063565e+00 -5.785216689109802246e-01 3.000000000000000000e+00
-3.269007873535156250e+01 2.107539558410644887e+01 8.979596138000488281e+00 1.200000000000000000e+01
-2.013382434844971147e+00 1.301518917083740012e+00 -6.423888802528381348e-01 1.800000000000000000e+01
-2.307043313980102983e+00 1.492493271827697976e+00 -6.343619823455810547e-01 1.300000000000000000e+01
-2.734365940093994141e+00 1.769617676734924094e+00 -6.331042647361755371e-01 1.200000000000000000e+01
-3.312690973281859907e+00 2.145537137985229048e+00 -6.251121163368225098e-01 9.000000000000000000e+00
-4.241079330444335938e+00 2.748930215835570845e+00 -6.205586791038513184e-01 1.000000000000000000e+01
-3.408415603637695312e+01 2.209224700927734020e+01 6.433210849761962891e+00 1.400000000000000000e+01
-5.844317436218261719e+00 3.789546012878417969e+00 -6.093929409980773926e-01 2.000000000000000000e+00
-3.300754928588867188e+01 2.141078948974609020e+01 7.647624492645263672e+00 6.300000000000000000e+01
-9.260057449340820312e+00 6.008956909179688388e+00 -5.785216689109802246e-01 3.000000000000000000e+00
-3.270870590209960938e+01 2.123316574096680043e+01 9.002990722656250000e+00 1.200000000000000000e+01
-2.016920804977416992e+00 1.313811063766479048e+00 -6.449770331382751465e-01 1.900000000000000000e+01
-2.311614513397216797e+00 1.506922483444214089e+00 -6.370613574981689453e-01 1.300000000000000000e+01
-3.305918121337891336e+01 2.155923271179198863e+01 2.068421602249145952e+00 2.200000000000000000e+01
-2.721594095230102983e+00 1.774861812591552956e+00 -6.315777897834777832e-01 1.200000000000000000e+01
-3.300218582153319868e+00 2.153848648071289062e+00 -6.241735219955444336e-01 1.000000000000000000e+01
-3.476806640625000000e+01 2.269961929321289062e+01 5.098282337188720703e+00 2.600000000000000000e+01
-4.211513996124267578e+00 2.750691413879394975e+00 -6.176338195800781250e-01 1.000000000000000000e+01
-5.827717781066895419e+00 3.807743787765502930e+00 -6.090443134307861328e-01 2.000000000000000000e+00
-9.239026069641113281e+00 6.041244029998779297e+00 -5.785216689109802246e-01 3.000000000000000000e+00
-3.264091110229492188e+01 2.135147857666015980e+01 9.004790306091308594e+00 1.200000000000000000e+01
-2.002402782440185991e+00 1.314832568168639915e+00 -6.418712139129638672e-01 1.900000000000000000e+01
-2.306075811386107954e+00 1.515384912490844949e+00 -6.370613574981689453e-01 1.400000000000000000e+01
-2.718351840972899947e+00 1.786981940269469993e+00 -6.323410272598266602e-01 1.300000000000000000e+01
-3.293952465057373047e+00 2.167015790939331055e+00 -6.244863867759704590e-01 1.000000000000000000e+01
-4.204720020294188565e+00 2.768292188644409180e+00 -6.181213259696960449e-01 1.000000000000000000e+01
-5.856984615325927734e+00 3.857571125030518022e+00 -6.135764122009277344e-01 2.000000000000000000e+00
-9.216821670532226562e+00 6.075066089630126953e+00 -5.785216689109802246e-01 3.000000000000000000e+00
-3.239974594116210938e+01 2.136369514465332031e+01 8.959800720214843750e+00 1.200000000000000000e+01
-1.988134145736693892e+00 1.315418362617492898e+00 -6.387653946876525879e-01 1.600000000000000000e+01
-2.304021835327147993e+00 1.525577068328856978e+00 -6.379612088203430176e-01 1.300000000000000000e+01
-2.708823919296265093e+00 1.794291615486145020e+00 -6.315777897834777832e-01 1.200000000000000000e+01
-3.279782295227050781e+00 2.174134969711304155e+00 -6.232349276542663574e-01 9.000000000000000000e+00
-4.198339462280273438e+00 2.785147190093994141e+00 -6.186087727546691895e-01 1.000000000000000000e+01
-5.803641319274902344e+00 3.851551532745360884e+00 -6.093929409980773926e-01 3.000000000000000000e+00
-9.195559501647949219e+00 6.107202053070068359e+00 -5.785216689109802246e-01 3.000000000000000000e+00
-3.231848144531250000e+01 2.147234725952148082e+01 8.958001136779785156e+00 1.200000000000000000e+01
-1.985137820243835005e+00 1.323421835899353027e+00 -6.392830610275268555e-01 1.900000000000000000e+01
-2.288955926895142046e+00 1.527121186256408913e+00 -6.352617740631103516e-01 1.400000000000000000e+01
-3.282778167724608664e+01 2.190996932983398082e+01 2.068421602249145952e+00 2.200000000000000000e+01
-2.704177141189575195e+00 1.804826021194458008e+00 -6.319593787193298340e-01 1.300000000000000000e+01
-3.268887758255004883e+00 2.183375835418701172e+00 -6.226091980934143066e-01 9.000000000000000000e+00
-4.198493957519531250e+00 2.806404113769530806e+00 -6.200712323188781738e-01 1.000000000000000000e+01
-5.780224323272705078e+00 3.865141630172729048e+00 -6.083470582962036133e-01 3.000000000000000000e+00
-9.174185752868652344e+00 6.139263153076171875e+00 -5.785216689109802246e-01 3.000000000000000000e+00
-3.365542602539063211e+01 2.253034210205078125e+01 9.350315093994140625e+00 1.200000000000000000e+01
-1.985316991806030051e+00 1.333574771881103960e+00 -6.408359408378601074e-01 1.900000000000000000e+01
-2.278759479522705078e+00 1.531840205192565918e+00 -6.339120864868164062e-01 1.500000000000000000e+01
-2.694602489471435991e+00 1.812063336372375044e+00 -6.311961412429809570e-01 1.300000000000000000e+01
-3.254691123962401900e+00 2.190361499786376953e+00 -6.213576793670654297e-01 9.000000000000000000e+00
-4.167267799377441406e+00 2.806626796722412109e+00 -6.169025897979736328e-01 9.000000000000000000e+00
-5.760087966918945312e+00 3.880841732025146040e+00 -6.076498627662658691e-01 2.000000000000000000e+00
-9.093083381652832031e+00 6.131053447723388672e+00 -5.747534632682800293e-01 3.000000000000000000e+00
-1.987518668174744096e+00 1.344134211540221946e+00 -6.429064869880676270e-01 1.900000000000000000e+01
-2.269094228744506836e+00 1.535714864730834961e+00 -6.325623393058776855e-01 1.400000000000000000e+01
-2.690521955490111861e+00 1.821620345115662065e+00 -6.315777897834777832e-01 1.300000000000000000e+01
-3.254335403442382812e+00 2.205007791519165039e+00 -6.226091980934143066e-01 9.000000000000000000e+00
-4.146929264068604404e+00 2.811906337738037109e+00 -6.151964664459228516e-01 1.000000000000000000e+01
-3.313077926635742188e+01 2.246497154235839844e+01 6.339975833892822266e+00 1.400000000000000000e+01
-5.761058330535888672e+00 3.907866001129149947e+00 -6.090443134307861328e-01 3.000000000000000000e+00
-9.067167282104492188e+00 6.155102729797363281e+00 -5.743348002433776855e-01 3.000000000000000000e+00
-1.978025317192078081e+00 1.347800254821776900e+00 -6.413536071777343750e-01 1.700000000000000000e+01
-2.276600122451781782e+00 1.552409172058105025e+00 -6.361615657806396484e-01 1.200000000000000000e+01
-2.677659511566162109e+00 1.826575517654418945e+00 -6.300513148307800293e-01 1.300000000000000000e+01
-3.248250007629394975e+00 2.217467784881591797e+00 -6.229220628738403320e-01 1.000000000000000000e+01
-3.311540603637695312e+01 2.261521530151366832e+01 4.923765182495117188e+00 2.200000000000000000e+01
-4.146923065185546875e+00 2.833083391189575195e+00 -6.166588664054870605e-01 1.000000000000000000e+01
-3.297645950317382812e+01 2.253720855712890980e+01 6.326209545135498047e+00 1.400000000000000000e+01
-5.734222888946533203e+00 3.918958425521851030e+00 -6.076498627662658691e-01 2.000000000000000000e+00
-9.009358406066894531e+00 6.161910057067871094e+00 -5.720319747924804688e-01 3.000000000000000000e+00
-3.238344192504882812e+01 2.215680694580078125e+01 9.058778762817382812e+00 1.200000000000000000e+01
-1.968530535697937012e+00 1.351416468620300071e+00 -6.398006677627563477e-01 2.100000000000000000e+01
-2.271167278289794922e+00 1.560346484184264915e+00 -6.361615657806396484e-01 1.400000000000000000e+01
-2.674503326416016069e+00 1.838135242462157981e+00 -6.308145523071289062e-01 1.300000000000000000e+01
-3.229096889495850053e+00 2.220956802368164062e+00 -6.207319498062133789e-01 9.000000000000000000e+00
-3.306570053100585938e+01 2.275092697143555043e+01 4.928152561187744141e+00 2.200000000000000000e+01
-4.135373115539550781e+00 2.846415996551514116e+00 -6.164151430130004883e-01 1.000000000000000000e+01
-3.297313690185546875e+01 2.269571876525878906e+01 6.339975833892822266e+00 1.400000000000000000e+01
-5.704098224639892578e+00 3.927651405334473100e+00 -6.059067249298095703e-01 2.000000000000000000e+00
-3.336759948730468750e+01 2.298440170288085938e+01 7.875832080841063565e+00 6.300000000000000000e+01
-8.984505653381347656e+00 6.191054821014404297e+00 -5.718226432800292969e-01 3.000000000000000000e+00
-3.238612747192382812e+01 2.232501220703125000e+01 9.081274032592773438e+00 1.200000000000000000e+01
-1.970156550407409890e+00 1.362675428390502930e+00 -6.418712139129638672e-01 2.100000000000000000e+01
-2.264104604721068892e+00 1.567155718803405984e+00 -6.357116699218750000e-01 1.300000000000000000e+01
-2.668070793151855025e+00 1.847459793090820090e+00 -6.308145523071289062e-01 1.200000000000000000e+01
-3.214829921722412109e+00 2.227714538574219194e+00 -6.194804906845092773e-01 9.000000000000000000e+00
-3.302523803710938211e+01 2.289335060119628906e+01 4.934002399444580078e+00 2.200000000000000000e+01
-4.122149944305419922e+00 2.858571529388428178e+00 -6.159276366233825684e-01 9.000000000000000000e+00
-3.364366149902343750e+01 2.333073997497558949e+01 6.484521389007568359e+00 1.400000000000000000e+01
-5.703449726104736328e+00 3.956623792648314986e+00 -6.073012351989746094e-01 3.000000000000000000e+00
-3.328716659545897727e+01 2.310073661804198863e+01 7.875832080841063565e+00 6.300000000000000000e+01
-8.903777122497558594e+00 6.181374549865722656e+00 -5.680544972419738770e-01 2.000000000000000000e+00
-3.218955612182617188e+01 2.235566520690917969e+01 9.047981262207031250e+00 1.200000000000000000e+01
-1.966972947120666948e+00 1.370648741722106934e+00 -6.423888802528381348e-01 1.900000000000000000e+01
-2.245832681655883789e+00 1.566131949424744096e+00 -6.321124434471130371e-01 1.500000000000000000e+01
-2.671266555786132812e+00 1.863501429557800071e+00 -6.331042647361755371e-01 1.300000000000000000e+01
-3.203794956207274947e+00 2.236661195755004883e+00 -6.188547611236572266e-01 9.000000000000000000e+00
-3.293861389160156250e+01 2.300394439697265980e+01 4.933027267456054688e+00 2.200000000000000000e+01
-4.102382659912109375e+00 2.866121530532836914e+00 -6.144652366638183594e-01 1.000000000000000000e+01
-5.660208702087402344e+00 3.955963850021361861e+00 -6.041635870933532715e-01 2.000000000000000000e+00
-8.882145881652832031e+00 6.212416648864746094e+00 -5.680544972419738770e-01 2.000000000000000000e+00
-3.217200088500977273e+01 2.251034545898437855e+01 9.065077781677246094e+00 1.200000000000000000e+01
-1.959014296531677024e+00 1.375286459922790971e+00 -6.413536071777343750e-01 1.800000000000000000e+01
-2.245135784149169922e+00 1.577322602272033913e+00 -6.334621906280517578e-01 1.400000000000000000e+01
-2.648683071136475053e+00 1.861525654792786089e+00 -6.292880773544311523e-01 1.200000000000000000e+01
-3.199199438095093218e+00 2.250103712081909180e+00 -6.194804906845092773e-01 9.000000000000000000e+00
-4.100469589233398438e+00 2.886137008666992188e+00 -6.156839132308959961e-01 1.000000000000000000e+01
-3.304944610595703125e+01 2.327065277099609020e+01 6.401924133300781250e+00 1.400000000000000000e+01
-5.659397602081298828e+00 3.984874010086060014e+00 -6.055580973625183105e-01 2.000000000000000000e+00
-8.860405921936035156e+00 6.243383407592773438e+00 -5.680544972419738770e-01 2.000000000000000000e+00
-3.302341842651367188e+01 2.327820014953612926e+01 9.327820777893066406e+00 1.200000000000000000e+01
-1.951047182083130105e+00 1.379885315895081010e+00 -6.403183341026306152e-01 1.900000000000000000e+01
-3.425327682495117188e+01 2.423472404479980113e+01 7.324076890945434570e-01 4.000000000000000000e+01
-2.249160051345825195e+00 1.591904878616333008e+00 -6.361615657806396484e-01 1.400000000000000000e+01
-2.630953073501586914e+00 1.862818598747252974e+00 -6.266167163848876953e-01 9.000000000000000000e+00
-3.191325664520264116e+00 2.261257410049438032e+00 -6.194804906845092773e-01 9.000000000000000000e+00
-4.079034805297851562e+00 2.892395019531250000e+00 -6.139777302742004395e-01 9.000000000000000000e+00
-3.285200881958007812e+01 2.330358695983887074e+01 6.379397392272949219e+00 1.400000000000000000e+01
-5.629202842712402344e+00 3.993077516555786133e+00 -6.038149595260620117e-01 2.000000000000000000e+00
-8.838558197021484375e+00 6.274273872375488281e+00 -5.680544972419738770e-01 2.000000000000000000e+00
-3.302140808105468750e+01 2.344974899291991832e+01 9.350315093994140625e+00 1.200000000000000000e+01
-1.938351869583130105e+00 1.381082296371459961e+00 -6.377301216125488281e-01 1.900000000000000000e+01
-2.240416288375854048e+00 1.597483515739440918e+00 -6.352617740631103516e-01 1.200000000000000000e+01
-2.648409366607666016e+00 1.889092087745666948e+00 -6.323410272598266602e-01 9.000000000000000000e+00
-3.180197238922119141e+00 2.270087957382202148e+00 -6.188547611236572266e-01 9.000000000000000000e+00
-3.314502334594727273e+01 2.366830825805664062e+01 5.000786781311035156e+00 2.400000000000000000e+01
-4.068913936614990234e+00 2.906615972518920898e+00 -6.139777302742004395e-01 9.000000000000000000e+00
-3.288618087768554688e+01 2.350081253051758168e+01 6.401924133300781250e+00 1.400000000000000000e+01
-5.628198146820068359e+00 4.021969795227050781e+00 -6.052094697952270508e-01 2.000000000000000000e+00
-8.748371124267578125e+00 6.256292343139648438e+00 -5.636582374572753906e-01 2.000000000000000000e+00
-3.283791351318358664e+01 2.349230575561523082e+01 9.321521759033203125e+00 1.200000000000000000e+01
-1.935088634490967019e+00 1.388966441154479980e+00 -6.382477879524230957e-01 1.800000000000000000e+01
-2.234826326370238814e+00 1.605294227600098100e+00 -6.352617740631103516e-01 1.400000000000000000e+01
-2.646582126617432085e+00 1.901762127876281960e+00 -6.334858536720275879e-01 8.000000000000000000e+00
-3.169046401977539062e+00 2.278868675231934038e+00 -6.182290315628051758e-01 9.000000000000000000e+00
-3.306220245361328125e+01 2.378386116027832031e+01 5.000786781311035156e+00 2.400000000000000000e+01
-4.071632862091063565e+00 2.930077552795410156e+00 -6.159276366233825684e-01 9.000000000000000000e+00
-5.581785202026367188e+00 4.018310546875000000e+00 -6.017232537269592285e-01 2.000000000000000000e+00
-8.726479530334472656e+00 6.286791801452636719e+00 -5.636582374572753906e-01 2.000000000000000000e+00
-3.269879913330078125e+01 2.356576919555664062e+01 9.305325508117675781e+00 1.200000000000000000e+01
-1.925531983375549094e+00 1.392316818237304910e+00 -6.366948485374450684e-01 1.900000000000000000e+01
-2.218158006668090820e+00 1.605088591575623003e+00 -6.321124434471130371e-01 1.300000000000000000e+01
-2.649469375610352007e+00 1.917896032333374023e+00 -6.357755661010742188e-01 8.000000000000000000e+00
-3.162672042846680132e+00 2.291075706481934038e+00 -6.185418963432312012e-01 9.000000000000000000e+00
-3.340333175659179688e+01 2.420664405822753906e+01 5.065133571624755859e+00 2.600000000000000000e+01
-4.045308113098145419e+00 2.932621002197266069e+00 -6.134902834892272949e-01 9.000000000000000000e+00
-5.564498901367188388e+00 4.035430431365966797e+00 -6.013746261596679688e-01 2.000000000000000000e+00
-8.691549301147460938e+00 6.307829856872558594e+00 -5.628208518028259277e-01 2.000000000000000000e+00
-1.931590795516967995e+00 1.406991600990294966e+00 -6.403183341026306152e-01 1.800000000000000000e+01
-2.204667806625366211e+00 1.607082009315490945e+00 -6.298629641532897949e-01 1.400000000000000000e+01
-2.626895666122436968e+00 1.915565252304076926e+00 -6.319593787193298340e-01 9.000000000000000000e+00
-3.162633895874022993e+00 2.307923555374145952e+00 -6.201062202453613281e-01 9.000000000000000000e+00
-3.301399993896483664e+01 2.410071182250976918e+01 5.018823146820068359e+00 2.400000000000000000e+01
-4.022222042083740234e+00 2.937358140945435014e+00 -6.115403771400451660e-01 9.000000000000000000e+00
-3.311680221557617188e+01 2.419348335266112926e+01 6.495784759521484375e+00 1.400000000000000000e+01
-5.550378799438476562e+00 4.054829597473145419e+00 -6.013746261596679688e-01 2.000000000000000000e+00
-8.621108055114746094e+00 6.302768230438232422e+00 -5.596807003021240234e-01 2.000000000000000000e+00
-1.920437574386596902e+00 1.409154057502747026e+00 -6.382477879524230957e-01 1.800000000000000000e+01
-2.206898212432860884e+00 1.620535016059875044e+00 -6.321124434471130371e-01 1.300000000000000000e+01
-2.618610858917235884e+00 1.923560976982116921e+00 -6.315777897834777832e-01 1.000000000000000000e+01
-3.157741546630858931e+00 2.321289300918579102e+00 -6.207319498062133789e-01 9.000000000000000000e+00
-3.297125244140625000e+01 2.424638175964355113e+01 5.025160312652587891e+00 2.500000000000000000e+01
-4.027934551239013672e+00 2.963143587112427202e+00 -6.139777302742004395e-01 1.000000000000000000e+01
-5.523353576660156250e+00 4.064732074737548828e+00 -5.999801158905029297e-01 3.000000000000000000e+00
-8.631218910217285156e+00 6.356510162353515625e+00 -5.617741346359252930e-01 2.000000000000000000e+00
-1.909292817115783913e+00 1.411255955696105957e+00 -6.361772418022155762e-01 1.800000000000000000e+01
-2.209061622619628906e+00 1.634023070335387962e+00 -6.343619823455810547e-01 1.400000000000000000e+01
-2.611880540847777876e+00 1.932689905166625977e+00 -6.315777897834777832e-01 1.100000000000000000e+01
-3.140094518661499023e+00 2.325244426727294922e+00 -6.188547611236572266e-01 9.000000000000000000e+00
-3.316396331787108664e+01 2.456692695617676137e+01 5.067571163177490234e+00 2.600000000000000000e+01
-4.014376640319824219e+00 2.974821805953979048e+00 -6.134902834892272949e-01 1.000000000000000000e+01
-5.489924430847167969e+00 4.069749355316162109e+00 -5.978884100914001465e-01 3.000000000000000000e+00
-8.544816017150878906e+00 6.339001178741455078e+00 -5.575872659683227539e-01 2.000000000000000000e+00
-1.898157000541687012e+00 1.413297176361083984e+00 -6.341066360473632812e-01 1.700000000000000000e+01
-2.200219154357910156e+00 1.639395475387573020e+00 -6.334621906280517578e-01 1.300000000000000000e+01
-2.600395917892456055e+00 1.938275337219238059e+00 -6.304329037666320801e-01 1.100000000000000000e+01
-3.127208471298218218e+00 2.332648038864136186e+00 -6.179161071777343750e-01 8.000000000000000000e+00
-4.003968238830566406e+00 2.988816499710083008e+00 -6.134902834892272949e-01 9.000000000000000000e+00
-5.456528186798095703e+00 4.074582576751708984e+00 -5.957966446876525879e-01 2.000000000000000000e+00
-8.522636413574218750e+00 6.368789672851563388e+00 -5.575872659683227539e-01 2.000000000000000000e+00
-1.904279589653014915e+00 1.427695751190185991e+00 -6.377301216125488281e-01 1.600000000000000000e+01
-2.185417890548706055e+00 1.639665603637695090e+00 -6.307627558708190918e-01 1.400000000000000000e+01
-2.597094535827637163e+00 1.949244976043700950e+00 -6.311961412429809570e-01 1.300000000000000000e+01
-3.122614860534667969e+00 2.345377922058105025e+00 -6.185418963432312012e-01 8.000000000000000000e+00
-3.981340408325194868e+00 2.992536067962646040e+00 -6.115403771400451660e-01 9.000000000000000000e+00
-5.436616420745849609e+00 4.087865352630615234e+00 -5.950993895530700684e-01 2.000000000000000000e+00
-8.501469612121582031e+00 6.397016525268554688e+00 -5.575872659683227539e-01 2.000000000000000000e+00
-3.204663848876953125e+01 2.412257766723633168e+01 9.260334968566894531e+00 1.200000000000000000e+01
-1.906992554664612038e+00 1.440155386924744096e+00 -6.403183341026306152e-01 2.000000000000000000e+01
-2.182790517807006836e+00 1.649634003639220969e+00 -6.316625475883483887e-01 1.400000000000000000e+01
-2.582444190979003906e+00 1.952378749847412109e+00 -6.292880773544311523e-01 1.100000000000000000e+01
-3.104957103729248047e+00 2.349112510681151900e+00 -6.166646480560302734e-01 8.000000000000000000e+00
-3.219694900512695312e+01 2.436803245544433949e+01 4.957888603210449219e+00 2.300000000000000000e+01
-3.970870256423950195e+00 3.006415128707886186e+00 -6.115403771400451660e-01 9.000000000000000000e+00
-5.441372871398925781e+00 4.121253013610839844e+00 -5.971911549568176270e-01 4.000000000000000000e+00
-8.374034881591796875e+00 6.347028732299804688e+00 -5.506789088249206543e-01 2.000000000000000000e+00
-1.896837353706360085e+00 1.443956732749938965e+00 -6.387653946876525879e-01 2.100000000000000000e+01
-2.182640790939331055e+00 1.662726759910583052e+00 -6.334621906280517578e-01 1.300000000000000000e+01
-2.570244073867797852e+00 1.958710193634032981e+00 -6.281431913375854492e-01 1.200000000000000000e+01
-3.099055767059326172e+00 2.363413095474243164e+00 -6.172903776168823242e-01 8.000000000000000000e+00
-3.222309112548828125e+01 2.458298683166503906e+01 4.976412773132324219e+00 2.300000000000000000e+01
-3.959297180175780806e+00 3.021640062332152876e+00 -6.115403771400451660e-01 9.000000000000000000e+00
-5.417590618133544922e+00 4.136070728302001953e+00 -5.963196158409118652e-01 4.000000000000000000e+00
-8.262312889099121094e+00 6.312446594238281250e+00 -5.449219942092895508e-01 1.500000000000000000e+01
-1.881054043769835982e+00 1.442340612411499023e+00 -6.351419091224670410e-01 2.000000000000000000e+01
-2.179915666580200195e+00 1.672708153724669966e+00 -6.343619823455810547e-01 1.300000000000000000e+01
-2.564948558807373047e+00 1.968865513801574929e+00 -6.285248398780822754e-01 1.300000000000000000e+01
-3.087653875350952148e+00 2.371809720993041992e+00 -6.166646480560302734e-01 8.000000000000000000e+00
-3.939282655715941939e+00 3.028183221817017046e+00 -6.100779175758361816e-01 9.000000000000000000e+00
-5.401540279388427734e+00 4.153741836547851562e+00 -5.961452722549438477e-01 4.000000000000000000e+00
-8.381100654602050781e+00 6.449656963348388672e+00 -5.542377829551696777e-01 2.000000000000000000e+00
-1.876513481140136941e+00 1.448243021965027078e+00 -6.351419091224670410e-01 1.900000000000000000e+01
-2.163853883743286133e+00 1.671210050582885964e+00 -6.312126517295837402e-01 1.200000000000000000e+01
-2.561857700347899947e+00 1.979314446449280007e+00 -6.292880773544311523e-01 1.200000000000000000e+01
-3.073936462402344194e+00 2.376665115356444868e+00 -6.154131889343261719e-01 8.000000000000000000e+00
-3.939169883728026900e+00 3.047832489013671875e+00 -6.115403771400451660e-01 9.000000000000000000e+00
-5.382162094116210938e+00 4.165812969207763672e+00 -5.954480171203613281e-01 4.000000000000000000e+00
-8.370270729064941406e+00 6.483293056488037109e+00 -5.548658370971679688e-01 2.000000000000000000e+00
-1.877547621726989968e+00 1.459527015686034934e+00 -6.372125148773193359e-01 1.900000000000000000e+01
-2.156468868255614790e+00 1.677556633949280007e+00 -6.307627558708190918e-01 1.400000000000000000e+01
-2.556482315063477007e+00 1.989450693130492942e+00 -6.296696662902832031e-01 1.300000000000000000e+01
-3.070297241210937944e+00 2.391021966934204102e+00 -6.163517832756042480e-01 9.000000000000000000e+00
-3.925375461578369141e+00 3.059123754501343218e+00 -6.110528707504272461e-01 9.000000000000000000e+00
-5.361302852630615234e+00 4.179674625396729404e+00 -5.947507619857788086e-01 2.000000000000000000e+00
-8.268853187561035156e+00 6.451044559478759766e+00 -5.496321916580200195e-01 2.000000000000000000e+00
-3.557201004028320312e+01 2.776191902160644887e+01 1.041748332977294922e+01 1.300000000000000000e+01
-1.872441530227660911e+00 1.466071963310241921e+00 -6.372125148773193359e-01 1.800000000000000000e+01
-2.147531986236571822e+00 1.682670116424560991e+00 -6.298629641532897949e-01 1.400000000000000000e+01
-2.546432018280028853e+00 1.995940089225769043e+00 -6.289064288139343262e-01 1.300000000000000000e+01
-3.058823585510253906e+00 2.399286270141602007e+00 -6.157260537147521973e-01 9.000000000000000000e+00
-3.906865835189818892e+00 3.066678762435913086e+00 -6.098341941833496094e-01 1.000000000000000000e+01
-3.521034622192382812e+01 2.763822174072265980e+01 7.089610099792479581e+00 1.500000000000000000e+01
-5.362350463867188388e+00 4.210668563842773438e+00 -5.964938998222351074e-01 2.000000000000000000e+00
-8.261988639831542969e+00 6.492209434509277344e+00 -5.506789088249206543e-01 2.000000000000000000e+00
-3.556987380981445312e+01 2.796058654785155895e+01 1.044537734985351918e+01 1.300000000000000000e+01
-1.864278793334960938e+00 1.470206499099731001e+00 -6.361772418022155762e-01 1.700000000000000000e+01
-2.146234750747681108e+00 1.693777918815613015e+00 -6.312126517295837402e-01 1.300000000000000000e+01
-2.527121782302856001e+00 1.995084524154663086e+00 -6.258534789085388184e-01 1.400000000000000000e+01
-3.059730052947998047e+00 2.417296409606934038e+00 -6.176032423973083496e-01 9.000000000000000000e+00
-3.888351202011107954e+00 3.074141979217528853e+00 -6.086155176162719727e-01 9.000000000000000000e+00
-5.336680889129638672e+00 4.220709323883056641e+00 -5.952737331390380859e-01 4.000000000000000000e+00
-8.211086273193359375e+00 6.498698234558104581e+00 -5.487948656082153320e-01 2.000000000000000000e+00
-1.848802566528320090e+00 1.467971563339232954e+00 -6.325537562370300293e-01 1.900000000000000000e+01
-2.146708965301514116e+00 1.705734968185425027e+00 -6.330122947692871094e-01 1.200000000000000000e+01
-2.526639699935913086e+00 2.008340358734130859e+00 -6.273799538612365723e-01 1.300000000000000000e+01
-3.048605203628540039e+00 2.424970149993896040e+00 -6.169775128364562988e-01 9.000000000000000000e+00
-3.887454271316527876e+00 3.094436883926392046e+00 -6.100779175758361816e-01 9.000000000000000000e+00
-3.509868240356445312e+01 2.793876075744628906e+01 7.105253219604492188e+00 1.500000000000000000e+01
-5.319537639617919922e+00 4.235900878906250000e+00 -5.949251055717468262e-01 4.000000000000000000e+00
-8.189490318298339844e+00 6.525891780853270596e+00 -5.487948656082153320e-01 2.000000000000000000e+00
-1.845175862312316895e+00 1.475622773170470969e+00 -6.330713629722595215e-01 1.700000000000000000e+01
-2.139220237731934038e+00 1.712000370025634988e+00 -6.325623393058776855e-01 1.200000000000000000e+01
-2.515015840530395952e+00 2.013466835021973100e+00 -6.262351274490356445e-01 1.300000000000000000e+01
-3.033955335617064986e+00 2.430656671524047852e+00 -6.157260537147521973e-01 9.000000000000000000e+00
-3.867336273193358931e+00 3.100537538528441939e+00 -6.086155176162719727e-01 8.000000000000000000e+00
-5.287622451782226562e+00 4.240731716156005859e+00 -5.930076837539672852e-01 4.000000000000000000e+00
-8.166661262512207031e+00 6.554438591003417969e+00 -5.487948656082153320e-01 2.000000000000000000e+00
-1.851789474487304910e+00 1.492072463035583052e+00 -6.372125148773193359e-01 1.800000000000000000e+01
-2.122312068939208984e+00 1.711267113685607910e+00 -6.294130682945251465e-01 1.300000000000000000e+01
-2.510675430297852007e+00 2.025136470794678178e+00 -6.269983649253845215e-01 1.300000000000000000e+01
-3.018877744674683061e+00 2.436797380447388139e+00 -6.144745945930480957e-01 9.000000000000000000e+00
-3.852857828140258789e+00 3.112196445465087891e+00 -6.081280112266540527e-01 8.000000000000000000e+00
-5.279792308807373047e+00 4.266344547271729404e+00 -5.938792228698730469e-01 4.000000000000000000e+00
-8.117734909057617188e+00 6.564233779907226562e+00 -5.471200942993164062e-01 2.000000000000000000e+00
-1.840569615364074929e+00 1.493657946586609109e+00 -6.351419091224670410e-01 1.800000000000000000e+01
-2.108762025833129883e+00 1.712522387504578081e+00 -6.271635293960571289e-01 1.300000000000000000e+01
-2.495972156524658203e+00 2.027698278427124023e+00 -6.250902414321899414e-01 1.300000000000000000e+01
-3.013418912887572798e+00 2.449812650680541992e+00 -6.151003241539001465e-01 9.000000000000000000e+00
-3.838891029357910156e+00 3.123121023178101030e+00 -6.076405644416809082e-01 8.000000000000000000e+00
-5.254050731658936435e+00 4.275945186614990234e+00 -5.926590561866760254e-01 4.000000000000000000e+00
-8.069993019104003906e+00 6.572350025177001953e+00 -5.454453229904174805e-01 2.000000000000000000e+00
-1.835606336593627930e+00 1.499753355979918990e+00 -6.351419091224670410e-01 1.800000000000000000e+01
-2.113631963729857954e+00 1.728140473365783913e+00 -6.303128600120544434e-01 1.200000000000000000e+01
-2.489234447479248047e+00 2.035964250564575195e+00 -6.250902414321899414e-01 1.300000000000000000e+01
-3.012921571731566939e+00 2.466047763824462891e+00 -6.166646480560302734e-01 8.000000000000000000e+00
-3.831584692001343218e+00 3.138349771499633789e+00 -6.081280112266540527e-01 8.000000000000000000e+00
-5.224431037902832031e+00 4.280717372894287109e+00 -5.909159183502197266e-01 4.000000000000000000e+00
-8.048153877258300781e+00 6.599074840545654297e+00 -5.454453229904174805e-01 2.000000000000000000e+00
-1.819917917251586914e+00 1.497559070587157981e+00 -6.315184831619262695e-01 1.600000000000000000e+01
-2.109091043472290039e+00 1.736746668815613015e+00 -6.307627558708190918e-01 1.200000000000000000e+01
-2.473020315170288086e+00 2.037151336669921875e+00 -6.228005886077880859e-01 1.300000000000000000e+01
-2.999722480773925781e+00 2.472780466079711914e+00 -6.157260537147521973e-01 9.000000000000000000e+00
-3.463545227050781250e+01 2.856141662597655895e+01 5.512150287628173828e+00 3.700000000000000000e+01
-3.812949895858765093e+00 3.145389318466186968e+00 -6.069093346595764160e-01 9.000000000000000000e+00
-5.203309535980224609e+00 4.293855190277099609e+00 -5.902186632156372070e-01 4.000000000000000000e+00
-7.985029220581054688e+00 6.594062328338623047e+00 -5.427238941192626953e-01 2.000000000000000000e+00
-1.825091481208801047e+00 1.512531638145446999e+00 -6.351419091224670410e-01 1.900000000000000000e+01
-2.104516029357910156e+00 1.745342135429382102e+00 -6.312126517295837402e-01 1.200000000000000000e+01
-2.473449230194091797e+00 2.052038908004761186e+00 -6.247086524963378906e-01 1.300000000000000000e+01
-2.981953382492064986e+00 2.475665330886840820e+00 -6.138488650321960449e-01 9.000000000000000000e+00
-3.438283157348632812e+01 2.855531501770019887e+01 5.487776756286621094e+00 3.700000000000000000e+01
-3.805001020431518999e+00 3.161216974258422852e+00 -6.073967814445495605e-01 9.000000000000000000e+00
-5.169902324676513672e+00 4.296710491180419922e+00 -5.881269574165344238e-01 4.000000000000000000e+00
-7.989603519439697266e+00 6.644883155822753906e+00 -5.446079373359680176e-01 2.000000000000000000e+00
-1.815351247787476030e+00 1.515179514884948953e+00 -6.335890293121337891e-01 1.900000000000000000e+01
-2.087941169738769975e+00 1.743932962417602983e+00 -6.280633211135864258e-01 1.100000000000000000e+01
-2.461751461029053178e+00 2.056884050369263139e+00 -6.235638260841369629e-01 1.200000000000000000e+01
-2.968747138977050781e+00 2.482258081436156782e+00 -6.129102110862731934e-01 9.000000000000000000e+00
-3.784808397293090820e+00 3.166836500167847124e+00 -6.059343814849853516e-01 9.000000000000000000e+00
-5.154872417449951172e+00 4.314730644226074219e+00 -5.881269574165344238e-01 5.000000000000000000e+00
-7.926551342010498047e+00 6.639387130737304688e+00 -5.418865084648132324e-01 2.000000000000000000e+00
-1.820936799049376997e+00 1.529572844505310059e+00 -6.372125148773193359e-01 2.000000000000000000e+01
-2.082452058792113814e+00 1.750483870506287065e+00 -6.280633211135864258e-01 1.200000000000000000e+01
-2.455277442932128906e+00 2.064607620239257812e+00 -6.235638260841369629e-01 1.100000000000000000e+01
-2.957911491394042969e+00 2.489028692245482954e+00 -6.122844815254211426e-01 8.000000000000000000e+00
-3.764211654663085938e+00 3.169760704040526900e+00 -6.042281985282897949e-01 9.000000000000000000e+00
-5.145863533020020419e+00 4.334754467010498047e+00 -5.886498689651489258e-01 4.000000000000000000e+00
-7.905653953552246094e+00 6.664256572723388672e+00 -5.418865084648132324e-01 2.000000000000000000e+00
-1.805262327194214089e+00 1.527185916900634988e+00 -6.335890293121337891e-01 2.100000000000000000e+01
-2.079303741455078125e+00 1.760260581970215066e+00 -6.289631724357604980e-01 1.100000000000000000e+01
-2.442062854766846147e+00 2.068090677261352983e+00 -6.220373511314392090e-01 1.200000000000000000e+01
-2.961261034011840820e+00 2.509555578231811968e+00 -6.147874593734741211e-01 8.000000000000000000e+00
-3.751610279083251953e+00 3.181596994400023970e+00 -6.039844751358032227e-01 9.000000000000000000e+00
-5.117027282714843750e+00 4.341090202331542969e+00 -5.870810747146606445e-01 4.000000000000000000e+00
-7.882342815399169922e+00 6.691811561584472656e+00 -5.418865084648132324e-01 2.000000000000000000e+00
-1.791097283363342063e+00 1.525961160659790039e+00 -6.304832100868225098e-01 2.400000000000000000e+01
-2.079078435897827148e+00 1.772565245628356934e+00 -6.307627558708190918e-01 1.200000000000000000e+01
-2.434828996658325195e+00 2.076602458953856978e+00 -6.220373511314392090e-01 1.100000000000000000e+01
-2.946472883224486861e+00 2.514747381210327148e+00 -6.135360002517700195e-01 8.000000000000000000e+00
-3.740481615066527876e+00 3.194673061370850053e+00 -6.039844751358032227e-01 9.000000000000000000e+00
-5.098813056945800781e+00 4.356337070465087891e+00 -5.867324471473693848e-01 4.000000000000000000e+00
-7.871080398559570312e+00 6.729668617248535156e+00 -5.427238941192626953e-01 2.000000000000000000e+00
