-8.963994026184082031e+00 -2.464046239852904829e+00 -8.133373856544494629e-01 1.000000000000000000e+00
-1.686992454528808949e+01 -4.630916595458984375e+00 -9.168213009834289551e-01 5.000000000000000000e+00
-2.544122457504272017e+00 -6.936073899269104004e-01 -7.065759897232055664e-01 1.900000000000000000e+01
-4.513766860961914062e+01 -1.229747867584229049e+01 8.165981173515319824e-01 5.400000000000000000e+01
-2.968991518020629883e+00 -8.083266615867614746e-01 -7.103954553604125977e-01 1.500000000000000000e+01
-4.519103240966796875e+01 -1.229507160186767933e+01 2.454451560974121094e+00 3.900000000000000000e+01
-3.559564590454102007e+00 -9.684466719627380371e-01 -7.170602083206176758e-01 1.200000000000000000e+01
-4.437798976898193359e+00 -1.205723285675049050e+00 -7.283588647842407227e-01 1.100000000000000000e+01
-5.935236454010009766e+00 -1.610343456268310991e+00 -7.551024556159973145e-01 5.000000000000000000e+00
-8.964848518371582031e+00 -2.430655717849731001e+00 -8.126401305198669434e-01 1.000000000000000000e+00
-1.692454338073730113e+01 -4.582440853118895596e+00 -9.189147353172302246e-01 1.100000000000000000e+01
-4.517856979370117188e+01 -1.221549510955811080e+01 -8.169122338294982910e-01 1.200000000000000000e+01
-2.553990364074707031e+00 -6.867290139198303223e-01 -7.086465358734130859e-01 1.900000000000000000e+01
-4.510307312011718750e+01 -1.211908721923827947e+01 8.152018785476684570e-01 5.400000000000000000e+01
-2.973676919937133789e+00 -7.984634041786193848e-01 -7.108453512191772461e-01 1.600000000000000000e+01
-4.517966079711914062e+01 -1.212275791168213068e+01 2.451520919799805132e+00 3.900000000000000000e+01
-3.557234764099121094e+00 -9.544891715049743652e-01 -7.159153223037719727e-01 1.200000000000000000e+01
-4.445796966552734375e+00 -1.191247701644897017e+00 -7.289845943450927734e-01 1.100000000000000000e+01
-5.931232929229736328e+00 -1.587050318717956987e+00 -7.538837790489196777e-01 7.000000000000000000e+00
-8.950181007385253906e+00 -2.393171787261962891e+00 -8.105484247207641602e-01 1.000000000000000000e+00
-1.716427612304687855e+01 -4.583103656768798828e+00 -9.310566782951354980e-01 6.000000000000000000e+00
-4.512432479858397727e+01 -1.203195762634276988e+01 -8.151670098304748535e-01 1.200000000000000000e+01
-2.554504632949829102e+00 -6.773146390914916992e-01 -7.081289291381835938e-01 2.100000000000000000e+01
-4.512963867187500000e+01 -1.195747661590575994e+01 8.149226903915405273e-01 5.400000000000000000e+01
-2.976446151733397993e+00 -7.880784869194030762e-01 -7.108453512191772461e-01 1.400000000000000000e+01
-4.515991592407227273e+01 -1.194863033294677912e+01 2.448171377182006836e+00 3.800000000000000000e+01
-3.551055192947388139e+00 -9.395554661750793457e-01 -7.140072584152221680e-01 1.200000000000000000e+01
-4.446108341217041016e+00 -1.174712538719177024e+00 -7.283588647842407227e-01 1.100000000000000000e+01
-5.952092170715332031e+00 -1.570388078689574973e+00 -7.558336853981018066e-01 7.000000000000000000e+00
-8.981598854064941406e+00 -2.368010520935059038e+00 -8.126401305198669434e-01 1.000000000000000000e+00
-1.766303062438964844e+01 -4.650287628173828125e+00 -9.572246670722961426e-01 1.200000000000000000e+01
-2.545639038085937944e+00 -6.654620766639709473e-01 -7.050230503082275391e-01 2.100000000000000000e+01
-4.514014816284179688e+01 -1.179178524017333984e+01 8.143641948699951172e-01 5.300000000000000000e+01
-2.979178905487060991e+00 -7.776839137077331543e-01 -7.108453512191772461e-01 1.300000000000000000e+01
-4.520134735107421875e+01 -1.179092025756835938e+01 2.448171377182006836e+00 3.800000000000000000e+01
-3.565711259841918945e+00 -9.301275014877319336e-01 -7.162969708442687988e-01 1.200000000000000000e+01
-4.450181961059570312e+00 -1.159185528755187988e+00 -7.283588647842407227e-01 1.100000000000000000e+01
-5.947931766510009766e+00 -1.547103285789489968e+00 -7.546149492263793945e-01 9.000000000000000000e+00
-8.982096672058105469e+00 -2.334639549255371094e+00 -8.119428753852844238e-01 1.000000000000000000e+00
-1.776614952087401988e+01 -4.611183166503906250e+00 -9.619348645210266113e-01 1.900000000000000000e+01
-3.371281051635742188e+01 -8.737561225891113281e+00 -6.079022288322448730e-01 6.000000000000000000e+00
-2.542334318161011186e+00 -6.551259160041809082e-01 -7.034701704978942871e-01 2.000000000000000000e+01
-4.513842773437500000e+01 -1.162317466735840021e+01 8.135963082313537598e-01 5.300000000000000000e+01
-2.991311550140380859e+00 -7.697080373764038086e-01 -7.130948305130004883e-01 1.500000000000000000e+01
-4.518806838989257812e+01 -1.161913967132568004e+01 2.445240497589110884e+00 3.800000000000000000e+01
-3.568936347961425781e+00 -9.176751375198364258e-01 -7.162969708442687988e-01 1.200000000000000000e+01
-4.435067653656005859e+00 -1.138731837272644043e+00 -7.252301573753356934e-01 1.100000000000000000e+01
-5.959064483642578125e+00 -1.527810692787169966e+00 -7.553461790084838867e-01 7.000000000000000000e+00
-8.940010070800781250e+00 -2.290415525436400923e+00 -8.074107766151428223e-01 1.000000000000000000e+00
-1.780729103088378906e+01 -4.555574893951416016e+00 -9.632956385612487793e-01 6.000000000000000000e+00
-2.561457395553588867e+00 -6.505272984504699707e-01 -7.081289291381835938e-01 2.200000000000000000e+01
-4.515546798706054688e+01 -1.145963859558104936e+01 8.131774067878723145e-01 5.300000000000000000e+01
-2.976979732513428178e+00 -7.549504041671752930e-01 -7.090457081794738770e-01 1.400000000000000000e+01
-4.518188858032227273e+01 -1.144955825805664062e+01 2.442728519439696822e+00 3.800000000000000000e+01
-3.564505577087401900e+00 -9.032825827598571777e-01 -7.147704958915710449e-01 1.200000000000000000e+01
-4.431355476379395419e+00 -1.121305346488953081e+00 -7.239786982536315918e-01 1.100000000000000000e+01
-5.958587646484375000e+00 -1.505541563034058061e+00 -7.546149492263793945e-01 5.000000000000000000e+00
-8.974995613098144531e+00 -2.266023397445679155e+00 -8.098511695861816406e-01 1.000000000000000000e+00
-1.793541145324707031e+01 -4.521706581115722656e+00 -9.693666100502014160e-01 6.000000000000000000e+00
-2.785069274902344105e+01 -7.011115550994873047e+00 -5.013028979301452637e-01 4.000000000000000000e+00
-2.561838388442993164e+00 -6.411131620407104492e-01 -7.076112627983093262e-01 2.000000000000000000e+01
-4.514087677001953125e+01 -1.128836345672607067e+01 8.122000694274902344e-01 5.300000000000000000e+01
-2.970143795013428178e+00 -7.421920895576477051e-01 -7.067962288856506348e-01 1.200000000000000000e+01
-4.514985275268554688e+01 -1.128223514556884943e+01 2.438960313796997070e+00 3.800000000000000000e+01
-3.565732002258300781e+00 -8.903590440750122070e-01 -7.143889069557189941e-01 1.200000000000000000e+01
-4.446743011474609375e+00 -1.108697533607482910e+00 -7.258559465408325195e-01 1.100000000000000000e+01
-5.942617416381835938e+00 -1.479457736015320046e+00 -7.519338726997375488e-01 9.000000000000000000e+00
-8.967383384704589844e+00 -2.230833053588867188e+00 -8.084566593170166016e-01 3.000000000000000000e+00
-1.818756484985351918e+01 -4.517814636230468750e+00 -9.821365475654602051e-01 6.000000000000000000e+00
-2.554682254791260210e+00 -6.298545598983764648e-01 -7.050230503082275391e-01 2.100000000000000000e+01
-4.514505386352539062e+01 -1.112211322784424006e+01 8.115717768669128418e-01 5.300000000000000000e+01
-2.991638898849486861e+00 -7.364780902862548828e-01 -7.112952470779418945e-01 1.300000000000000000e+01
-4.516374588012695312e+01 -1.110999774932860973e+01 2.437494754791260210e+00 3.800000000000000000e+01
-3.553566932678223100e+00 -8.741551637649536133e-01 -7.113359570503234863e-01 1.200000000000000000e+01
-4.450585842132568359e+00 -1.093168735504149947e+00 -7.258559465408325195e-01 1.100000000000000000e+01
-5.951601028442382812e+00 -1.459650874137877974e+00 -7.524213194847106934e-01 7.000000000000000000e+00
-8.951893806457519531e+00 -2.193826675415039062e+00 -8.063649535179138184e-01 1.000000000000000000e+00
-1.847482681274414062e+01 -4.520761489868164062e+00 -9.967906475067138672e-01 6.000000000000000000e+00
-3.403354644775391336e+01 -8.315365791320800781e+00 -6.115323305130004883e-01 7.000000000000000000e+00
-2.549356222152709961e+00 -6.191096305847167969e-01 -7.029525041580200195e-01 2.200000000000000000e+01
-4.513307571411132812e+01 -1.095219898223876953e+01 8.106642961502075195e-01 5.300000000000000000e+01
-2.996085166931151900e+00 -7.264900803565979004e-01 -7.117451429367065430e-01 1.400000000000000000e+01
-4.518481445312500000e+01 -1.095640277862549006e+01 2.436657428741455078e+00 3.800000000000000000e+01
-3.571861028671265093e+00 -8.654440045356750488e-01 -7.143889069557189941e-01 1.200000000000000000e+01
-4.456294536590576172e+00 -1.078091144561768022e+00 -7.261688113212585449e-01 1.200000000000000000e+01
-5.948941707611083984e+00 -1.437002539634705034e+00 -7.514463663101196289e-01 7.000000000000000000e+00
-8.951749801635742188e+00 -2.160695552825928178e+00 -8.056676983833312988e-01 1.000000000000000000e+00
-1.767499542236328125e+01 -4.259707450866699219e+00 -9.528284072875976562e-01 6.000000000000000000e+00
-3.401570510864257812e+01 -8.185287475585937500e+00 -6.106945872306823730e-01 7.000000000000000000e+00
-2.553380727767943892e+00 -6.106562614440917969e-01 -7.034701704978942871e-01 2.000000000000000000e+01
-4.515936279296875000e+01 -1.079179954528808949e+01 8.104548454284667969e-01 5.300000000000000000e+01
-2.998602867126464844e+00 -7.160273790359497070e-01 -7.117451429367065430e-01 1.400000000000000000e+01
-4.518004608154296875e+01 -1.078840637207031072e+01 2.434354782104492188e+00 3.800000000000000000e+01
-3.578679561614989790e+00 -8.538818955421447754e-01 -7.151521444320678711e-01 1.200000000000000000e+01
-4.442736625671386719e+00 -1.058409094810486062e+00 -7.233529686927795410e-01 1.100000000000000000e+01
-5.940402984619140625e+00 -1.413012504577636941e+00 -7.497401833534240723e-01 9.000000000000000000e+00
-8.943730354309082031e+00 -2.125749111175537109e+00 -8.042731881141662598e-01 2.000000000000000000e+00
-1.790740394592285156e+01 -4.249634742736816406e+00 -9.645516872406005859e-01 1.300000000000000000e+01
-3.402461242675781250e+01 -8.061890602111816406e+00 -6.103455424308776855e-01 7.000000000000000000e+00
-2.564793348312377930e+00 -6.044011712074279785e-01 -7.060583829879760742e-01 2.100000000000000000e+01
-4.516765213012695312e+01 -1.063556957244873047e+01 8.099662065505981445e-01 5.300000000000000000e+01
-2.981991529464722124e+00 -7.016165256500244141e-01 -7.072461247444152832e-01 1.400000000000000000e+01
-4.516298675537108664e+01 -1.061783504486083984e+01 2.431423902511597124e+00 3.800000000000000000e+01
-3.573846817016602007e+00 -8.402126431465148926e-01 -7.136256694793701172e-01 1.200000000000000000e+01
-4.450067996978759766e+00 -1.044573426246643066e+00 -7.239786982536315918e-01 1.100000000000000000e+01
-5.960517883300781250e+00 -1.396929383277893066e+00 -7.516900897026062012e-01 9.000000000000000000e+00
-8.966250419616699219e+00 -2.099713325500487837e+00 -8.056676983833312988e-01 1.000000000000000000e+00
-1.801086044311523082e+01 -4.211145401000976562e+00 -9.693666100502014160e-01 1.900000000000000000e+01
-3.419526290893554688e+01 -7.982656478881835938e+00 -6.129285097122192383e-01 7.000000000000000000e+00
-2.572533130645751953e+00 -5.967543125152587891e-01 -7.076112627983093262e-01 1.900000000000000000e+01
-4.513437271118164062e+01 -1.046158504486083984e+01 8.087096214294433594e-01 5.300000000000000000e+01
-2.999610424041748047e+00 -6.947206854820251465e-01 -7.108453512191772461e-01 1.500000000000000000e+01
-4.515514373779296875e+01 -1.045809650421142933e+01 2.429121017456055132e+00 3.800000000000000000e+01
-3.571019887924193892e+00 -8.264045715332031250e-01 -7.124807834625244141e-01 1.200000000000000000e+01
-4.445988655090332031e+00 -1.027254700660706010e+00 -7.227272391319274902e-01 1.100000000000000000e+01
-5.947949409484863281e+00 -1.372098922729491965e+00 -7.494964599609375000e-01 7.000000000000000000e+00
-8.961875915527343750e+00 -2.065717220306396040e+00 -8.046218156814575195e-01 1.000000000000000000e+00
-1.832130050659180043e+01 -4.216335296630859375e+00 -9.852766990661621094e-01 2.000000000000000000e+01
-3.428918075561522727e+01 -7.878468990325927734e+00 -6.141152977943420410e-01 1.400000000000000000e+01
-2.567066907882689986e+00 -5.860509276390075684e-01 -7.055407166481018066e-01 1.900000000000000000e+01
-4.515111923217772727e+01 -1.029952621459960938e+01 8.083605766296386719e-01 5.200000000000000000e+01
-2.992516994476317915e+00 -6.820805668830871582e-01 -7.085958123207092285e-01 1.400000000000000000e+01
-4.519137573242188211e+01 -1.030041122436523082e+01 2.429121017456055132e+00 3.800000000000000000e+01
-3.573882818222045898e+00 -8.139343261718750000e-01 -7.124807834625244141e-01 1.200000000000000000e+01
-4.457252025604248047e+00 -1.013480901718140093e+00 -7.239786982536315918e-01 1.100000000000000000e+01
-5.952702522277832031e+00 -1.351328253746032937e+00 -7.494964599609375000e-01 7.000000000000000000e+00
-8.961259841918945312e+00 -2.032659053802489790e+00 -8.039245605468750000e-01 2.000000000000000000e+00
-1.842161560058594105e+01 -4.171765804290770596e+00 -9.898822903633117676e-01 1.300000000000000000e+01
-3.423845291137695312e+01 -7.741089820861816406e+00 -6.127190589904785156e-01 1.400000000000000000e+01
-2.554018020629882812e+00 -5.736994743347167969e-01 -7.013996243476867676e-01 2.000000000000000000e+01
-4.512045669555664062e+01 -1.012696743011474965e+01 8.071737885475158691e-01 5.200000000000000000e+01
-2.996781110763549805e+00 -6.720569729804992676e-01 -7.090457081794738770e-01 1.600000000000000000e+01
-4.522705459594727273e+01 -1.014260196685791016e+01 2.429121017456055132e+00 3.800000000000000000e+01
-3.574786424636840820e+00 -8.010249137878417969e-01 -7.120991945266723633e-01 1.100000000000000000e+01
-4.460762500762938565e+00 -9.979160428047180176e-01 -7.239786982536315918e-01 1.100000000000000000e+01
-5.965132713317871094e+00 -1.332272052764893022e+00 -7.504714131355285645e-01 7.000000000000000000e+00
-8.948855400085449219e+00 -1.997026562690735085e+00 -8.021814823150634766e-01 1.000000000000000000e+00
-1.856472969055176137e+01 -4.136102676391601562e+00 -9.967906475067138672e-01 1.300000000000000000e+01
-3.427697753906250000e+01 -7.624133110046386719e+00 -6.129285097122192383e-01 7.000000000000000000e+00
-2.556005001068114790e+00 -5.647808313369750977e-01 -7.013996243476867676e-01 1.700000000000000000e+01
-4.512819290161132812e+01 -9.963370323181152344e+00 8.066851496696472168e-01 5.200000000000000000e+01
-3.004817724227904829e+00 -6.628515720367431641e-01 -7.103954553604125977e-01 1.600000000000000000e+01
-4.518806838989257812e+01 -9.968318939208984375e+00 2.425143480300902876e+00 3.700000000000000000e+01
-3.579478025436400923e+00 -7.889643311500549316e-01 -7.124807834625244141e-01 1.200000000000000000e+01
-4.444926738739013672e+00 -9.780938029289245605e-01 -7.208499908447265625e-01 1.100000000000000000e+01
-5.958113670349121094e+00 -1.308886170387268066e+00 -7.490090131759643555e-01 7.000000000000000000e+00
-8.947987556457519531e+00 -1.964068412780761941e+00 -8.014842271804809570e-01 1.000000000000000000e+00
-1.866099548339844105e+01 -4.089230060577392578e+00 -1.001186847686768022e+00 7.000000000000000000e+00
-3.418617248535156250e+01 -7.478796005249023438e+00 -6.108342409133911133e-01 7.000000000000000000e+00
-2.561736345291138139e+00 -5.566756725311279297e-01 -7.024348974227905273e-01 1.800000000000000000e+01
-4.515097045898438211e+01 -9.803236961364746094e+00 8.064756989479064941e-01 5.200000000000000000e+01
-2.997591018676757812e+00 -6.502929925918579102e-01 -7.081459164619445801e-01 1.500000000000000000e+01
-4.518745422363281250e+01 -9.802900314331054688e+00 2.423259496688843218e+00 3.700000000000000000e+01
-3.584128856658935991e+00 -7.768806815147399902e-01 -7.128624320030212402e-01 1.100000000000000000e+01
-4.452175140380859375e+00 -9.634076952934265137e-01 -7.214757800102233887e-01 1.100000000000000000e+01
-5.952944755554199219e+00 -1.285984635353087935e+00 -7.477902770042419434e-01 9.000000000000000000e+00
-8.970368385314941406e+00 -1.936185002326965110e+00 -8.028786778450012207e-01 1.000000000000000000e+00
-3.419252014160156250e+01 -7.355213165283203125e+00 -6.104851961135864258e-01 7.000000000000000000e+00
-2.563663959503173828e+00 -5.477302074432373047e-01 -7.024348974227905273e-01 1.700000000000000000e+01
-4.516144943237304688e+01 -9.640561103820800781e+00 8.060568571090698242e-01 5.200000000000000000e+01
-2.996031045913695845e+00 -6.390125155448913574e-01 -7.072461247444152832e-01 1.500000000000000000e+01
-4.518791961669921875e+01 -9.629720687866210938e+00 2.421375274658203125e+00 3.700000000000000000e+01
-3.571457624435424805e+00 -7.610914707183837891e-01 -7.098094820976257324e-01 1.100000000000000000e+01
-4.447782039642333984e+00 -9.462167024612426758e-01 -7.202242612838745117e-01 1.100000000000000000e+01
-5.939921379089354581e+00 -1.261485695838928001e+00 -7.455966472625732422e-01 1.100000000000000000e+01
-8.938093185424804688e+00 -1.896589636802672896e+00 -7.993924617767333984e-01 1.000000000000000000e+00
-3.425711822509766336e+01 -7.244088649749755859e+00 -6.111832857131958008e-01 7.000000000000000000e+00
-2.565560340881348100e+00 -5.387780070304870605e-01 -7.024348974227905273e-01 1.800000000000000000e+01
-4.519091033935546875e+01 -9.482038497924804688e+00 8.059870600700378418e-01 5.200000000000000000e+01
-2.990614175796508789e+00 -6.269511580467224121e-01 -7.054464817047119141e-01 1.500000000000000000e+01
-4.517043304443358664e+01 -9.461281776428222656e+00 2.418653964996337891e+00 3.700000000000000000e+01
-3.577935695648192915e+00 -7.494251132011413574e-01 -7.105727195739746094e-01 1.100000000000000000e+01
-4.458792209625244141e+00 -9.323024153709411621e-01 -7.214757800102233887e-01 1.100000000000000000e+01
-5.952061176300048828e+00 -1.242366194725037065e+00 -7.465716004371643066e-01 9.000000000000000000e+00
-8.936857223510742188e+00 -1.863751292228698953e+00 -7.986952066421508789e-01 1.000000000000000000e+00
-3.435267639160156250e+01 -7.139112472534179688e+00 -6.124398708343505859e-01 7.000000000000000000e+00
-2.552289485931396040e+00 -5.266957283020019531e-01 -6.982938051223754883e-01 1.800000000000000000e+01
-4.517281341552733664e+01 -9.313735961914062500e+00 8.050795197486877441e-01 5.200000000000000000e+01
-3.008053779602050781e+00 -6.196535825729370117e-01 -7.090457081794738770e-01 1.500000000000000000e+01
-4.516405868530272727e+01 -9.295496940612792969e+00 2.416560411453247070e+00 3.700000000000000000e+01
-3.576683998107910156e+00 -7.361396551132202148e-01 -7.098094820976257324e-01 1.300000000000000000e+01
-4.458149433135986328e+00 -9.159376025199890137e-01 -7.208499908447265625e-01 1.100000000000000000e+01
-5.954417228698729581e+00 -1.221183300018310991e+00 -7.463278770446777344e-01 9.000000000000000000e+00
-8.912078857421875000e+00 -1.826145291328429954e+00 -7.959062457084655762e-01 1.000000000000000000e+00
-3.428726196289063211e+01 -7.000753879547119141e+00 -6.108342409133911133e-01 7.000000000000000000e+00
-2.554112434387207031e+00 -5.177834033966064453e-01 -6.982938051223754883e-01 1.700000000000000000e+01
-4.516193008422852273e+01 -9.147263526916503906e+00 8.043115735054016113e-01 5.200000000000000000e+01
-3.008288383483887163e+00 -6.087632179260253906e-01 -7.085958123207092285e-01 1.400000000000000000e+01
-4.518840026855468750e+01 -9.136204719543457031e+00 2.416141748428345171e+00 3.700000000000000000e+01
-3.588853359222412109e+00 -7.255955338478088379e-01 -7.117175459861755371e-01 1.300000000000000000e+01
-4.449701786041259766e+00 -8.980254530906677246e-01 -7.189728021621704102e-01 1.100000000000000000e+01
-5.958643436431884766e+00 -1.200391054153441939e+00 -7.463278770446777344e-01 1.100000000000000000e+01
-8.906680107116699219e+00 -1.792666435241698997e+00 -7.948603630065917969e-01 1.000000000000000000e+00
-3.428404235839843750e+01 -6.875521183013916016e+00 -6.103455424308776855e-01 1.400000000000000000e+01
-2.569166898727416992e+00 -5.115052461624145508e-01 -7.019172310829162598e-01 1.900000000000000000e+01
-4.517005157470703125e+01 -8.984881401062011719e+00 8.038927316665649414e-01 5.200000000000000000e+01
-2.997015476226807085e+00 -5.955997109413146973e-01 -7.054464817047119141e-01 1.500000000000000000e+01
-4.520434570312500000e+01 -8.975300788879394531e+00 2.415304422378540039e+00 3.700000000000000000e+01
-3.589438676834106001e+00 -7.126813530921936035e-01 -7.113359570503234863e-01 1.300000000000000000e+01
-4.460559844970703125e+00 -8.840237259864807129e-01 -7.202242612838745117e-01 1.100000000000000000e+01
-5.962797164916992188e+00 -1.179584145545959029e+00 -7.463278770446777344e-01 9.000000000000000000e+00
-8.940247535705566406e+00 -1.766973733901977983e+00 -7.973007559776306152e-01 2.000000000000000000e+00
-3.440593338012695312e+01 -6.775123596191406250e+00 -6.120908260345458984e-01 7.000000000000000000e+00
-2.572832822799683061e+00 -5.029046535491943359e-01 -7.024348974227905273e-01 1.900000000000000000e+01
-4.518936157226563211e+01 -8.824854850769042969e+00 8.036833405494689941e-01 5.200000000000000000e+01
-2.989512920379639116e+00 -5.832687020301818848e-01 -7.031970024108886719e-01 1.400000000000000000e+01
-4.521579360961914062e+01 -8.813632011413574219e+00 2.414257764816284180e+00 3.700000000000000000e+01
-3.589977502822875977e+00 -6.997718811035156250e-01 -7.109543085098266602e-01 1.300000000000000000e+01
-4.455862522125244141e+00 -8.669390678405761719e-01 -7.189728021621704102e-01 1.100000000000000000e+01
-5.933750629425048828e+00 -1.152329564094543013e+00 -7.421842813491821289e-01 1.100000000000000000e+01
-8.911153793334960938e+00 -1.728924989700316939e+00 -7.941631078720092773e-01 1.000000000000000000e+00
-3.441759109497070312e+01 -6.652706146240234375e+00 -6.118813753128051758e-01 7.000000000000000000e+00
-2.565086126327515093e+00 -4.921008348464965820e-01 -6.998466849327087402e-01 1.900000000000000000e+01
-4.521203613281250000e+01 -8.665555000305175781e+00 8.035436868667602539e-01 5.200000000000000000e+01
-3.008756399154663086e+00 -5.761282444000244141e-01 -7.072461247444152832e-01 1.500000000000000000e+01
-4.520705032348632812e+01 -8.648240089416503906e+00 2.412164211273192915e+00 3.700000000000000000e+01
-3.578900337219237837e+00 -6.846540570259094238e-01 -7.082830071449279785e-01 1.300000000000000000e+01
-4.462742328643798828e+00 -8.521208763122558594e-01 -7.195985317230224609e-01 1.100000000000000000e+01
-5.943586826324462891e+00 -1.132724761962891069e+00 -7.429155111312866211e-01 1.100000000000000000e+01
-8.850588798522949219e+00 -1.685138463973999023e+00 -7.882365584373474121e-01 1.000000000000000000e+00
-3.443274688720703125e+01 -6.531035423278808594e+00 -6.117417216300964355e-01 7.000000000000000000e+00
-2.557295799255371094e+00 -4.813572168350219727e-01 -6.972585320472717285e-01 1.900000000000000000e+01
-4.518698120117188211e+01 -8.497334480285644531e+00 8.025663495063781738e-01 5.100000000000000000e+01
-3.008833885192871094e+00 -5.652623772621154785e-01 -7.067962288856506348e-01 1.600000000000000000e+01
-4.520948410034179688e+01 -8.485227584838867188e+00 2.410698890686035156e+00 3.700000000000000000e+01
-3.585127592086791992e+00 -6.728814840316772461e-01 -7.090462446212768555e-01 1.300000000000000000e+01
-4.452098369598388672e+00 -8.339918255805969238e-01 -7.174084782600402832e-01 1.000000000000000000e+01
-5.926040649414063388e+00 -1.107957839965820090e+00 -7.402343750000000000e-01 9.000000000000000000e+00
-8.876002311706542969e+00 -1.657892107963562012e+00 -7.899796366691589355e-01 2.000000000000000000e+00
-3.439242553710938211e+01 -6.399097442626953125e+00 -6.106247901916503906e-01 1.400000000000000000e+01
-2.562759876251221147e+00 -4.731291234493256170e-01 -6.982938051223754883e-01 1.900000000000000000e+01
-4.516917037963867188e+01 -8.330845832824707031e+00 8.017286658287048340e-01 5.100000000000000000e+01
-3.010788679122924805e+00 -5.547561645507812500e-01 -7.067962288856506348e-01 1.600000000000000000e+01
-4.521525573730468750e+01 -8.323026657104492188e+00 2.409442663192749023e+00 3.700000000000000000e+01
-3.591316223144530806e+00 -6.610738039016723633e-01 -7.098094820976257324e-01 1.400000000000000000e+01
-4.449153900146484375e+00 -8.173752427101135254e-01 -7.164698243141174316e-01 1.100000000000000000e+01
-5.951350212097167969e+00 -1.091203451156615989e+00 -7.429155111312866211e-01 9.000000000000000000e+00
-8.901333808898925781e+00 -1.630488753318787065e+00 -7.917227745056152344e-01 2.000000000000000000e+00
-3.438700866699218750e+01 -6.273981571197509766e+00 -6.101361513137817383e-01 2.100000000000000000e+01
-2.570098876953125000e+00 -4.652128219604492188e-01 -6.998466849327087402e-01 1.900000000000000000e+01
-4.513500595092772727e+01 -8.161739349365234375e+00 8.006116747856140137e-01 5.100000000000000000e+01
-3.001200675964355025e+00 -5.421645641326904297e-01 -7.040967941284179688e-01 1.400000000000000000e+01
-4.522044754028320312e+01 -8.160888671875000000e+00 2.408186674118041992e+00 3.700000000000000000e+01
-3.591669797897338867e+00 -6.481850743293762207e-01 -7.094278335571289062e-01 1.300000000000000000e+01
-4.463644504547119141e+00 -8.039406538009643555e-01 -7.183470726013183594e-01 1.100000000000000000e+01
-5.941446304321289062e+00 -1.067964434623718040e+00 -7.412093281745910645e-01 9.000000000000000000e+00
-8.859906196594238281e+00 -1.590956091880797896e+00 -7.875393033027648926e-01 1.000000000000000000e+00
-3.449137496948242188e+01 -6.168696403503417969e+00 -6.116021275520324707e-01 7.000000000000000000e+00
-2.573449611663817915e+00 -4.574744403362274170e-01 -7.003643512725830078e-01 2.100000000000000000e+01
-4.514073562622070312e+01 -8.016407012939453125e+00 8.002626299858093262e-01 5.100000000000000000e+01
-2.991376399993896040e+00 -5.306909084320068359e-01 -7.013973593711853027e-01 1.400000000000000000e+01
-4.521439361572266336e+01 -8.013207435607910156e+00 2.406512022018433061e+00 3.700000000000000000e+01
-3.580156564712523970e+00 -6.345000863075256348e-01 -7.067565321922302246e-01 1.300000000000000000e+01
-4.466147899627686435e+00 -7.899137735366821289e-01 -7.183470726013183594e-01 1.200000000000000000e+01
-5.946726799011229581e+00 -1.049638628959655984e+00 -7.414531111717224121e-01 9.000000000000000000e+00
-8.872709274291992188e+00 -1.564497947692871094e+00 -7.882365584373474121e-01 2.000000000000000000e+00
-3.428999710083007812e+01 -6.021571159362792969e+00 -6.076927781105041504e-01 6.000000000000000000e+00
-2.578837156295775923e+00 -4.491516053676605225e-01 -7.013996243476867676e-01 2.100000000000000000e+01
-4.512510299682617188e+01 -7.851246356964111328e+00 7.994947433471679688e-01 5.100000000000000000e+01
-3.000890493392943892e+00 -5.215806365013122559e-01 -7.031970024108886719e-01 1.500000000000000000e+01
-4.518699264526367188e+01 -7.845764636993408203e+00 2.403581142425537109e+00 3.600000000000000000e+01
-3.580415248870850053e+00 -6.216633319854736328e-01 -7.063748836517333984e-01 1.200000000000000000e+01
-4.464985370635986328e+00 -7.736446857452392578e-01 -7.177213430404663086e-01 1.100000000000000000e+01
-5.936662197113037109e+00 -1.026506662368773970e+00 -7.397469282150268555e-01 1.100000000000000000e+01
-8.858483314514160156e+00 -1.530125737190247026e+00 -7.864934206008911133e-01 1.000000000000000000e+00
-3.430686569213867188e+01 -5.901162147521972656e+00 -6.076229810714721680e-01 1.300000000000000000e+01
-2.565307140350341797e+00 -4.366529583930969238e-01 -6.972585320472717285e-01 2.200000000000000000e+01
-4.515491485595703125e+01 -7.677920818328857422e+00 7.994947433471679688e-01 5.100000000000000000e+01
-3.012477159500122070e+00 -5.116859078407287598e-01 -7.054464817047119141e-01 1.400000000000000000e+01
-4.522269058227539062e+01 -7.673203945159912109e+00 2.403895139694213867e+00 3.600000000000000000e+01
-3.573097944259643999e+00 -6.062688231468200684e-01 -7.044668197631835938e-01 1.300000000000000000e+01
-4.471818447113037109e+00 -7.571542859077453613e-01 -7.183470726013183594e-01 1.100000000000000000e+01
-5.936645030975341797e+00 -1.003042578697205034e+00 -7.392594218254089355e-01 1.100000000000000000e+01
-8.844646453857421875e+00 -1.492784500122070090e+00 -7.847502827644348145e-01 1.000000000000000000e+00
-3.440815353393554688e+01 -5.782646656036376953e+00 -6.090191602706909180e-01 1.300000000000000000e+01
-2.570626974105834961e+00 -4.283307194709777832e-01 -6.982938051223754883e-01 2.100000000000000000e+01
-4.516566085815429688e+01 -7.517627239227294922e+00 7.992154955863952637e-01 5.100000000000000000e+01
-3.010400295257567915e+00 -5.005280375480651855e-01 -7.045466899871826172e-01 1.300000000000000000e+01
-4.522949981689453125e+01 -7.512028217315673828e+00 2.402848482131958008e+00 3.600000000000000000e+01
-3.584876060485839844e+00 -5.954010486602783203e-01 -7.063748836517333984e-01 1.200000000000000000e+01
-4.462741374969482422e+00 -7.396022677421569824e-01 -7.164698243141174316e-01 1.100000000000000000e+01
-5.945985794067382812e+00 -9.832853674888610840e-01 -7.399906516075134277e-01 1.100000000000000000e+01
-8.873393058776855469e+00 -1.465798497200011985e+00 -7.868420481681823730e-01 2.000000000000000000e+00
-3.437287902832031250e+01 -5.653417587280273438e+00 -6.080418229103088379e-01 6.000000000000000000e+00
-2.577826499938964844e+00 -4.202875494956970215e-01 -6.998466849327087402e-01 2.300000000000000000e+01
-4.517189025878906250e+01 -7.356709480285645419e+00 7.988664507865905762e-01 5.100000000000000000e+01
-2.992894649505614790e+00 -4.868876338005065918e-01 -7.000476717948913574e-01 1.400000000000000000e+01
-4.524233245849608664e+01 -7.360076427459716797e+00 2.402220487594604048e+00 3.600000000000000000e+01
-3.586932420730590820e+00 -5.828838348388671875e-01 -7.063748836517333984e-01 1.300000000000000000e+01
-4.469195365905761719e+00 -7.246522307395935059e-01 -7.170956134796142578e-01 1.100000000000000000e+01
-5.951341629028320312e+00 -9.628410935401916504e-01 -7.402343750000000000e-01 1.100000000000000000e+01
-8.866654396057128906e+00 -1.432908535003662109e+00 -7.857961654663085938e-01 2.000000000000000000e+00
-3.447137451171875000e+01 -5.546105384826660156e+00 -6.094380617141723633e-01 7.000000000000000000e+00
-2.579277753829956055e+00 -4.112867116928101141e-01 -6.998466849327087402e-01 2.300000000000000000e+01
-4.516569900512695312e+01 -7.193952560424804688e+00 7.983079552650451660e-01 5.100000000000000000e+01
-2.994575738906859907e+00 -4.764375090599060059e-01 -7.000476717948913574e-01 1.400000000000000000e+01
-4.520982742309570312e+01 -7.184801101684570312e+00 2.399080276489257812e+00 3.600000000000000000e+01
-3.587006330490111861e+00 -5.700514316558837891e-01 -7.059932947158813477e-01 1.300000000000000000e+01
-4.483403682708740234e+00 -7.109035849571228027e-01 -7.189728021621704102e-01 1.100000000000000000e+01
-5.913491249084472656e+00 -9.355470538139343262e-01 -7.351158857345581055e-01 9.000000000000000000e+00
-8.855857849121093750e+00 -1.399461507797240989e+00 -7.844016551971435547e-01 2.000000000000000000e+00
-3.465250778198242188e+01 -5.451225757598876953e+00 -6.123002171516418457e-01 7.000000000000000000e+00
-2.574831008911132812e+00 -4.022870063781737726e-01 -6.982938051223754883e-01 2.100000000000000000e+01
-4.514855957031250000e+01 -7.045858383178710938e+00 7.976098656654357910e-01 5.100000000000000000e+01
-2.997983217239379883e+00 -4.673275947570800781e-01 -7.004975676536560059e-01 1.500000000000000000e+01
-4.515990447998046875e+01 -7.039555072784423828e+00 2.395312070846558061e+00 3.600000000000000000e+01
-3.584899902343750000e+00 -5.581756234169006348e-01 -7.052300572395324707e-01 1.200000000000000000e+01
-4.481711387634277344e+00 -6.962085962295532227e-01 -7.183470726013183594e-01 1.100000000000000000e+01
-5.916401386260986328e+00 -9.169647097587585449e-01 -7.351158857345581055e-01 1.100000000000000000e+01
-8.840521812438964844e+00 -1.368584990501404031e+00 -7.826585769653320312e-01 2.000000000000000000e+00
-3.470898818969727273e+01 -5.348425865173339844e+00 -6.129983067512512207e-01 1.400000000000000000e+01
-2.568580627441405806e+00 -3.921305239200592041e-01 -6.962232589721679688e-01 2.100000000000000000e+01
-4.518078613281250000e+01 -6.889423370361328125e+00 7.977495193481445312e-01 5.100000000000000000e+01
-3.001522779464722124e+00 -4.571532309055327814e-01 -7.009474635124206543e-01 1.300000000000000000e+01
-4.521579360961914062e+01 -6.886686325073242188e+00 2.396986722946166992e+00 3.600000000000000000e+01
-3.579062700271606001e+00 -5.444775223731994629e-01 -7.037035822868347168e-01 1.300000000000000000e+01
-4.468490123748779297e+00 -6.781889796257019043e-01 -7.158440947532653809e-01 1.100000000000000000e+01
-5.919566154479979581e+00 -8.963069915771484375e-01 -7.351158857345581055e-01 9.000000000000000000e+00
-8.829484939575195312e+00 -1.335334062576293945e+00 -7.812640666961669922e-01 2.000000000000000000e+00
-3.474722290039063211e+01 -5.230212688446044922e+00 -6.133473515510559082e-01 1.400000000000000000e+01
-2.566112279891968218e+00 -3.825923502445220947e-01 -6.951879262924194336e-01 2.100000000000000000e+01
-4.514522552490233664e+01 -6.722835063934326172e+00 7.967023253440856934e-01 5.100000000000000000e+01
-3.006955385208129883e+00 -4.472465813159943182e-01 -7.018473148345947266e-01 1.400000000000000000e+01
-4.522097396850585938e+01 -6.717981338500976562e+00 2.395940065383911133e+00 3.600000000000000000e+01
-3.586767196655272993e+00 -5.328463912010192871e-01 -7.048484086990356445e-01 1.200000000000000000e+01
-4.468875885009765625e+00 -6.622973084449768066e-01 -7.155312299728393555e-01 1.000000000000000000e+01
-5.934441089630126953e+00 -8.773803710937500000e-01 -7.365782856941223145e-01 9.000000000000000000e+00
-8.841976165771484375e+00 -1.305669546127318892e+00 -7.819613218307495117e-01 2.000000000000000000e+00
-3.474943923950195312e+01 -5.106564521789550781e+00 -6.130681037902832031e-01 1.400000000000000000e+01
-2.571255683898925781e+00 -3.741890490055084229e-01 -6.962232589721679688e-01 2.100000000000000000e+01
-4.516841506958007812e+01 -6.565207481384277344e+00 7.967023253440856934e-01 5.100000000000000000e+01
-2.977641820907593218e+00 -4.322681725025177002e-01 -6.946488618850708008e-01 1.400000000000000000e+01
-4.521533203125000000e+01 -6.563969135284423828e+00 2.394474744796752930e+00 3.600000000000000000e+01
-3.590548276901245117e+00 -5.206047296524047852e-01 -7.052300572395324707e-01 1.200000000000000000e+01
-4.467250823974609375e+00 -6.461284756660461426e-01 -7.149055004119873047e-01 1.000000000000000000e+01
-5.929608821868895596e+00 -8.555260896682739258e-01 -7.356033325195312500e-01 9.000000000000000000e+00
-8.830703735351562500e+00 -1.272523880004883035e+00 -7.805668115615844727e-01 2.000000000000000000e+00
-3.475319671630858664e+01 -4.983248710632324219e+00 -6.128237843513488770e-01 2.100000000000000000e+01
-2.580260753631591797e+00 -3.658472001552581787e-01 -6.982938051223754883e-01 2.200000000000000000e+01
-4.517633438110352273e+01 -6.397369861602783203e+00 7.964231371879577637e-01 5.000000000000000000e+01
-3.006219863891602007e+00 -4.251722097396851141e-01 -7.009474635124206543e-01 1.400000000000000000e+01
-4.518767166137695312e+01 -6.390930175781250000e+00 2.391753196716309038e+00 3.600000000000000000e+01
-3.580768585205078125e+00 -5.057936906814575195e-01 -7.029403448104858398e-01 1.200000000000000000e+01
-4.469588756561279297e+00 -6.297507882118225098e-01 -7.149055004119873047e-01 1.000000000000000000e+01
-5.916978359222412109e+00 -8.315770626068115234e-01 -7.336534261703491211e-01 9.000000000000000000e+00
-8.831362724304199219e+00 -1.239595293998718040e+00 -7.802181839942932129e-01 2.000000000000000000e+00
-3.479697418212891336e+01 -4.859433650970458984e+00 -6.132775545120239258e-01 7.000000000000000000e+00
-2.570040225982666016e+00 -3.552510738372802734e-01 -6.951879262924194336e-01 2.100000000000000000e+01
-4.520631408691406250e+01 -6.240730285644531250e+00 7.965627312660217285e-01 5.000000000000000000e+01
-2.999963760375977007e+00 -4.136113226413726807e-01 -6.991478800773620605e-01 1.400000000000000000e+01
-4.523344421386718750e+01 -6.236430644989013672e+00 2.393009185791016069e+00 3.600000000000000000e+01
-3.578622579574584961e+00 -4.927557706832885742e-01 -7.021771073341369629e-01 1.200000000000000000e+01
-4.479588031768798828e+00 -6.152203083038330078e-01 -7.161569595336914062e-01 1.000000000000000000e+01
-5.919845104217529297e+00 -8.109179139137268066e-01 -7.336534261703491211e-01 9.000000000000000000e+00
-8.815896034240722656e+00 -1.206060051918030007e+00 -7.784751057624816895e-01 2.000000000000000000e+00
-3.482561492919921875e+01 -4.739557743072509766e+00 -6.134870052337646484e-01 7.000000000000000000e+00
-2.565520763397216797e+00 -3.455042541027069092e-01 -6.936350464820861816e-01 2.000000000000000000e+01
-4.520800399780272727e+01 -6.080226898193359375e+00 7.962136864662170410e-01 5.000000000000000000e+01
-3.016840219497681108e+00 -4.052123129367827814e-01 -7.027471065521240234e-01 1.400000000000000000e+01
-4.522326660156250000e+01 -6.074244022369384766e+00 2.391334533691405806e+00 3.600000000000000000e+01
-3.574483156204224077e+00 -4.794780313968657892e-01 -7.010322213172912598e-01 1.300000000000000000e+01
-4.469960689544677734e+00 -5.980082154273986816e-01 -7.142797708511352539e-01 1.000000000000000000e+01
-5.924607276916503906e+00 -7.905113697052001953e-01 -7.338972091674804688e-01 1.100000000000000000e+01
-8.804252624511718750e+00 -1.173174142837523970e+00 -7.770805954933166504e-01 2.000000000000000000e+00
-3.486573410034179688e+01 -4.621118068695068359e+00 -6.139058470726013184e-01 1.400000000000000000e+01
-2.574373006820679155e+00 -3.375514447689055841e-01 -6.957055926322937012e-01 1.900000000000000000e+01
-4.520912551879882812e+01 -5.919788360595703125e+00 7.958646416664123535e-01 5.000000000000000000e+01
-2.998913526535034180e+00 -3.921523392200469971e-01 -6.982480883598327637e-01 1.400000000000000000e+01
-4.518874359130858664e+01 -5.909097671508789062e+00 2.388403654098511186e+00 3.600000000000000000e+01
-3.587815523147583008e+00 -4.685231149196624756e-01 -7.033219337463378906e-01 1.200000000000000000e+01
-4.464185237884520596e+00 -5.813810825347900391e-01 -7.130283117294311523e-01 1.000000000000000000e+01
-5.925362110137938565e+00 -7.695701718330383301e-01 -7.336534261703491211e-01 1.100000000000000000e+01
-8.788536071777343750e+00 -1.139871716499329057e+00 -7.753375172615051270e-01 2.000000000000000000e+00
-1.807046127319335938e+01 -2.337322473526000977e+00 -9.549218416213989258e-01 6.000000000000000000e+00
-3.485388565063477273e+01 -4.495804309844970703e+00 -6.134172081947326660e-01 7.000000000000000000e+00
-2.569729566574097124e+00 -3.282782435417174738e-01 -6.941526532173156738e-01 1.900000000000000000e+01
-4.518883514404296875e+01 -5.764775753021240234e+00 7.951665520668029785e-01 5.000000000000000000e+01
-2.990531921386719194e+00 -3.809741139411926270e-01 -6.959985494613647461e-01 1.500000000000000000e+01
-4.519720840454102273e+01 -5.749811172485351562e+00 2.387775659561156782e+00 3.600000000000000000e+01
-3.591297149658203125e+00 -4.568706750869750977e-01 -7.037035822868347168e-01 1.200000000000000000e+01
-4.487257003784179688e+01 -5.700553417205811435e+00 3.957393646240233931e+00 5.400000000000000000e+01
-4.477846622467041016e+00 -5.680657625198364258e-01 -7.149055004119873047e-01 1.000000000000000000e+01
-5.908187389373779297e+00 -7.474253177642822266e-01 -7.312160730361938477e-01 1.200000000000000000e+01
-8.804127693176269531e+00 -1.112219929695128950e+00 -7.763833403587341309e-01 3.000000000000000000e+00
-1.807811164855957031e+01 -2.277385950088500977e+00 -9.549218416213989258e-01 6.000000000000000000e+00
-3.486066818237304688e+01 -4.379202842712402344e+00 -6.132775545120239258e-01 1.400000000000000000e+01
-2.582362413406372070e+00 -3.207348883152008057e-01 -6.972585320472717285e-01 2.100000000000000000e+01
-4.468477630615233664e+01 -5.542025089263916016e+00 7.859516739845275879e-01 4.900000000000000000e+01
-2.987975597381591797e+00 -3.700538575649260919e-01 -6.950987577438354492e-01 1.500000000000000000e+01
-4.474525070190429688e+01 -5.533666133880615234e+00 2.362863779067993164e+00 3.500000000000000000e+01
-3.583127975463867188e+00 -4.431271255016326904e-01 -7.017954587936401367e-01 1.200000000000000000e+01
-4.475773620605468750e+01 -5.527279376983642578e+00 3.945540428161621094e+00 5.400000000000000000e+01
-4.469999790191650391e+00 -5.512228608131408691e-01 -7.133411765098571777e-01 8.000000000000000000e+00
-5.908790111541748047e+00 -7.265550494194030762e-01 -7.309723496437072754e-01 1.100000000000000000e+01
-8.811911582946777344e+00 -1.081966638565063032e+00 -7.767319679260253906e-01 2.000000000000000000e+00
-3.483802795410156250e+01 -4.252885818481445312e+00 -6.126143932342529297e-01 2.100000000000000000e+01
-2.579684734344481978e+00 -3.108057379722595215e-01 -6.962232589721679688e-01 2.100000000000000000e+01
-4.470479202270507812e+01 -5.378210067749023438e+00 7.859516739845275879e-01 4.900000000000000000e+01
-2.995116233825684038e+00 -3.597971796989440918e-01 -6.964484453201293945e-01 1.400000000000000000e+01
-4.472953414916992188e+01 -5.365347862243652344e+00 2.360979557037353960e+00 3.500000000000000000e+01
-3.569133758544921875e+00 -4.281207919120789129e-01 -6.987425684928894043e-01 1.300000000000000000e+01
-4.481330108642578125e+01 -5.367461681365966797e+00 3.948678016662598100e+00 5.400000000000000000e+01
-4.477874279022216797e+00 -5.355395674705505371e-01 -7.142797708511352539e-01 1.000000000000000000e+01
-5.913384437561035156e+00 -7.051284313201904297e-01 -7.312160730361938477e-01 1.000000000000000000e+01
-8.788120269775390625e+00 -1.046364307403564009e+00 -7.742916345596313477e-01 2.000000000000000000e+00
-3.484940719604492188e+01 -4.124699115753173828e+00 -6.125445365905761719e-01 2.100000000000000000e+01
-2.567322492599486861e+00 -3.002283573150634766e-01 -6.925997734069824219e-01 1.900000000000000000e+01
-4.471137619018554688e+01 -5.220736980438232422e+00 7.857422232627868652e-01 4.900000000000000000e+01
-3.000225305557250977e+00 -3.497914075851439875e-01 -6.973482966423034668e-01 1.400000000000000000e+01
-4.472815322875977273e+01 -5.206870555877686435e+00 2.359932899475098100e+00 3.400000000000000000e+01
-3.572556495666503906e+00 -4.158866107463837225e-01 -6.991241574287414551e-01 1.300000000000000000e+01
-4.477239227294921875e+01 -5.204100608825683594e+00 3.943448781967163086e+00 5.400000000000000000e+01
-4.473829746246337891e+00 -5.192223787307739258e-01 -7.133411765098571777e-01 8.000000000000000000e+00
-5.915810108184813565e+00 -6.844825744628906250e-01 -7.312160730361938477e-01 1.200000000000000000e+01
-8.791718482971191406e+00 -1.015681624412537065e+00 -7.742916345596313477e-01 2.000000000000000000e+00
-1.810133361816405895e+01 -2.084791660308837891e+00 -9.549218416213989258e-01 6.000000000000000000e+00
-3.479803466796875000e+01 -3.995499610900878906e+00 -6.113926768302917480e-01 2.100000000000000000e+01
-2.574062347412108931e+00 -2.923672199249268133e-01 -6.941526532173156738e-01 2.100000000000000000e+01
-4.468870162963867188e+01 -5.067933082580566406e+00 7.850441336631774902e-01 4.900000000000000000e+01
-2.997495889663695845e+00 -3.394018709659575861e-01 -6.964484453201293945e-01 1.200000000000000000e+01
-4.472532653808593750e+01 -5.056274414062500000e+00 2.358886241912841797e+00 3.400000000000000000e+01
-3.571965217590332031e+00 -4.038167297840117853e-01 -6.987425684928894043e-01 1.200000000000000000e+01
-4.477752304077147727e+01 -5.054260253906250000e+00 3.942402839660644975e+00 5.400000000000000000e+01
-4.479452610015869141e+00 -5.048262476921081543e-01 -7.139669060707092285e-01 8.000000000000000000e+00
-5.929883480072020596e+00 -6.661909818649291992e-01 -7.326784729957580566e-01 9.000000000000000000e+00
-8.759399414062500000e+00 -9.825240373611450195e-01 -7.711539864540100098e-01 2.000000000000000000e+00
-3.484686660766602273e+01 -3.884070396423339844e+00 -6.120209693908691406e-01 1.400000000000000000e+01
-2.580828189849853960e+00 -2.840142548084259033e-01 -6.957055926322937012e-01 1.700000000000000000e+01
-4.471009445190429688e+01 -4.912346363067626953e+00 7.851139307022094727e-01 4.900000000000000000e+01
-2.987039804458618164e+00 -3.276616632938385010e-01 -6.937490701675415039e-01 1.400000000000000000e+01
-4.472682189941406250e+01 -4.898383617401123047e+00 2.358048915863037109e+00 3.400000000000000000e+01
-3.577256202697753906e+00 -3.917732536792755127e-01 -6.995058059692382812e-01 1.200000000000000000e+01
-4.476716613769531250e+01 -4.894895076751708984e+00 3.939962625503540039e+00 5.400000000000000000e+01
-4.471369266510009766e+00 -4.881151020526885986e-01 -7.124025821685791016e-01 1.000000000000000000e+01
-5.914411544799804688e+00 -6.435551643371582031e-01 -7.304848432540893555e-01 1.100000000000000000e+01
-8.798428535461425781e+00 -9.558151960372924805e-01 -7.742916345596313477e-01 2.000000000000000000e+00
-3.481249618530272727e+01 -3.757258653640747070e+00 -6.111832857131958008e-01 1.400000000000000000e+01
-2.585693836212158203e+00 -2.749617099761962891e-01 -6.967408657073974609e-01 1.900000000000000000e+01
-4.471586990356445312e+01 -4.747176170349121094e+00 7.849045395851135254e-01 4.900000000000000000e+01
-2.990158557891846147e+00 -3.169167935848236084e-01 -6.941989660263061523e-01 1.500000000000000000e+01
-4.473255920410156250e+01 -4.733157634735107422e+00 2.357420921325684038e+00 3.400000000000000000e+01
-3.572810888290404829e+00 -3.780395984649658203e-01 -6.983609199523925781e-01 1.100000000000000000e+01
-4.481650924682617188e+01 -4.734131336212158203e+00 3.942751407623291016e+00 5.400000000000000000e+01
-4.475092887878417969e+00 -4.719305932521820068e-01 -7.127154469490051270e-01 8.000000000000000000e+00
-5.906859397888183594e+00 -6.208359599113464355e-01 -7.292661666870117188e-01 9.000000000000000000e+00
-8.758279800415039062e+00 -9.189867973327636719e-01 -7.704567909240722656e-01 2.000000000000000000e+00
-1.792353057861328125e+01 -1.874351024627685991e+00 -9.444546699523925781e-01 6.000000000000000000e+00
-3.479619979858397727e+01 -3.626529932022095171e+00 -6.106597185134887695e-01 2.100000000000000000e+01
-2.575107574462891069e+00 -2.647488117218018133e-01 -6.936350464820861816e-01 1.900000000000000000e+01
-4.486743545532227273e+01 -4.604942798614501953e+00 7.872780561447143555e-01 4.900000000000000000e+01
-2.993185043334960938e+00 -3.066758811473845880e-01 -6.946488618850708008e-01 1.700000000000000000e+01
-3.568249702453612837e+00 -3.649665713310242254e-01 -6.972160935401916504e-01 1.200000000000000000e+01
-4.480104827880858664e+01 -4.574425220489501953e+00 3.939962625503540039e+00 5.400000000000000000e+01
-4.468852043151854581e+00 -4.555054903030396063e-01 -7.114639282226562500e-01 8.000000000000000000e+00
-5.905040740966796875e+00 -5.998121500015258789e-01 -7.287786602973937988e-01 9.000000000000000000e+00
-8.745575904846191406e+00 -8.868011236190795898e-01 -7.690622806549072266e-01 2.000000000000000000e+00
-1.792996406555176137e+01 -1.811774849891663042e+00 -9.444546699523925781e-01 6.000000000000000000e+00
-3.477880096435546875e+01 -3.502041101455688032e+00 -6.101361513137817383e-01 2.100000000000000000e+01
-2.556792020797729048e+00 -2.538497745990753174e-01 -6.884586811065673828e-01 1.800000000000000000e+01
-3.007812261581420898e+00 -2.975688278675078791e-01 -6.977981925010681152e-01 1.500000000000000000e+01
-3.567548036575316939e+00 -3.523158729076384943e-01 -6.968344449996948242e-01 1.300000000000000000e+01
-4.478898239135742188e+01 -4.415276050567626953e+00 3.937522172927856001e+00 5.400000000000000000e+01
-4.470414638519287109e+00 -4.399035274982451837e-01 -7.114639282226562500e-01 1.000000000000000000e+01
-5.907098770141601562e+00 -5.791960954666137695e-01 -7.287786602973937988e-01 9.000000000000000000e+00
-8.736721038818359375e+00 -8.551034927368164062e-01 -7.680163979530334473e-01 2.000000000000000000e+00
-3.479081344604492188e+01 -3.380619049072266069e+00 -6.101361513137817383e-01 2.100000000000000000e+01
-2.569200754165648970e+00 -2.460282593965530118e-01 -6.915645003318786621e-01 1.900000000000000000e+01
