-6.222480535507202148e-01 2.182972669601439986e+00 -6.082247495651245117e-01 1.900000000000000000e+01
-7.101526856422424316e-01 2.494662761688231978e+00 -5.988197326660156250e-01 1.100000000000000000e+01
-8.262020945549011230e-01 2.904252290725708008e+00 -5.869284868240356445e-01 1.100000000000000000e+01
-9.943967461585998535e-01 3.500129222869873047e+00 -5.763045549392700195e-01 9.000000000000000000e+00
-1.234841465950011985e+00 4.352237701416015625e+00 -5.554804801940917969e-01 1.000000000000000000e+01
-1.614171266555785911e+00 5.692980766296386719e+00 -5.177050828933715820e-01 9.000000000000000000e+00
-2.354535341262816939e+00 8.315212249755859375e+00 -4.529153704643250067e-01 1.000000000000000000e+00
-4.325926780700683594e+00 1.529769134521484020e+01 -2.774932682514191229e-01 2.000000000000000000e+00
-6.151473522186279297e-01 2.186991214752196822e+00 -6.087424159049987793e-01 1.600000000000000000e+01
-7.019673585891723633e-01 2.499002456665039062e+00 -5.992696285247802734e-01 1.300000000000000000e+01
-8.171204924583435059e-01 2.910898923873900923e+00 -5.876917243003845215e-01 1.100000000000000000e+01
-9.789736866950988770e-01 3.492166519165039062e+00 -5.744273662567138672e-01 9.000000000000000000e+00
-1.218571424484252930e+00 4.352698326110839844e+00 -5.549929738044738770e-01 1.000000000000000000e+01
-1.591068387031554954e+00 5.687068462371826172e+00 -5.166592597961425781e-01 6.000000000000000000e+00
-2.316896438598632812e+00 8.292602539062500000e+00 -4.512406289577484131e-01 1.000000000000000000e+00
-4.261753082275390625e+00 1.527417564392090021e+01 -2.767951786518096924e-01 2.000000000000000000e+00
-6.087909340858459473e-01 2.190774202346802202e+00 -6.092600226402282715e-01 1.600000000000000000e+01
-6.894230842590332031e-01 2.484295606613159180e+00 -5.952205061912536621e-01 1.200000000000000000e+01
-8.074469566345214844e-01 2.911559820175170898e+00 -5.873100757598876953e-01 1.000000000000000000e+01
-9.690523743629455566e-01 3.499032258987427202e+00 -5.750530958175659180e-01 1.000000000000000000e+01
-1.205949425697327104e+00 4.360331535339354581e+00 -5.554804801940917969e-01 1.000000000000000000e+01
-1.566294193267822044e+00 5.667073726654052734e+00 -5.143932104110717773e-01 9.000000000000000000e+00
-2.286581993103026900e+00 8.284438133239746094e+00 -4.504032433032990057e-01 1.000000000000000000e+00
-4.220123291015625000e+00 1.531062316894531072e+01 -2.772140204906464178e-01 2.000000000000000000e+00
-6.016507744789123535e-01 2.194749116897583008e+00 -6.097776889801025391e-01 1.800000000000000000e+01
-6.807470917701721191e-01 2.486686944961547852e+00 -5.952205061912536621e-01 1.100000000000000000e+01
-7.962427139282226562e-01 2.910573244094849077e+00 -5.865468382835388184e-01 1.100000000000000000e+01
-9.552707672119140625e-01 3.496676921844481978e+00 -5.741145014762878418e-01 1.000000000000000000e+01
-1.185496926307678001e+00 4.345363616943359375e+00 -5.530430674552917480e-01 1.000000000000000000e+01
-1.551743388175963911e+00 5.691729068756104404e+00 -5.161362886428833008e-01 6.000000000000000000e+00
-2.248205900192261186e+00 8.257680892944335938e+00 -4.485191404819489081e-01 1.000000000000000000e+00
-4.142520427703857422e+00 1.523649692535400035e+01 -2.756083905696868896e-01 2.000000000000000000e+00
-5.960029363632202148e-01 2.204295396804810014e+00 -6.118482351303100586e-01 1.700000000000000000e+01
-6.740947365760803223e-01 2.496573448181151900e+00 -5.970200896263122559e-01 1.200000000000000000e+01
-7.881238460540771484e-01 2.920916795730590820e+00 -5.880733132362365723e-01 1.200000000000000000e+01
-9.451150298118591309e-01 3.507619619369506836e+00 -5.753659605979919434e-01 1.000000000000000000e+01
-1.172384619712830034e+00 4.357142925262451172e+00 -5.540180206298828125e-01 1.000000000000000000e+01
-1.531348824501038042e+00 5.695187091827392578e+00 -5.159620046615600586e-01 8.000000000000000000e+00
-2.213152170181273970e+00 8.242331504821777344e+00 -4.472630918025969904e-01 2.000000000000000000e+00
-4.086202144622802734e+00 1.523927497863770064e+01 -2.753989696502686102e-01 2.000000000000000000e+00
-5.843231081962585449e-01 2.191429376602172852e+00 -6.077071428298950195e-01 1.800000000000000000e+01
-6.683844327926635742e-01 2.510210037231444868e+00 -5.997195243835449219e-01 1.200000000000000000e+01
-7.753990292549133301e-01 2.914163827896118164e+00 -5.861652493476867676e-01 1.100000000000000000e+01
-9.293144941329956055e-01 3.497533321380614790e+00 -5.731759071350097656e-01 1.000000000000000000e+01
-1.157677412033081055e+00 4.363127231597900391e+00 -5.542617440223693848e-01 1.100000000000000000e+01
-1.504310727119446023e+00 5.673535823822020596e+00 -5.135216116905212402e-01 8.000000000000000000e+00
-2.186412572860718218e+00 8.257729530334472656e+00 -4.476817548274993896e-01 2.000000000000000000e+00
-4.022759437561035156e+00 1.521478080749512074e+01 -2.747008800506591797e-01 2.000000000000000000e+00
-5.743237137794494629e-01 2.186082601547241211e+00 -6.056365370750427246e-01 1.800000000000000000e+01
-6.581905484199523926e-01 2.508872985839844194e+00 -5.988197326660156250e-01 1.100000000000000000e+01
-7.652107477188110352e-01 2.918885231018065962e+00 -5.865468382835388184e-01 1.000000000000000000e+01
-9.119867682456970215e-01 3.483717203140258789e+00 -5.703600645065307617e-01 1.000000000000000000e+01
-1.143184065818787065e+00 4.373102664947509766e+00 -5.549929738044738770e-01 1.000000000000000000e+01
-1.488541722297668013e+00 5.698288440704345703e+00 -5.152647495269775391e-01 8.000000000000000000e+00
-2.152098655700684038e+00 8.250226974487304688e+00 -4.468443989753723145e-01 2.000000000000000000e+00
-3.966967344284058061e+00 1.522942256927490057e+01 -2.747008800506591797e-01 2.000000000000000000e+00
-5.715328454971313477e-01 2.206775426864624023e+00 -6.108129620552062988e-01 1.800000000000000000e+01
-6.465013623237609863e-01 2.499835252761840820e+00 -5.961202979087829590e-01 1.100000000000000000e+01
-7.559997439384460449e-01 2.925340175628662109e+00 -5.873100757598876953e-01 1.000000000000000000e+01
-8.998207449913024902e-01 3.486879348754882812e+00 -5.703600645065307617e-01 1.100000000000000000e+01
-1.123949408531188965e+00 4.361688137054443359e+00 -5.530430674552917480e-01 1.000000000000000000e+01
-1.469138741493225098e+00 5.705379009246826172e+00 -5.154390335083007812e-01 8.000000000000000000e+00
-2.120302677154541016e+00 8.246083259582519531e+00 -4.462163746356964111e-01 2.000000000000000000e+00
-3.913782596588135210e+00 1.524317741394042969e+01 -2.747008800506591797e-01 2.000000000000000000e+00
-5.646899342536926270e-01 2.210530281066894975e+00 -6.113305687904357910e-01 1.600000000000000000e+01
-6.382080912590026855e-01 2.501965522766112837e+00 -5.961202979087829590e-01 1.100000000000000000e+01
-7.462947964668273926e-01 2.927831172943114790e+00 -5.873100757598876953e-01 1.000000000000000000e+01
-8.911764025688171387e-01 3.501330137252808061e+00 -5.722372531890869141e-01 1.000000000000000000e+01
-1.108501315116882102e+00 4.361543655395507812e+00 -5.525556206703186035e-01 1.000000000000000000e+01
-1.448739647865294966e+00 5.704426288604736328e+00 -5.149161219596862793e-01 8.000000000000000000e+00
-2.095891714096068892e+00 8.264684677124023438e+00 -4.468443989753723145e-01 2.000000000000000000e+00
-3.853395462036132812e+00 1.521730136871338068e+01 -2.740027904510498047e-01 2.000000000000000000e+00
-5.546122193336486816e-01 2.203120946884154829e+00 -6.087424159049987793e-01 1.500000000000000000e+01
-6.304208040237426758e-01 2.507957935333251953e+00 -5.970200896263122559e-01 1.100000000000000000e+01
-7.341570854187011719e-01 2.922801971435546875e+00 -5.857836008071899414e-01 1.000000000000000000e+01
-8.799101710319519043e-01 3.508251667022705078e+00 -5.728629827499389648e-01 1.000000000000000000e+01
-1.093752264976501021e+00 4.367311954498291016e+00 -5.527993440628051758e-01 1.000000000000000000e+01
-1.427367687225342019e+00 5.703649997711181641e+00 -5.143932104110717773e-01 8.000000000000000000e+00
-2.068966627120972124e+00 8.279701232910156250e+00 -4.472630918025969904e-01 1.000000000000000000e+00
-3.789603233337401900e+00 1.518797492980957031e+01 -2.732348740100861151e-01 2.000000000000000000e+00
-5.445932149887084961e-01 2.195668220520019975e+00 -6.061542034149169922e-01 1.600000000000000000e+01
-6.235364675521850586e-01 2.517709493637084961e+00 -5.988197326660156250e-01 1.100000000000000000e+01
-7.253650426864624023e-01 2.931064128875731978e+00 -5.869284868240356445e-01 1.100000000000000000e+01
-8.695542216300964355e-01 3.518972635269165039e+00 -5.741145014762878418e-01 1.000000000000000000e+01
-1.077074170112610085e+00 4.365321636199951172e+00 -5.520681142807006836e-01 1.000000000000000000e+01
-1.406495571136475053e+00 5.704729080200195312e+00 -5.140445828437805176e-01 8.000000000000000000e+00
-2.039097547531127930e+00 8.282994270324707031e+00 -4.470537304878234863e-01 1.000000000000000000e+00
-3.727972269058227983e+00 1.516615676879882990e+01 -2.726065814495087225e-01 2.000000000000000000e+00
-5.392181277275085449e-01 2.206939220428466797e+00 -6.087424159049987793e-01 1.700000000000000000e+01
-6.128967404365539551e-01 2.512297868728638139e+00 -5.970200896263122559e-01 1.200000000000000000e+01
-7.137343883514404297e-01 2.927855968475341797e+00 -5.857836008071899414e-01 1.000000000000000000e+01
-8.516592979431152344e-01 3.498954296112060991e+00 -5.703600645065307617e-01 1.000000000000000000e+01
-1.060892224311829057e+00 4.365196704864501953e+00 -5.515806674957275391e-01 1.000000000000000000e+01
-1.389865159988403098e+00 5.723156452178955078e+00 -5.152647495269775391e-01 8.000000000000000000e+00
-2.012996196746826172e+00 8.301707267761230469e+00 -4.476817548274993896e-01 1.000000000000000000e+00
-3.675009727478026900e+00 1.517907714843750000e+01 -2.726065814495087225e-01 2.000000000000000000e+00
-5.309921503067016602e-01 2.204958915710449219e+00 -6.077071428298950195e-01 1.700000000000000000e+01
-6.045622825622558594e-01 2.514316558837891069e+00 -5.970200896263122559e-01 1.100000000000000000e+01
-7.090663909912109375e-01 2.951205015182495117e+00 -5.899814367294311523e-01 1.100000000000000000e+01
-8.386692404747009277e-01 3.495996713638306108e+00 -5.694214701652526855e-01 9.000000000000000000e+00
-1.047335624694823997e+00 4.372551918029785156e+00 -5.520681142807006836e-01 1.100000000000000000e+01
-1.369023799896240012e+00 5.719983577728270596e+00 -5.145674943923950195e-01 8.000000000000000000e+00
-1.985455632209778054e+00 8.308337211608886719e+00 -4.476817548274993896e-01 1.000000000000000000e+00
-3.622797489166260210e+00 1.518340015411376953e+01 -2.724669575691223145e-01 2.000000000000000000e+00
-5.259665846824645996e-01 2.218077182769774947e+00 -6.108129620552062988e-01 1.800000000000000000e+01
-5.930882096290588379e-01 2.505033493041992188e+00 -5.943207144737243652e-01 1.100000000000000000e+01
-6.933367252349853516e-01 2.930735826492310014e+00 -5.854020118713378906e-01 1.100000000000000000e+01
-8.296395540237426758e-01 3.512360334396361861e+00 -5.716115236282348633e-01 1.000000000000000000e+01
-1.028420925140381081e+00 4.360724449157714844e+00 -5.501182079315185547e-01 1.000000000000000000e+01
-1.345392942428589089e+00 5.709213256835938388e+00 -5.131729841232299805e-01 8.000000000000000000e+00
-1.956441998481750044e+00 8.315217018127441406e+00 -4.476817548274993896e-01 2.000000000000000000e+00
-3.553312301635742188e+00 1.512587261199950994e+01 -2.712104022502899170e-01 2.000000000000000000e+00
-5.169032812118530273e-01 2.214255809783935991e+00 -6.092600226402282715e-01 1.900000000000000000e+01
-5.869944691658020020e-01 2.518475770950316939e+00 -5.970200896263122559e-01 1.200000000000000000e+01
-6.831023097038269043e-01 2.933138132095336914e+00 -5.854020118713378906e-01 1.100000000000000000e+01
-8.187162280082702637e-01 3.521007061004639116e+00 -5.725501179695129395e-01 1.000000000000000000e+01
-1.013641834259032981e+00 4.366221427917479581e+00 -5.503619313240051270e-01 1.100000000000000000e+01
-1.328157305717468040e+00 5.725519657135009766e+00 -5.142188668251037598e-01 8.000000000000000000e+00
-1.924700736999511941e+00 8.310320854187011719e+00 -4.470537304878234863e-01 1.000000000000000000e+00
-3.500491380691527876e+00 1.513818359375000000e+01 -2.712104022502899170e-01 2.000000000000000000e+00
-1.258029747009276988e+01 5.440460586547852273e+01 1.496232891082764027e+01 1.900000000000000000e+01
-5.078731775283813477e-01 2.210398435592650923e+00 -6.077071428298950195e-01 1.800000000000000000e+01
-5.790712237358093262e-01 2.524308204650878906e+00 -5.979198813438415527e-01 1.100000000000000000e+01
-6.719823479652404785e-01 2.931677579879761186e+00 -5.846387743949890137e-01 1.100000000000000000e+01
-8.059799671173095703e-01 3.521917819976807085e+00 -5.722372531890869141e-01 1.000000000000000000e+01
-1.000163316726685014e+00 4.377473831176757812e+00 -5.513368844985961914e-01 1.100000000000000000e+01
-1.302842020988463911e+00 5.706811904907226562e+00 -5.121271610260009766e-01 6.000000000000000000e+00
-1.893905162811279075e+00 8.309199333190917969e+00 -4.466350376605988104e-01 1.000000000000000000e+00
-3.447628021240233931e+00 1.515031051635742010e+01 -2.712104022502899170e-01 2.000000000000000000e+00
-4.997283220291138250e-01 2.210273504257202148e+00 -6.071894764900207520e-01 1.600000000000000000e+01
-5.702562332153320312e-01 2.526314258575439009e+00 -5.979198813438415527e-01 1.100000000000000000e+01
-6.647683978080749512e-01 2.947411298751831055e+00 -5.873100757598876953e-01 1.100000000000000000e+01
-7.906436324119567871e-01 3.511219739913939986e+00 -5.700471997261047363e-01 1.100000000000000000e+01
-9.844416379928588867e-01 4.379001617431640625e+00 -5.510931611061096191e-01 1.100000000000000000e+01
-1.285533547401428001e+00 5.722988605499267578e+00 -5.131729841232299805e-01 8.000000000000000000e+00
-1.863140821456908958e+00 8.307964324951171875e+00 -4.462163746356964111e-01 1.000000000000000000e+00
-3.388605833053588867e+00 1.513493347167968928e+01 -2.707217335700988770e-01 2.000000000000000000e+00
-4.936877489089965820e-01 2.219547271728516069e+00 -6.092600226402282715e-01 1.600000000000000000e+01
-5.588995814323425293e-01 2.516875028610229048e+00 -5.952205061912536621e-01 1.100000000000000000e+01
-6.540507078170776367e-01 2.947797298431396040e+00 -5.869284868240356445e-01 1.100000000000000000e+01
-7.753918766975402832e-01 3.500458002090454102e+00 -5.678570866584777832e-01 1.000000000000000000e+01
-9.648636579513549805e-01 4.363028526306152344e+00 -5.486558079719543457e-01 1.100000000000000000e+01
-1.265548825263977051e+00 5.727441310882568359e+00 -5.131729841232299805e-01 9.000000000000000000e+00
-1.828966379165648970e+00 8.291012763977050781e+00 -4.449602961540222168e-01 2.000000000000000000e+00
-3.329733133316040039e+00 1.511932849884033025e+01 -2.702330648899077814e-01 2.000000000000000000e+00
-4.846720099449158270e-01 2.213623762130736861e+00 -6.071894764900207520e-01 1.600000000000000000e+01
-5.513824820518493652e-01 2.522522211074829102e+00 -5.961202979087829590e-01 1.100000000000000000e+01
-6.417584419250488281e-01 2.938441753387451172e+00 -5.846387743949890137e-01 1.100000000000000000e+01
-7.663046121597290039e-01 3.514590263366699219e+00 -5.697343349456787109e-01 1.000000000000000000e+01
-9.449013471603393555e-01 4.340988636016845703e+00 -5.454871654510498047e-01 1.000000000000000000e+01
-1.247395753860474077e+00 5.735500335693359375e+00 -5.135216116905212402e-01 9.000000000000000000e+00
-1.809090256690979004e+00 8.332164764404296875e+00 -4.468443989753723145e-01 2.000000000000000000e+00
-3.263480424880981001e+00 1.505602359771729049e+01 -2.689066827297211248e-01 2.000000000000000000e+00
-4.765354394912719727e-01 2.213413476943970171e+00 -6.066718697547912598e-01 1.800000000000000000e+01
-5.433928966522216797e-01 2.528241872787476030e+00 -5.970200896263122559e-01 1.100000000000000000e+01
-6.306730508804321289e-01 2.936825037002563032e+00 -5.838755369186401367e-01 1.100000000000000000e+01
-7.548598647117614746e-01 3.521106719970703125e+00 -5.703600645065307617e-01 1.000000000000000000e+01
-9.355587959289550781e-01 4.371436119079589844e+00 -5.488995313644409180e-01 1.100000000000000000e+01
-1.225284457206726074e+00 5.730077743530273438e+00 -5.126500725746154785e-01 8.000000000000000000e+00
-1.777492761611938032e+00 8.326708793640136719e+00 -4.462163746356964111e-01 1.000000000000000000e+00
-1.129125308990479049e+01 5.293941116333007812e+01 1.249693107604979936e+01 1.700000000000000000e+01
-3.217573642730712891e+00 1.509861564636229936e+01 -2.694651484489440918e-01 2.000000000000000000e+00
-4.684062898159027100e-01 2.213173389434814009e+00 -6.061542034149169922e-01 1.900000000000000000e+01
-5.337586998939514160e-01 2.526309967041016069e+00 -5.961202979087829590e-01 1.000000000000000000e+01
-6.220397949218750000e-01 2.946692228317261186e+00 -5.854020118713378906e-01 1.100000000000000000e+01
-7.429716587066650391e-01 3.525653123855590820e+00 -5.706729292869567871e-01 9.000000000000000000e+00
-9.186593294143676758e-01 4.366905212402343750e+00 -5.479245781898498535e-01 1.000000000000000000e+01
-1.204865455627440962e+00 5.732370376586914062e+00 -5.124757885932922363e-01 9.000000000000000000e+00
-1.750056862831115945e+00 8.340682029724121094e+00 -4.466350376605988104e-01 1.000000000000000000e+00
-1.122634410858153942e+01 5.355068588256835938e+01 1.263190174102783025e+01 1.700000000000000000e+01
-3.160750389099121094e+00 1.509018325805664062e+01 -2.691161036491394043e-01 2.000000000000000000e+00
-1.148803424835205078e+01 5.489438629150391336e+01 1.502755165100098012e+01 1.900000000000000000e+01
-4.614648222923278809e-01 2.218577623367310014e+00 -6.071894764900207520e-01 1.900000000000000000e+01
-5.249369740486145020e-01 2.528157711029053178e+00 -5.961202979087829590e-01 1.100000000000000000e+01
-6.117501258850097656e-01 2.948845624923706055e+00 -5.854020118713378906e-01 1.100000000000000000e+01
-7.286573648452758789e-01 3.518553256988524947e+00 -5.691086053848266602e-01 1.000000000000000000e+01
-9.058216214179992676e-01 4.381749153137207031e+00 -5.493869781494140625e-01 1.100000000000000000e+01
-1.183639407157897949e+00 5.730687618255615234e+00 -5.119528174400329590e-01 9.000000000000000000e+00
-1.715285420417786089e+00 8.319354057312011719e+00 -4.451696574687957764e-01 2.000000000000000000e+00
-3.105638027191162109e+00 1.508937263488770064e+01 -2.689066827297211248e-01 2.000000000000000000e+00
-4.548801481723784845e-01 2.221909046173096147e+00 -6.077071428298950195e-01 1.700000000000000000e+01
-5.162115693092346191e-01 2.525975942611693892e+00 -5.952205061912536621e-01 1.000000000000000000e+01
-6.032685637474060059e-01 2.954600095748900923e+00 -5.861652493476867676e-01 1.100000000000000000e+01
-7.175999283790588379e-01 3.520825147628784180e+00 -5.691086053848266602e-01 1.000000000000000000e+01
-8.924472332000732422e-01 4.386518478393554688e+00 -5.496307611465454102e-01 1.100000000000000000e+01
-1.168408274650573953e+00 5.748044967651367188e+00 -5.131729841232299805e-01 6.000000000000000000e+00
-1.694701313972472922e+00 8.352105140686035156e+00 -4.466350376605988104e-01 2.000000000000000000e+00
-3.060599803924560991e+00 1.511081409454346058e+01 -2.691161036491394043e-01 2.000000000000000000e+00
-4.486448764801024836e-01 2.231059074401855025e+00 -6.097776889801025391e-01 1.700000000000000000e+01
-5.066241025924682617e-01 2.523941040039062944e+00 -5.943207144737243652e-01 1.000000000000000000e+01
-5.902491211891174316e-01 2.943213462829589844e+00 -5.834938883781433105e-01 1.100000000000000000e+01
-7.064688205718994141e-01 3.529119491577147993e+00 -5.700471997261047363e-01 9.000000000000000000e+00
-8.697395920753479004e-01 4.352621555328369141e+00 -5.449997186660766602e-01 1.000000000000000000e+01
-1.149116754531859907e+00 5.755996227264404297e+00 -5.135216116905212402e-01 9.000000000000000000e+00
-1.660852789878844993e+00 8.334465026855468750e+00 -4.453789889812468927e-01 1.000000000000000000e+00
-3.011735916137694868e+00 1.514101791381835938e+01 -2.694651484489440918e-01 2.000000000000000000e+00
-4.393573403358458918e-01 2.225030660629272017e+00 -6.077071428298950195e-01 1.700000000000000000e+01
-4.993181824684143066e-01 2.533342123031616211e+00 -5.961202979087829590e-01 1.100000000000000000e+01
-5.811097621917724609e-01 2.951034545898437944e+00 -5.846387743949890137e-01 1.100000000000000000e+01
-6.945265531539916992e-01 3.533502340316772017e+00 -5.703600645065307617e-01 9.000000000000000000e+00
-8.545407652854919434e-01 4.355630874633789062e+00 -5.449997186660766602e-01 1.000000000000000000e+01
-1.125951766967772993e+00 5.744330406188964844e+00 -5.121271610260009766e-01 6.000000000000000000e+00
-1.635584831237792969e+00 8.359812736511230469e+00 -4.464257061481475830e-01 1.000000000000000000e+00
-2.954266071319580078e+00 1.512788772583007990e+01 -2.690463066101074219e-01 2.000000000000000000e+00
-4.301173686981201172e-01 2.218964576721190962e+00 -6.056365370750427246e-01 1.700000000000000000e+01
-4.908423125743865967e-01 2.536982774734497070e+00 -5.965701937675476074e-01 1.300000000000000000e+01
-5.715503692626953125e-01 2.956900119781494141e+00 -5.854020118713378906e-01 1.100000000000000000e+01
-6.818138957023620605e-01 3.533965587615966797e+00 -5.700471997261047363e-01 9.000000000000000000e+00
-8.415838479995727539e-01 4.370282649993895596e+00 -5.464621186256408691e-01 1.000000000000000000e+01
-1.104011416435241921e+00 5.738443374633789062e+00 -5.112555623054504395e-01 9.000000000000000000e+00
-1.601120591163635032e+00 8.338010787963867188e+00 -4.449602961540222168e-01 1.000000000000000000e+00
-2.894666433334351030e+00 1.510275650024414062e+01 -2.684180140495299738e-01 2.000000000000000000e+00
-4.216471314430236816e-01 2.216656684875487837e+00 -6.046012639999389648e-01 1.600000000000000000e+01
-4.816201031208037775e-01 2.536766290664672852e+00 -5.961202979087829590e-01 1.200000000000000000e+01
-5.601277947425842285e-01 2.953090667724608931e+00 -5.842571258544921875e-01 1.100000000000000000e+01
-6.687390208244323730e-01 3.532442092895507812e+00 -5.694214701652526855e-01 9.000000000000000000e+00
-8.266921043395996094e-01 4.375144481658936435e+00 -5.467059016227722168e-01 9.000000000000000000e+00
-1.082495450973510964e+00 5.734430789947509766e+00 -5.105583667755126953e-01 8.000000000000000000e+00
-1.570526599884032981e+00 8.335698127746582031e+00 -4.445416033267974854e-01 1.000000000000000000e+00
-2.845625877380371094e+00 1.513242149353026988e+01 -2.687670588493347168e-01 2.000000000000000000e+00
-4.163875877857208252e-01 2.231408596038817915e+00 -6.082247495651245117e-01 1.600000000000000000e+01
-4.713349938392639160e-01 2.530768632888793945e+00 -5.943207144737243652e-01 1.100000000000000000e+01
-5.487388372421264648e-01 2.949237585067749023e+00 -5.831122994422912598e-01 1.100000000000000000e+01
-6.546010971069335938e-01 3.525043964385985884e+00 -5.678570866584777832e-01 9.000000000000000000e+00
-8.099679946899414062e-01 4.370195865631104404e+00 -5.457309484481811523e-01 1.000000000000000000e+01
-1.064285635948180930e+00 5.747970104217529297e+00 -5.114299058914184570e-01 9.000000000000000000e+00
-1.540694117546081987e+00 8.337202072143554688e+00 -4.443322718143463135e-01 1.000000000000000000e+00
-2.792786598205565962e+00 1.514226245880126953e+01 -2.687670588493347168e-01 2.000000000000000000e+00
-1.025858592987061080e+01 5.567569732666016336e+01 1.516938400268555043e+01 2.000000000000000000e+01
-4.075527489185333252e-01 2.227147579193114790e+00 -6.066718697547912598e-01 1.600000000000000000e+01
-4.614477753639221191e-01 2.526647567749022993e+00 -5.929709672927856445e-01 1.200000000000000000e+01
-5.377359390258789062e-01 2.947272300720214844e+00 -5.823490619659423828e-01 1.100000000000000000e+01
-6.447696089744567871e-01 3.540911436080933061e+00 -5.700471997261047363e-01 9.000000000000000000e+00
-7.943532466888427734e-01 4.371043682098388672e+00 -5.454871654510498047e-01 1.000000000000000000e+01
-1.042079567909240945e+00 5.739888191223145419e+00 -5.103840231895446777e-01 9.000000000000000000e+00
-1.512294650077820046e+00 8.346459388732910156e+00 -4.445416033267974854e-01 1.000000000000000000e+00
-2.739913225173950195e+00 1.515191841125487926e+01 -2.687670588493347168e-01 2.000000000000000000e+00
-4.001171886920928955e-01 2.230458021163939986e+00 -6.071894764900207520e-01 1.600000000000000000e+01
-4.529687166213989258e-01 2.530161142349243164e+00 -5.934208631515502930e-01 1.200000000000000000e+01
-5.267534852027893066e-01 2.945266246795653853e+00 -5.815858244895935059e-01 1.100000000000000000e+01
-6.341410279273986816e-01 3.552863836288452148e+00 -5.716115236282348633e-01 8.000000000000000000e+00
-7.797868847846984863e-01 4.377698421478270596e+00 -5.459746718406677246e-01 1.000000000000000000e+01
-1.022386312484740989e+00 5.745451927185058594e+00 -5.105583667755126953e-01 9.000000000000000000e+00
-1.488039970397948997e+00 8.379218101501464844e+00 -4.460070133209229071e-01 1.000000000000000000e+00
-2.688402414321898970e+00 1.516926670074463068e+01 -2.689066827297211248e-01 2.000000000000000000e+00
-9.869649887084960938e+00 5.574596023559570312e+01 1.516938400268555043e+01 2.000000000000000000e+01
-3.910445272922515869e-01 2.222259521484375000e+00 -6.046012639999389648e-01 1.500000000000000000e+01
-4.465982615947722834e-01 2.543165445327758789e+00 -5.961202979087829590e-01 1.100000000000000000e+01
-5.190191268920898438e-01 2.958599090576171875e+00 -5.838755369186401367e-01 1.100000000000000000e+01
-6.192900538444519043e-01 3.537435054779053178e+00 -5.687957406044006348e-01 9.000000000000000000e+00
-7.645823359489440918e-01 4.376349449157714844e+00 -5.454871654510498047e-01 1.000000000000000000e+01
-1.001957893371582031e+00 5.740960121154785156e+00 -5.098611116409301758e-01 9.000000000000000000e+00
-1.460930705070496050e+00 8.388042449951171875e+00 -4.462163746356964111e-01 1.000000000000000000e+00
-2.634660243988037109e+00 1.515839672088623047e+01 -2.685576379299163818e-01 2.000000000000000000e+00
-3.829568624496459961e-01 2.221707105636597124e+00 -6.040836572647094727e-01 1.600000000000000000e+01
-4.363968074321746826e-01 2.537026643753052202e+00 -5.943207144737243652e-01 1.100000000000000000e+01
-5.100184082984924316e-01 2.968132257461547852e+00 -5.854020118713378906e-01 1.100000000000000000e+01
-6.056029200553894043e-01 3.531787395477294922e+00 -5.675442218780517578e-01 9.000000000000000000e+00
-7.509754300117492676e-01 4.388774871826171875e+00 -5.467059016227722168e-01 9.000000000000000000e+00
-9.802336692810058594e-01 5.734602928161621094e+00 -5.089895129203796387e-01 9.000000000000000000e+00
-1.423582196235656960e+00 8.345838546752929688e+00 -4.437042474746704102e-01 1.000000000000000000e+00
-2.586429119110106978e+00 1.519509983062743963e+01 -2.690463066101074219e-01 2.000000000000000000e+00
-9.574170112609863281e+00 5.630702209472656250e+01 1.530397033691406072e+01 2.000000000000000000e+01
-3.755208253860474188e-01 2.224935293197631836e+00 -6.046012639999389648e-01 1.600000000000000000e+01
-4.262436926364899237e-01 2.530847787857056108e+00 -5.925210714340209961e-01 1.100000000000000000e+01
-4.980259835720062256e-01 2.960214376449584961e+00 -5.834938883781433105e-01 1.000000000000000000e+01
-5.939251184463500977e-01 3.537776231765747070e+00 -5.681699514389038086e-01 9.000000000000000000e+00
-7.330273389816284180e-01 4.375707149505615234e+00 -5.447559356689453125e-01 9.000000000000000000e+00
-9.634985327720642090e-01 5.757640361785888672e+00 -5.107326507568359375e-01 9.000000000000000000e+00
-1.394441008567810059e+00 8.350757598876953125e+00 -4.437042474746704102e-01 1.000000000000000000e+00
-2.537316560745238814e+00 1.522770500183104936e+01 -2.694651484489440918e-01 2.000000000000000000e+00
-3.693263530731201172e-01 2.235762834548950195e+00 -6.071894764900207520e-01 1.600000000000000000e+01
-4.161390364170073908e-01 2.524629116058350053e+00 -5.907214879989624023e-01 1.100000000000000000e+01
-4.880088567733765204e-01 2.963871955871582031e+00 -5.838755369186401367e-01 1.100000000000000000e+01
-5.815723538398742676e-01 3.539827823638916016e+00 -5.681699514389038086e-01 9.000000000000000000e+00
-7.158219814300537109e-01 4.366485595703125000e+00 -5.432935357093811035e-01 9.000000000000000000e+00
-9.414629340171813965e-01 5.749171257019042969e+00 -5.096867680549621582e-01 9.000000000000000000e+00
-1.369147896766663042e+00 8.379227638244628906e+00 -4.449602961540222168e-01 1.000000000000000000e+00
-2.477710962295531782e+00 1.519699668884276988e+01 -2.687670588493347168e-01 2.000000000000000000e+00
-3.616017401218413752e-01 2.235068082809447798e+00 -6.066718697547912598e-01 1.700000000000000000e+01
-4.102492332458496094e-01 2.541385889053345171e+00 -5.943207144737243652e-01 1.100000000000000000e+01
-4.759898781776428223e-01 2.951906442642211914e+00 -5.812041759490966797e-01 1.000000000000000000e+01
-5.704582333564758301e-01 3.545637369155883789e+00 -5.687957406044006348e-01 9.000000000000000000e+00
-7.019675374031066895e-01 4.372755050659179688e+00 -5.437809824943542480e-01 9.000000000000000000e+00
-9.205000400543212891e-01 5.740458011627197266e+00 -5.086408853530883789e-01 9.000000000000000000e+00
-1.336936354637145996e+00 8.356110572814941406e+00 -4.434948861598969061e-01 1.000000000000000000e+00
-2.421627998352050781e+00 1.516958522796631037e+01 -2.681387662887573242e-01 2.000000000000000000e+00
-3.519864380359650213e-01 2.224868059158325195e+00 -6.035659909248352051e-01 1.700000000000000000e+01
-4.016794860363007147e-01 2.544727325439453125e+00 -5.947706103324890137e-01 1.100000000000000000e+01
-4.653771221637725830e-01 2.951610565185546875e+00 -5.808225870132446289e-01 1.000000000000000000e+01
-5.586920976638793945e-01 3.551509857177733931e+00 -5.694214701652526855e-01 9.000000000000000000e+00
-6.873151063919067383e-01 4.379100799560546875e+00 -5.442684888839721680e-01 9.000000000000000000e+00
-8.998393416404724121e-01 5.739699840545654297e+00 -5.082923173904418945e-01 9.000000000000000000e+00
-1.308994531631469949e+00 8.368619918823242188e+00 -4.439135789871215820e-01 1.000000000000000000e+00
-2.369278192520142046e+00 1.518189716339110973e+01 -2.682085931301116943e-01 2.000000000000000000e+00
-3.438295125961304266e-01 2.226143121719359907e+00 -6.035659909248352051e-01 1.500000000000000000e+01
-3.917563259601593018e-01 2.542330503463745117e+00 -5.938707590103149414e-01 1.100000000000000000e+01
-4.560490846633911133e-01 2.962998628616333008e+00 -5.827306509017944336e-01 1.100000000000000000e+01
-5.432728528976440430e-01 3.537913799285889116e+00 -5.669184923171997070e-01 9.000000000000000000e+00
-6.715608835220336914e-01 4.383553028106688565e+00 -5.445122122764587402e-01 7.000000000000000000e+00
-8.442811012268066406e+00 5.517401504516602273e+01 8.840424537658691406e+00 2.700000000000000000e+01
-8.778921365737915039e-01 5.737051010131835938e+00 -5.077693462371826172e-01 9.000000000000000000e+00
-1.280121684074402078e+00 8.385207176208496094e+00 -4.445416033267974854e-01 2.000000000000000000e+00
-2.315424442291260210e+00 1.520234107971191051e+01 -2.684180140495299738e-01 2.000000000000000000e+00
-3.377860188484191895e-01 2.238791227340697798e+00 -6.066718697547912598e-01 1.500000000000000000e+01
-3.822994530200958252e-01 2.539828538894652876e+00 -5.929709672927856445e-01 1.000000000000000000e+01
-4.465791583061218262e-01 2.970396757125854048e+00 -5.838755369186401367e-01 1.100000000000000000e+01
-5.303339362144470215e-01 3.535881519317626953e+00 -5.662927627563476562e-01 9.000000000000000000e+00
-8.296873092651367188e+00 5.538341903686522727e+01 6.876111984252929688e+00 5.900000000000000000e+01
-6.571366190910339355e-01 4.391760349273681641e+00 -5.452434420585632324e-01 9.000000000000000000e+00
-8.566827774047851562e-01 5.732198238372802734e+00 -5.070720911026000977e-01 9.000000000000000000e+00
-1.246720790863037109e+00 8.361968994140625000e+00 -4.430761933326721191e-01 1.000000000000000000e+00
-2.260579109191894975e+00 1.519846248626708984e+01 -2.682085931301116943e-01 2.000000000000000000e+00
-3.303600549697875977e-01 2.239898920059204102e+00 -6.066718697547912598e-01 1.800000000000000000e+01
-3.733076155185698908e-01 2.537226200103760210e+00 -5.920711755752563477e-01 1.000000000000000000e+01
-4.355847537517548163e-01 2.964091777801514116e+00 -5.823490619659423828e-01 1.100000000000000000e+01
-5.191786289215087891e-01 3.541529655456542969e+00 -5.669184923171997070e-01 9.000000000000000000e+00
-6.405586600303649902e-01 4.380165576934813565e+00 -5.435372591018676758e-01 7.000000000000000000e+00
-8.396850824356079102e-01 5.748807907104492188e+00 -5.082923173904418945e-01 9.000000000000000000e+00
-1.225319981575011985e+00 8.409538269042968750e+00 -4.453789889812468927e-01 1.000000000000000000e+00
-2.198661565780640093e+00 1.512671947479248047e+01 -2.668123841285706122e-01 2.000000000000000000e+00
-3.217137157917023260e-01 2.235301971435546875e+00 -6.051189303398132324e-01 1.900000000000000000e+01
-3.661104142665863037e-01 2.550087690353393999e+00 -5.947706103324890137e-01 1.000000000000000000e+01
-4.238421916961669922e-01 2.955877304077147993e+00 -5.804409384727478027e-01 1.000000000000000000e+01
-5.084914565086364746e-01 3.555053234100341797e+00 -5.687957406044006348e-01 9.000000000000000000e+00
-6.238631606101989746e-01 4.372549057006835938e+00 -5.423185825347900391e-01 9.000000000000000000e+00
-8.168021440505981445e-01 5.731979370117188388e+00 -5.065491795539855957e-01 9.000000000000000000e+00
-1.192022800445557085e+00 8.386080741882324219e+00 -4.439135789871215820e-01 1.000000000000000000e+00
-2.157074928283690962e+00 1.521349811553955078e+01 -2.682085931301116943e-01 2.000000000000000000e+00
-3.125664591789246161e-01 2.226845979690552202e+00 -6.025307178497314453e-01 1.600000000000000000e+01
-3.566662967205048163e-01 2.547490358352661133e+00 -5.938707590103149414e-01 1.100000000000000000e+01
-4.137935340404509943e-01 2.959283113479613814e+00 -5.808225870132446289e-01 9.000000000000000000e+00
-4.944416582584381104e-01 3.545068025588988814e+00 -5.669184923171997070e-01 9.000000000000000000e+00
-6.094169020652770996e-01 4.380598545074462891e+00 -5.430498123168945312e-01 9.000000000000000000e+00
-7.956920862197875977e-01 5.726902008056640625e+00 -5.058519244194030762e-01 9.000000000000000000e+00
-1.160549283027648926e+00 8.374363899230957031e+00 -4.430761933326721191e-01 2.000000000000000000e+00
-2.100123405456542969e+00 1.519320297241210938e+01 -2.677199244499207098e-01 2.000000000000000000e+00
-3.053151071071624756e-01 2.231751441955565962e+00 -6.035659909248352051e-01 1.600000000000000000e+01
-3.488255739212036133e-01 2.556443214416503906e+00 -5.956704020500183105e-01 1.100000000000000000e+01
-4.042564630508422852e-01 2.966545343399047852e+00 -5.819674134254455566e-01 1.000000000000000000e+01
-4.809998869895935059e-01 3.538942813873291016e+00 -5.656670331954956055e-01 9.000000000000000000e+00
-5.959886908531188965e-01 4.396468639373779297e+00 -5.447559356689453125e-01 9.000000000000000000e+00
-7.751620411872863770e-01 5.725695610046386719e+00 -5.055032968521118164e-01 9.000000000000000000e+00
-1.135051846504210982e+00 8.406073570251464844e+00 -4.445416033267974854e-01 1.000000000000000000e+00
-2.047076463699340820e+00 1.520044136047362926e+01 -2.677199244499207098e-01 2.000000000000000000e+00
-2.980333268642426092e-01 2.236633539199829102e+00 -6.046012639999389648e-01 1.600000000000000000e+01
-3.373325765132904053e-01 2.538327693939208984e+00 -5.911713838577270508e-01 1.100000000000000000e+01
-3.938988149166107178e-01 2.967938184738159180e+00 -5.819674134254455566e-01 1.000000000000000000e+01
-4.681253433227539062e-01 3.536683559417725053e+00 -5.650413036346435547e-01 9.000000000000000000e+00
-5.783003568649291992e-01 4.380810260772705078e+00 -5.425623059272766113e-01 9.000000000000000000e+00
-7.546501159667968750e-01 5.724415779113770419e+00 -5.051546692848205566e-01 9.000000000000000000e+00
-1.096329689025878906e+00 8.338696479797363281e+00 -4.407734274864196777e-01 1.000000000000000000e+00
-1.989844918251038042e+00 1.517577075958251953e+01 -2.671614289283751886e-01 2.000000000000000000e+00
-2.909696400165557861e-01 2.243407726287841797e+00 -6.061542034149169922e-01 1.600000000000000000e+01
-3.289700746536254883e-01 2.543354988098144975e+00 -5.920711755752563477e-01 1.000000000000000000e+01
-3.825303912162780762e-01 2.961506843566894975e+00 -5.804409384727478027e-01 1.000000000000000000e+01
-4.562818706035614014e-01 3.542214632034302202e+00 -5.656670331954956055e-01 9.000000000000000000e+00
-5.619933009147644043e-01 4.374926567077636719e+00 -5.415873527526855469e-01 7.000000000000000000e+00
-7.354241013526916504e-01 5.732944011688232422e+00 -5.056776404380798340e-01 9.000000000000000000e+00
-1.070256710052490012e+00 8.366246223449707031e+00 -4.420294761657714844e-01 1.000000000000000000e+00
-1.940908312797545943e+00 1.521436214447020951e+01 -2.677199244499207098e-01 2.000000000000000000e+00
-2.823179960250853937e-01 2.234776973724364790e+00 -6.035659909248352051e-01 1.500000000000000000e+01
-3.205341994762421209e-01 2.544431924819945845e+00 -5.920711755752563477e-01 1.000000000000000000e+01
-3.722174763679503839e-01 2.958863258361815962e+00 -5.796777009963989258e-01 1.000000000000000000e+01
-4.452705681324005127e-01 3.549588203430175781e+00 -5.666056275367736816e-01 9.000000000000000000e+00
-5.472360253334045410e-01 4.374796390533447266e+00 -5.413436293601989746e-01 9.000000000000000000e+00
-7.159150242805480957e-01 5.731397151947020596e+00 -5.053290128707885742e-01 9.000000000000000000e+00
-1.042507410049438032e+00 8.369749069213867188e+00 -4.420294761657714844e-01 1.000000000000000000e+00
-1.890444993972778098e+00 1.522071456909180043e+01 -2.677199244499207098e-01 2.000000000000000000e+00
-2.735737264156342108e-01 2.228079080581665039e+00 -6.014954447746276855e-01 1.500000000000000000e+01
-3.121241331100463867e-01 2.549403905868529829e+00 -5.929709672927856445e-01 1.100000000000000000e+01
-3.618868589401245117e-01 2.960144519805908203e+00 -5.796777009963989258e-01 9.000000000000000000e+00
-4.304872155189514160e-01 3.531512260437012163e+00 -5.634769201278686523e-01 8.000000000000000000e+00
-5.312432646751403809e-01 4.370768070220947266e+00 -5.406123995780944824e-01 7.000000000000000000e+00
-6.937438845634460449e-01 5.716060161590576172e+00 -5.037602186203002930e-01 9.000000000000000000e+00
-1.014244914054871050e+00 8.381268501281738281e+00 -4.424481689929962158e-01 1.000000000000000000e+00
-1.829637765884398970e+00 1.516369056701659979e+01 -2.666029632091522217e-01 2.000000000000000000e+00
-2.664808332920073908e-01 2.234775304794311968e+00 -6.030483841896057129e-01 1.600000000000000000e+01
-3.036832809448242188e-01 2.554347991943358931e+00 -5.938707590103149414e-01 1.000000000000000000e+01
-3.520146906375885010e-01 2.965288877487183061e+00 -5.804409384727478027e-01 1.000000000000000000e+01
-4.193182289600371759e-01 3.542801856994628906e+00 -5.650413036346435547e-01 9.000000000000000000e+00
-5.185421705245971680e-01 4.394281387329101562e+00 -5.432935357093811035e-01 9.000000000000000000e+00
-6.721549034118652344e-01 5.704596042633056641e+00 -5.025399923324584961e-01 9.000000000000000000e+00
-9.840505719184875488e-01 8.376823425292968750e+00 -4.420294761657714844e-01 1.000000000000000000e+00
-1.779486894607543945e+00 1.519381904602050959e+01 -2.670218050479888916e-01 2.000000000000000000e+00
-2.595665454864501953e-01 2.243368148803710938e+00 -6.051189303398132324e-01 1.600000000000000000e+01
-2.934252619743347168e-01 2.543777227401732954e+00 -5.911713838577270508e-01 1.100000000000000000e+01
-3.414371311664580744e-01 2.964549064636230025e+00 -5.800593495368957520e-01 9.000000000000000000e+00
-4.060476720333098810e-01 3.536393880844116211e+00 -5.637897849082946777e-01 9.000000000000000000e+00
-5.009425878524780273e-01 4.376342773437500000e+00 -5.408561229705810547e-01 9.000000000000000000e+00
-6.560840606689453125e-01 5.740559101104736328e+00 -5.055032968521118164e-01 9.000000000000000000e+00
-9.480211138725280762e-01 8.320674896240234375e+00 -4.388893246650695801e-01 2.000000000000000000e+00
-1.727342367172240989e+00 1.520788574218750000e+01 -2.671614289283751886e-01 2.000000000000000000e+00
-2.519494891166687012e-01 2.246180295944213867e+00 -6.056365370750427246e-01 1.500000000000000000e+01
-2.841109335422515869e-01 2.540912628173828125e+00 -5.902715921401977539e-01 1.000000000000000000e+01
-3.299977481365203857e-01 2.955967187881470171e+00 -5.781512856483459473e-01 1.000000000000000000e+01
-3.937008678913115900e-01 3.537789821624755859e+00 -5.637897849082946777e-01 9.000000000000000000e+00
-4.852255284786223810e-01 4.374118804931640625e+00 -5.403686761856079102e-01 9.000000000000000000e+00
-6.347258090972900391e-01 5.730932712554931641e+00 -5.044574141502380371e-01 9.000000000000000000e+00
-9.216008186340332031e-01 8.347755432128906250e+00 -4.401454031467437744e-01 2.000000000000000000e+00
-1.670746564865112083e+00 1.518201923370360973e+01 -2.666029632091522217e-01 2.000000000000000000e+00
-2.443159520626068115e-01 2.248966693878173828e+00 -6.061542034149169922e-01 1.600000000000000000e+01
-2.760789096355438232e-01 2.549638509750366211e+00 -5.920711755752563477e-01 1.000000000000000000e+01
-3.200995028018950861e-01 2.961004972457886186e+00 -5.789144635200500488e-01 1.000000000000000000e+01
-3.828306496143341064e-01 3.552890539169311968e+00 -5.659798979759216309e-01 1.000000000000000000e+01
-4.705899655818939209e-01 4.381707191467285156e+00 -5.410999059677124023e-01 7.000000000000000000e+00
-6.134427785873413086e-01 5.721227169036865234e+00 -5.034115910530090332e-01 9.000000000000000000e+00
-8.928805589675903320e-01 8.354893684387207031e+00 -4.403547346591948908e-01 2.000000000000000000e+00
-1.610540032386780007e+00 1.512015151977539062e+01 -2.654162049293518066e-01 2.000000000000000000e+00
-2.346318215131759921e-01 2.228630781173706055e+00 -6.004601716995239258e-01 1.600000000000000000e+01
-2.684359252452849787e-01 2.558292388916016069e+00 -5.938707590103149414e-01 1.000000000000000000e+01
-3.094605505466461182e-01 2.954239845275878906e+00 -5.773880481719970703e-01 1.000000000000000000e+01
-3.700211942195891779e-01 3.544317007064818892e+00 -5.644155740737915039e-01 1.000000000000000000e+01
-4.556462764739990234e-01 4.379294395446777344e+00 -5.406123995780944824e-01 7.000000000000000000e+00
-5.940554738044738770e-01 5.719266414642333984e+00 -5.030629634857177734e-01 9.000000000000000000e+00
-8.627020120620727539e-01 8.333969116210937500e+00 -4.390986859798430841e-01 1.000000000000000000e+00
-1.565315961837768999e+00 1.517314815521240057e+01 -2.662539184093474787e-01 2.000000000000000000e+00
-2.268510162830353061e-01 2.229436397552489790e+00 -6.004601716995239258e-01 1.600000000000000000e+01
-2.595041990280150812e-01 2.559213876724243164e+00 -5.938707590103149414e-01 1.000000000000000000e+01
-3.009258806705474854e-01 2.972881555557250977e+00 -5.808225870132446289e-01 1.000000000000000000e+01
-3.556644320487976074e-01 3.525933027267456055e+00 -5.612868666648864746e-01 1.000000000000000000e+01
-4.413495957851409912e-01 4.390734195709229404e+00 -5.418310761451721191e-01 9.000000000000000000e+00
-5.740878582000732422e-01 5.721305370330811435e+00 -5.030629634857177734e-01 9.000000000000000000e+00
-8.336057662963867188e-01 8.336929321289062500e+00 -4.390986859798430841e-01 1.000000000000000000e+00
-1.520669221878051980e+00 1.526209354400634943e+01 -2.677199244499207098e-01 2.000000000000000000e+00
-2.198092937469481867e-01 2.241788625717163086e+00 -6.035659909248352051e-01 1.700000000000000000e+01
-2.484170794487000067e-01 2.542692184448242188e+00 -5.898216366767883301e-01 1.200000000000000000e+01
-2.904088199138640802e-01 2.977872610092163086e+00 -5.815858244895935059e-01 1.100000000000000000e+01
-3.450314104557036798e-01 3.550806283950806108e+00 -5.650413036346435547e-01 1.000000000000000000e+01
-4.244886040687561035e-01 4.384418964385986328e+00 -5.408561229705810547e-01 9.000000000000000000e+00
-5.521560907363891602e-01 5.713455200195313388e+00 -5.021913647651672363e-01 8.000000000000000000e+00
-8.041923642158508301e-01 8.351857185363769531e+00 -4.397267103195189875e-01 1.000000000000000000e+00
-1.464720606803894043e+00 1.526756477355957031e+01 -2.677199244499207098e-01 2.000000000000000000e+00
-2.130734622478485107e-01 2.254081964492797852e+00 -6.066718697547912598e-01 1.800000000000000000e+01
-2.400880604982376099e-01 2.549364328384398970e+00 -5.911713838577270508e-01 1.100000000000000000e+01
-2.783587276935576837e-01 2.961276292800902876e+00 -5.781512856483459473e-01 1.000000000000000000e+01
-3.322663307189940851e-01 3.548055648803710938e+00 -5.644155740737915039e-01 9.000000000000000000e+00
-4.078907370567321777e-01 4.372038364410400391e+00 -5.391499996185302734e-01 7.000000000000000000e+00
-5.333174467086791992e-01 5.727250576019287109e+00 -5.032372474670410156e-01 9.000000000000000000e+00
-7.746650576591491699e-01 8.350636482238769531e+00 -4.395173490047454834e-01 1.000000000000000000e+00
-1.402217030525207964e+00 1.517302322387694957e+01 -2.659746706485747736e-01 2.000000000000000000e+00
-2.049364596605300903e-01 2.243196964263916016e+00 -6.035659909248352051e-01 1.600000000000000000e+01
-2.327843010425567905e-01 2.557868719100952148e+00 -5.929709672927856445e-01 1.100000000000000000e+01
-2.690542638301848810e-01 2.962136268615723100e+00 -5.781512856483459473e-01 1.100000000000000000e+01
-3.211181461811066229e-01 3.549081802368164062e+00 -5.644155740737915039e-01 9.000000000000000000e+00
-3.954009115695952814e-01 4.387137413024902344e+00 -5.408561229705810547e-01 9.000000000000000000e+00
-5.133586525917053223e-01 5.707069873809813565e+00 -5.013198256492614746e-01 9.000000000000000000e+00
-7.477140426635742188e-01 8.345071792602539062e+00 -4.390986859798430841e-01 1.000000000000000000e+00
-1.356320381164551003e+00 1.519727134704590021e+01 -2.663237154483795166e-01 2.000000000000000000e+00
-1.964288204908370972e-01 2.236201047897338867e+00 -6.014954447746276855e-01 1.600000000000000000e+01
-2.241939455270766934e-01 2.562548398971558061e+00 -5.938707590103149414e-01 1.000000000000000000e+01
-2.593958973884583075e-01 2.970880508422852007e+00 -5.796777009963989258e-01 1.000000000000000000e+01
-3.083853125572205145e-01 3.546245336532593218e+00 -5.637897849082946777e-01 1.100000000000000000e+01
-3.800845146179199219e-01 4.388491153717041016e+00 -5.408561229705810547e-01 9.000000000000000000e+00
-4.930910170078278143e-01 5.704856872558593750e+00 -5.009711980819702148e-01 9.000000000000000000e+00
-7.182371616363525391e-01 8.343650817871093750e+00 -4.388893246650695801e-01 2.000000000000000000e+00
-1.304630160331726074e+00 1.521785259246825994e+01 -2.666029632091522217e-01 2.000000000000000000e+00
-1.888793706893920898e-01 2.244606018066405806e+00 -6.035659909248352051e-01 1.500000000000000000e+01
-2.154511362314223966e-01 2.571120738983153853e+00 -5.956704020500183105e-01 1.400000000000000000e+01
-2.483417391777039129e-01 2.969854831695557085e+00 -5.792961120605468750e-01 1.100000000000000000e+01
-2.948938608169556219e-01 3.541445970535277876e+00 -5.628511905670166016e-01 1.100000000000000000e+01
-3.639973402023314875e-01 4.389854907989501953e+00 -5.408561229705810547e-01 9.000000000000000000e+00
-4.705354273319243830e-01 5.686769962310791016e+00 -4.992280900478363037e-01 6.000000000000000000e+00
-6.860113143920898438e-01 8.326321601867675781e+00 -4.378426074981688898e-01 1.000000000000000000e+00
-1.247210144996643066e+00 1.520260238647460938e+01 -2.662539184093474787e-01 2.000000000000000000e+00
-1.811983436346054077e-01 2.247177362442017046e+00 -6.040836572647094727e-01 1.600000000000000000e+01
-2.049154639244079867e-01 2.552432298660277876e+00 -5.911713838577270508e-01 1.000000000000000000e+01
-2.387573271989822110e-01 2.980488538742064986e+00 -5.812041759490966797e-01 1.000000000000000000e+01
-2.830012440681458075e-01 3.548361301422119141e+00 -5.637897849082946777e-01 1.000000000000000000e+01
-3.485145568847656250e-01 4.389119625091552734e+00 -5.406123995780944824e-01 9.000000000000000000e+00
