3.470783615112304688e+01 -4.243140697479248047e+00 8.072593688964843750e+00 1.000000000000000000e+01
1.997975158691405895e+01 -2.446125745773314986e+00 -3.513518571853638250e-01 3.000000000000000000e+00
3.499616622924804688e+01 -4.290788650512695312e+00 9.447412490844726562e+00 7.000000000000000000e+00
2.394639968872069868e+00 -2.961462736129760742e-01 -6.465299725532531738e-01 2.200000000000000000e+01
5.988330459594727273e+01 -7.416408538818359375e+00 1.053252696990967019e+00 6.200000000000000000e+01
2.744236707687377930e+00 -3.403536677360535223e-01 -6.384111046791076660e-01 1.300000000000000000e+01
3.228307485580443892e+00 -4.009626507759094238e-01 -6.323410272598266602e-01 1.300000000000000000e+01
3.887134790420531782e+00 -4.841682314872742254e-01 -6.204190850257873535e-01 1.000000000000000000e+01
3.651469421386718750e+01 -4.554617881774902344e+00 4.518184185028076172e+00 1.900000000000000000e+01
4.959918022155761719e+00 -6.195487380027770996e-01 -6.137340068817138672e-01 1.000000000000000000e+01
6.607075214385986328e+00 -8.264681100845336914e-01 -5.825489759445190430e-01 5.000000000000000000e+00
3.394637298583983664e+01 -4.252313137054443359e+00 6.650074958801270419e+00 5.900000000000000000e+01
1.020788002014159979e+01 -1.280505895614624023e+00 -5.391650199890136719e-01 2.000000000000000000e+00
3.558687210083007812e+01 -4.470428943634033203e+00 8.280447959899902344e+00 1.000000000000000000e+01
2.016993522644042969e+01 -2.537326574325561968e+00 -3.548423349857329767e-01 3.000000000000000000e+00
3.486942291259766336e+01 -4.386485099792479581e+00 9.416872024536132812e+00 1.400000000000000000e+01
2.391675233840941939e+00 -3.042595088481903076e-01 -6.460123658180236816e-01 1.900000000000000000e+01
5.990862655639647727e+01 -7.631965160369873047e+00 1.054160237312316895e+00 6.200000000000000000e+01
2.746897935867310014e+00 -3.504239618778228760e-01 -6.393108963966369629e-01 1.500000000000000000e+01
5.973193359375000000e+01 -7.630645275115966797e+00 3.155858278274536133e+00 6.200000000000000000e+01
3.215203762054442915e+00 -4.107364118099213202e-01 -6.300513148307800293e-01 1.300000000000000000e+01
3.893258571624755859e+00 -4.987379312515258789e-01 -6.216705441474914551e-01 1.000000000000000000e+01
4.965600967407226562e+00 -6.378699541091918945e-01 -6.147089600563049316e-01 1.000000000000000000e+01
6.584389209747313565e+00 -8.469840884208679199e-01 -5.808058977127075195e-01 6.000000000000000000e+00
3.376776123046875000e+01 -4.349713325500488281e+00 6.618019104003906250e+00 5.800000000000000000e+01
1.023504161834716975e+01 -1.320218443870543990e+00 -5.408397912979125977e-01 2.000000000000000000e+00
3.502603530883789062e+01 -4.524224758148193359e+00 8.153575897216796875e+00 1.000000000000000000e+01
2.016095542907714844e+01 -2.607717275619506836e+00 -3.548423349857329767e-01 3.000000000000000000e+00
3.488455581665039062e+01 -4.512140274047851562e+00 9.425154685974121094e+00 1.400000000000000000e+01
2.379105329513549805e+00 -3.111032545566558838e-01 -6.429064869880676270e-01 1.800000000000000000e+01
5.983006668090820312e+01 -7.834288597106933594e+00 1.053252696990967019e+00 6.200000000000000000e+01
2.761115550994873047e+00 -3.620370924472808838e-01 -6.429101228713989258e-01 1.300000000000000000e+01
3.211803913116455078e+00 -4.217014908790587824e-01 -6.296696662902832031e-01 1.300000000000000000e+01
3.891494035720825195e+00 -5.123248696327209473e-01 -6.216705441474914551e-01 1.000000000000000000e+01
3.624977493286132812e+01 -4.778810024261474609e+00 4.489422798156738281e+00 1.900000000000000000e+01
4.969247817993164062e+00 -6.559786200523376465e-01 -6.154401898384094238e-01 1.200000000000000000e+01
6.575466632843017578e+00 -8.691794276237487793e-01 -5.802829265594482422e-01 8.000000000000000000e+00
1.026600933074950994e+01 -1.360660910606384055e+00 -5.427238941192626953e-01 2.000000000000000000e+00
3.526499938964843750e+01 -4.686563491821289062e+00 9.532305717468261719e+00 7.000000000000000000e+00
2.378004789352416992e+00 -3.194059729576110840e-01 -6.429064869880676270e-01 1.900000000000000000e+01
5.967551803588867188e+01 -8.026027679443359375e+00 1.051018834114074929e+00 6.300000000000000000e+01
2.752109766006470171e+00 -3.706326186656951904e-01 -6.411104798316955566e-01 1.300000000000000000e+01
5.967720413208007812e+01 -8.047463417053222656e+00 3.155858278274536133e+00 6.200000000000000000e+01
3.223931789398192915e+00 -4.347468018531798761e-01 -6.323410272598266602e-01 1.300000000000000000e+01
3.874021291732788086e+00 -5.237882137298583984e-01 -6.191676259040832520e-01 1.000000000000000000e+01
3.620140075683593750e+01 -4.901055335998535156e+00 4.485523223876953125e+00 1.900000000000000000e+01
4.988565921783447266e+00 -6.762538552284240723e-01 -6.181213259696960449e-01 1.200000000000000000e+01
3.508099365234375000e+01 -4.761841773986816406e+00 5.607236862182617188e+00 1.300000000000000000e+01
6.594110012054443359e+00 -8.950746655464172363e-01 -5.822003483772277832e-01 6.000000000000000000e+00
1.022953319549561080e+01 -1.392178416252136008e+00 -5.410491228103637695e-01 2.000000000000000000e+00
2.026906394958496094e+01 -2.765705108642578125e+00 -3.570762276649475098e-01 3.000000000000000000e+00
3.496813201904296875e+01 -4.777603626251220703e+00 9.456729888916015625e+00 7.000000000000000000e+00
2.390271663665771040e+00 -3.295517861843109131e-01 -6.465299725532531738e-01 1.900000000000000000e+01
2.737286567687987837e+00 -3.783691823482512873e-01 -6.379612088203430176e-01 1.400000000000000000e+01
3.234062910079956055e+00 -4.476127326488494873e-01 -6.346307396888732910e-01 1.200000000000000000e+01
3.849761581420897727e+01 -5.335137367248535156e+00 3.400294065475463867e+00 5.100000000000000000e+01
3.876082658767700195e+00 -5.378509163856506348e-01 -6.197933554649353027e-01 1.000000000000000000e+01
3.601890945434570312e+01 -5.004444599151611328e+00 4.465048789978027344e+00 1.900000000000000000e+01
4.970445632934570312e+00 -6.914748549461364746e-01 -6.161714196205139160e-01 1.000000000000000000e+01
6.588972091674804688e+00 -9.178120493888854980e-01 -5.820260643959045410e-01 5.000000000000000000e+00
1.021274280548096058e+01 -1.426220178604125977e+00 -5.404210686683654785e-01 2.000000000000000000e+00
3.334012985229492188e+01 -4.661916255950927734e+00 7.772058963775634766e+00 9.000000000000000000e+00
3.479138946533203125e+01 -4.871035575866699219e+00 9.413249015808105469e+00 7.000000000000000000e+00
2.402496337890625000e+00 -3.397870957851409912e-01 -6.501534581184387207e-01 1.900000000000000000e+01
5.974474716186522727e+01 -8.460386276245117188e+00 1.053252696990967019e+00 6.200000000000000000e+01
2.749455213546752930e+00 -3.898367881774901789e-01 -6.411104798316955566e-01 1.200000000000000000e+01
3.224705696105957031e+00 -4.577952027320861816e-01 -6.331042647361755371e-01 1.200000000000000000e+01
3.885915517807006836e+00 -5.530476570129394531e-01 -6.216705441474914551e-01 1.000000000000000000e+01
3.914560699462891336e+01 -5.578215599060058594e+00 4.855031013488770419e+00 2.000000000000000000e+01
4.960141181945800781e+00 -7.076991796493530273e-01 -6.151964664459228516e-01 1.000000000000000000e+01
6.609396457672119141e+00 -9.441874623298645020e-01 -5.841177701950073242e-01 4.000000000000000000e+00
1.031051063537598012e+01 -1.476583957672118919e+00 -5.458640456199645996e-01 2.000000000000000000e+00
3.565003967285156250e+01 -5.111846446990966797e+00 8.314640998840332031e+00 1.000000000000000000e+01
3.447968673706054688e+01 -4.950171947479248047e+00 9.333532333374023438e+00 7.000000000000000000e+00
2.389824628829956055e+00 -3.465080857276917059e-01 -6.470476388931274414e-01 2.000000000000000000e+01
2.750006198883057085e+00 -3.997120857238770086e-01 -6.415604352951049805e-01 1.300000000000000000e+01
3.215316772460937944e+00 -4.679178297519683838e-01 -6.315777897834777832e-01 1.300000000000000000e+01
3.889825582504272017e+00 -5.674641728401184082e-01 -6.226091980934143066e-01 1.100000000000000000e+01
4.979246616363525391e+00 -7.281687259674072266e-01 -6.178775429725646973e-01 9.000000000000000000e+00
3.526074218750000000e+01 -5.156556606292724609e+00 5.644155502319335938e+00 1.300000000000000000e+01
6.604088783264160156e+00 -9.669641256332397461e-01 -5.839434862136840820e-01 5.000000000000000000e+00
1.028948497772216975e+01 -1.510245084762573020e+00 -5.450266599655151367e-01 2.000000000000000000e+00
2.050805282592773082e+01 -3.017394542694091797e+00 -3.618232905864716131e-01 3.000000000000000000e+00
3.472786331176757812e+01 -5.109586238861083984e+00 9.405484199523925781e+00 1.400000000000000000e+01
2.371402502059936968e+00 -3.522931039333344061e-01 -6.423888802528381348e-01 1.900000000000000000e+01
2.762086629867554155e+00 -4.113182127475739081e-01 -6.447097063064575195e-01 1.300000000000000000e+01
3.221431016921997070e+00 -4.802965521812438965e-01 -6.331042647361755371e-01 1.300000000000000000e+01
3.887820959091186968e+00 -5.810387134552001953e-01 -6.226091980934143066e-01 1.100000000000000000e+01
4.972748279571533203e+00 -7.449568510055541992e-01 -6.173900961875915527e-01 9.000000000000000000e+00
3.529239654541016336e+01 -5.293377399444580078e+00 5.652289867401123047e+00 1.300000000000000000e+01
6.586880683898925781e+00 -9.879421591758728027e-01 -5.827233195304870605e-01 6.000000000000000000e+00
3.410415267944335938e+01 -5.121243476867675781e+00 6.703501701354979581e+00 5.900000000000000000e+01
1.030390167236327947e+01 -1.549122214317321999e+00 -5.460733771324157715e-01 2.000000000000000000e+00
3.996857452392578125e+01 -6.016139984130859375e+00 9.331419944763183594e+00 1.200000000000000000e+01
2.049739456176758168e+01 -3.088962554931641069e+00 -3.618232905864716131e-01 3.000000000000000000e+00
4.209959030151367188e+01 -6.351933479309082031e+00 1.140822601318359020e+01 1.100000000000000000e+01
2.383653879165648970e+00 -3.617704808712006170e-01 -6.460123658180236816e-01 2.000000000000000000e+01
3.767968750000000000e+01 -5.725426673889160156e+00 6.652508378028869629e-01 3.100000000000000000e+01
2.755001068115233931e+00 -4.191142618656157892e-01 -6.433600187301635742e-01 1.300000000000000000e+01
3.221847057342528853e+00 -4.907101988792418878e-01 -6.334858536720275879e-01 1.200000000000000000e+01
3.870354413986206055e+00 -5.908648967742919922e-01 -6.201062202453613281e-01 1.000000000000000000e+01
3.660678100585938211e+01 -5.595086097717285156e+00 4.546945095062255859e+00 1.900000000000000000e+01
4.993930339813232422e+00 -7.641787528991699219e-01 -6.203149557113647461e-01 9.000000000000000000e+00
6.585713863372802734e+00 -1.008932232856750044e+00 -5.828976035118103027e-01 8.000000000000000000e+00
3.413835144042968750e+01 -5.236098289489746094e+00 6.713423728942871094e+00 5.900000000000000000e+01
1.031872463226318004e+01 -1.584516644477844016e+00 -5.471200942993164062e-01 2.000000000000000000e+00
4.203091430664063211e+01 -6.469176292419433594e+00 1.139476680755615057e+01 1.100000000000000000e+01
2.390012502670288086e+00 -3.712749779224395752e-01 -6.480829119682312012e-01 2.000000000000000000e+01
3.761204910278320312e+01 -5.849543094635009766e+00 6.644130945205688477e-01 3.100000000000000000e+01
2.747744798660277876e+00 -4.278290271759033203e-01 -6.420103311538696289e-01 1.500000000000000000e+01
3.229813814163208008e+00 -5.034654736518859863e-01 -6.353939771652221680e-01 1.200000000000000000e+01
3.874123334884643999e+00 -6.052861213684082031e-01 -6.210448145866394043e-01 1.100000000000000000e+01
4.993193626403808594e+00 -7.819132804870605469e-01 -6.205586791038513184e-01 9.000000000000000000e+00
3.545166778564453125e+01 -5.557922363281250000e+00 5.683577060699462891e+00 1.300000000000000000e+01
6.603804111480712891e+00 -1.035308957099914995e+00 -5.848150253295898438e-01 8.000000000000000000e+00
3.421684265136718750e+01 -5.370451927185058594e+00 6.732504367828369141e+00 5.900000000000000000e+01
1.031313133239745916e+01 -1.620526075363158958e+00 -5.471200942993164062e-01 2.000000000000000000e+00
3.693239212036132812e+01 -5.809877395629882812e+00 8.631371498107910156e+00 1.100000000000000000e+01
2.394425630569458008e+00 -3.805250227451323908e-01 -6.496357917785644531e-01 1.900000000000000000e+01
3.769014358520507812e+01 -5.996508121490479404e+00 6.661583781242370605e-01 3.100000000000000000e+01
2.744310140609741211e+00 -4.371112883090972900e-01 -6.415604352951049805e-01 1.300000000000000000e+01
3.206710338592528853e+00 -5.113359093666076660e-01 -6.311961412429809570e-01 1.100000000000000000e+01
3.879789352416992188e+00 -6.200526356697082520e-01 -6.222962737083435059e-01 1.000000000000000000e+01
4.974752902984619141e+00 -7.968263030052185059e-01 -6.186087727546691895e-01 1.000000000000000000e+01
6.617855072021484375e+00 -1.061193346977234109e+00 -5.863838195800781250e-01 5.000000000000000000e+00
1.032713127136229936e+01 -1.659684896469115989e+00 -5.481668114662170410e-01 2.000000000000000000e+00
3.489553833007813211e+01 -5.614349365234375000e+00 8.159874916076660156e+00 1.000000000000000000e+01
3.642973327636718750e+01 -5.874232292175292969e+00 9.887405395507812500e+00 7.000000000000000000e+00
2.396896362304687944e+00 -3.895005583763123114e-01 -6.506710648536682129e-01 1.900000000000000000e+01
2.738920688629149947e+00 -4.460615813732147217e-01 -6.406605839729309082e-01 1.200000000000000000e+01
3.212656497955321822e+00 -5.237899422645568848e-01 -6.327226161956787109e-01 1.100000000000000000e+01
3.885399580001831055e+00 -6.348659992218017578e-01 -6.235477924346923828e-01 1.100000000000000000e+01
4.964105129241943359e+00 -8.129034042358398438e-01 -6.176338195800781250e-01 9.000000000000000000e+00
3.638278198242188211e+01 -5.964429378509520596e+00 5.839385509490966797e+00 1.300000000000000000e+01
6.637704372406005859e+00 -1.088155388832092063e+00 -5.884755849838256836e-01 6.000000000000000000e+00
1.034098339080811080e+01 -1.698961138725280984e+00 -5.492135286331176758e-01 2.000000000000000000e+00
2.072179031372069957e+01 -3.411894083023070845e+00 -3.665703535079956055e-01 3.000000000000000000e+00
2.374558925628662109e+00 -3.943831920623778742e-01 -6.449770331382751465e-01 1.800000000000000000e+01
2.745036125183105025e+00 -4.568993151187896729e-01 -6.424602270126342773e-01 1.300000000000000000e+01
3.794518280029296875e+01 -6.315809726715087891e+00 2.015980958938599077e+00 2.200000000000000000e+01
3.214681625366210938e+00 -5.356463789939880371e-01 -6.334858536720275879e-01 1.100000000000000000e+01
3.794282913208007812e+01 -6.329030513763427734e+00 3.365431785583496094e+00 5.000000000000000000e+01
3.887056589126586914e+00 -6.490754485130310059e-01 -6.241735219955444336e-01 1.000000000000000000e+01
3.743357086181641336e+01 -6.257514953613281250e+00 4.660039901733398438e+00 2.000000000000000000e+01
4.984731674194335938e+00 -8.341580033302307129e-01 -6.205586791038513184e-01 9.000000000000000000e+00
3.558738327026367188e+01 -5.955285549163818359e+00 5.714863777160645419e+00 1.300000000000000000e+01
6.624040603637695312e+00 -1.109672784805298074e+00 -5.876040458679199219e-01 6.000000000000000000e+00
3.686555862426757812e+01 -6.182408332824707031e+00 7.266006469726563388e+00 6.200000000000000000e+01
1.039408016204833984e+01 -1.744967818260193093e+00 -5.523536801338195801e-01 2.000000000000000000e+00
3.407140350341796875e+01 -5.726052761077880859e+00 7.976314544677734375e+00 1.000000000000000000e+01
2.083596229553223012e+01 -3.505439043045043945e+00 -3.688042461872100830e-01 3.000000000000000000e+00
3.480475997924804688e+01 -5.861794471740722656e+00 9.457247734069824219e+00 1.400000000000000000e+01
2.378881692886352983e+00 -4.036390483379364014e-01 -6.465299725532531738e-01 1.600000000000000000e+01
5.968590545654296875e+01 -1.013798046112061080e+01 1.056743264198303001e+00 6.200000000000000000e+01
2.743424654006958008e+00 -4.664784967899323065e-01 -6.424602270126342773e-01 1.400000000000000000e+01
3.220534086227416992e+00 -5.481821894645690918e-01 -6.350123286247253418e-01 1.100000000000000000e+01
3.876978158950806108e+00 -6.613112092018127441e-01 -6.229220628738403320e-01 1.000000000000000000e+01
3.742715454101563211e+01 -6.390817642211914062e+00 4.661989688873291016e+00 4.000000000000000000e+01
4.985702991485595703e+00 -8.522218465805053711e-01 -6.210461854934692383e-01 9.000000000000000000e+00
6.624054431915283203e+00 -1.133460283279418945e+00 -5.879526138305664062e-01 8.000000000000000000e+00
1.043517112731933949e+01 -1.789340376853943093e+00 -5.548658370971679688e-01 2.000000000000000000e+00
3.406657409667968750e+01 -5.847586631774902344e+00 7.979913711547851562e+00 1.000000000000000000e+01
2.090243148803710938e+01 -3.591694593429564986e+00 -3.702004551887512207e-01 3.000000000000000000e+00
3.485453033447266336e+01 -5.995367050170898438e+00 9.476400375366210938e+00 7.000000000000000000e+00
2.390855073928833008e+00 -4.138318896293640137e-01 -6.501534581184387207e-01 1.700000000000000000e+01
2.745702743530272993e+00 -4.762395024299622137e-01 -6.433600187301635742e-01 1.300000000000000000e+01
3.222567081451416016e+00 -5.595305562019348145e-01 -6.357755661010742188e-01 1.100000000000000000e+01
3.882548332214355025e+00 -6.755185127258300781e-01 -6.241735219955444336e-01 1.000000000000000000e+01
3.849700927734375000e+01 -6.704957008361816406e+00 4.797996044158936435e+00 2.000000000000000000e+01
4.975027084350585938e+00 -8.673865199089050293e-01 -6.200712323188781738e-01 1.000000000000000000e+01
3.892431640625000000e+01 -6.786380290985107422e+00 6.258004188537597656e+00 1.400000000000000000e+01
6.637923717498779297e+00 -1.158503174781799094e+00 -5.895214676856994629e-01 5.000000000000000000e+00
1.035835361480713068e+01 -1.811548233032227007e+00 -5.510976314544677734e-01 2.000000000000000000e+00
2.093767738342285156e+01 -3.669274091720581055e+00 -3.710381686687468927e-01 3.000000000000000000e+00
3.475370407104492188e+01 -6.090497016906738281e+00 9.454141616821289062e+00 1.400000000000000000e+01
2.379884004592895952e+00 -4.204943776130676270e-01 -6.475652456283569336e-01 1.600000000000000000e+01
2.738266944885253906e+00 -4.848017096519470215e-01 -6.420103311538696289e-01 1.200000000000000000e+01
3.216728210449219194e+00 -5.700908303260803223e-01 -6.350123286247253418e-01 1.200000000000000000e+01
3.887946605682373047e+00 -6.904486417770385742e-01 -6.254249811172485352e-01 1.000000000000000000e+01
4.948516368865966797e+00 -8.805739879608154297e-01 -6.171463727951049805e-01 9.000000000000000000e+00
3.590924835205078125e+01 -6.389945507049561435e+00 5.776812076568604404e+00 1.300000000000000000e+01
6.629916191101074219e+00 -1.180967926979064941e+00 -5.891728401184082031e-01 5.000000000000000000e+00
1.043454647064208984e+01 -1.862434029579163042e+00 -5.554938316345214844e-01 2.000000000000000000e+00
3.434059143066406250e+01 -6.135543823242188388e+00 8.053697586059570312e+00 1.000000000000000000e+01
2.081844520568848012e+01 -3.723326921463013139e+00 -3.691532909870148260e-01 7.000000000000000000e+00
3.531494140625000000e+01 -6.322350502014160156e+00 9.613057136535644531e+00 7.000000000000000000e+00
2.380302906036376953e+00 -4.291419088840485174e-01 -6.480829119682312012e-01 1.800000000000000000e+01
2.744228839874268022e+00 -4.957427978515625000e-01 -6.438099145889282227e-01 1.300000000000000000e+01
3.212786674499512163e+00 -5.809664726257324219e-01 -6.346307396888732910e-01 1.000000000000000000e+01
3.889400243759154829e+00 -7.047202587127685547e-01 -6.260507106781005859e-01 1.000000000000000000e+01
3.830862808227539062e+01 -6.948044776916503906e+00 4.780447006225585938e+00 2.000000000000000000e+01
4.980569362640380859e+00 -9.042249321937561035e-01 -6.215336322784423828e-01 9.000000000000000000e+00
6.647316455841063565e+00 -1.208022117614746094e+00 -5.910902619361877441e-01 6.000000000000000000e+00
1.044763183593750000e+01 -1.902423977851867898e+00 -5.565405488014221191e-01 2.000000000000000000e+00
3.415409088134766336e+01 -6.225325584411621094e+00 8.015006065368652344e+00 1.000000000000000000e+01
2.073646926879883168e+01 -3.783411979675292969e+00 -3.679316341876984198e-01 1.000000000000000000e+01
3.526907730102539062e+01 -6.434916496276854581e+00 9.606328010559082031e+00 2.200000000000000000e+01
2.371190309524536133e+00 -4.360505044460297186e-01 -6.460123658180236816e-01 1.900000000000000000e+01
5.973711776733397727e+01 -1.099614715576172053e+01 1.060233712196350098e+00 6.100000000000000000e+01
2.753980636596680132e+00 -5.074376463890075684e-01 -6.465093493461608887e-01 1.300000000000000000e+01
3.204946994781494141e+00 -5.911093950271606445e-01 -6.334858536720275879e-01 1.200000000000000000e+01
3.782781219482421875e+01 -6.983658313751220703e+00 3.365431785583496094e+00 5.000000000000000000e+01
3.886916637420653853e+00 -7.182925343513488770e-01 -6.260507106781005859e-01 1.200000000000000000e+01
4.989094257354736328e+00 -9.237733483314514160e-01 -6.229960918426513672e-01 9.000000000000000000e+00
6.629346370697020596e+00 -1.228676676750183105e+00 -5.898700952529907227e-01 5.000000000000000000e+00
1.046056365966797053e+01 -1.942528009414673074e+00 -5.575872659683227539e-01 2.000000000000000000e+00
3.325657653808593750e+01 -6.181755065917968750e+00 7.809401035308837891e+00 1.900000000000000000e+01
1.979913711547851918e+01 -3.683852195739746094e+00 -3.515263795852661133e-01 1.000000000000000000e+01
3.522436523437500000e+01 -6.560249805450438565e+00 9.600633621215820312e+00 7.000000000000000000e+00
2.379147768020629883e+00 -4.461050033569335938e-01 -6.486005187034606934e-01 2.000000000000000000e+01
2.744531631469727007e+00 -5.156085491180419922e-01 -6.447097063064575195e-01 1.200000000000000000e+01
3.222158432006835938e+00 -6.059213876724243164e-01 -6.373020410537719727e-01 1.200000000000000000e+01
3.874679565429687944e+00 -7.300272583961486816e-01 -6.244863867759704590e-01 1.200000000000000000e+01
4.985839366912841797e+00 -9.411829113960266113e-01 -6.229960918426513672e-01 9.000000000000000000e+00
6.652425289154052734e+00 -1.256988883018494096e+00 -5.923104286193847656e-01 6.000000000000000000e+00
1.047726821899414062e+01 -1.983488440513611062e+00 -5.588433146476745605e-01 2.000000000000000000e+00
3.323862457275391336e+01 -6.298530101776123047e+00 7.810300827026367188e+00 1.900000000000000000e+01
1.976651000976562855e+01 -3.749215126037598100e+00 -3.511773347854614258e-01 1.000000000000000000e+01
3.536184692382813211e+01 -6.707262516021729404e+00 9.644115447998046875e+00 7.000000000000000000e+00
2.385165929794311968e+00 -4.558576941490172785e-01 -6.506710648536682129e-01 1.800000000000000000e+01
2.731231212615966797e+00 -5.229866504669189453e-01 -6.420103311538696289e-01 1.200000000000000000e+01
3.223880052566527876e+00 -6.179042458534240723e-01 -6.380652785301208496e-01 1.100000000000000000e+01
3.887627124786376953e+00 -7.465281486511230469e-01 -6.269893646240234375e-01 1.100000000000000000e+01
4.996169090270996094e+00 -9.612061977386474609e-01 -6.247022747993469238e-01 1.000000000000000000e+01
6.644084453582763672e+00 -1.279448986053467019e+00 -5.919618010520935059e-01 6.000000000000000000e+00
1.046635818481444957e+01 -2.019292116165161133e+00 -5.586339831352233887e-01 2.000000000000000000e+00
3.331019210815429688e+01 -6.432621479034423828e+00 7.832345962524414062e+00 9.000000000000000000e+00
3.568601608276367188e+01 -6.904345989227294922e+00 9.739360809326171875e+00 7.000000000000000000e+00
2.379848718643188032e+00 -4.630267918109893799e-01 -6.496357917785644531e-01 1.800000000000000000e+01
2.735220193862915039e+00 -5.331593751907348633e-01 -6.433600187301635742e-01 1.400000000000000000e+01
3.212178707122803178e+00 -6.267118453979492188e-01 -6.361572146415710449e-01 1.000000000000000000e+01
3.877375364303588867e+00 -7.579000592231750488e-01 -6.257378458976745605e-01 9.000000000000000000e+00
4.969577312469482422e+00 -9.731909036636352539e-01 -6.217774152755737305e-01 1.000000000000000000e+01
6.653491020202636719e+00 -1.304157137870789018e+00 -5.931819677352905273e-01 8.000000000000000000e+00
1.048704242706299006e+01 -2.059376716613769975e+00 -5.600994229316711426e-01 2.000000000000000000e+00
3.326190567016602273e+01 -6.537785053253173828e+00 7.826046943664550781e+00 9.000000000000000000e+00
2.048023796081542969e+01 -4.029200553894042969e+00 -3.643364310264586847e-01 6.000000000000000000e+00
3.666119003295897727e+01 -7.212576389312744141e+00 1.001163864135742010e+01 8.000000000000000000e+00
2.378217935562133789e+00 -4.713311791419982910e-01 -6.496357917785644531e-01 1.800000000000000000e+01
2.737165212631226030e+00 -5.434628129005432129e-01 -6.442598104476928711e-01 1.400000000000000000e+01
3.209971427917480025e+00 -6.379206180572509766e-01 -6.361572146415710449e-01 1.200000000000000000e+01
3.884392976760863814e+00 -7.733585834503173828e-01 -6.273022294044494629e-01 1.100000000000000000e+01
4.995350837707520419e+00 -9.963564276695251465e-01 -6.254334449768066406e-01 9.000000000000000000e+00
6.670390605926513672e+00 -1.331664919853210005e+00 -5.950993895530700684e-01 6.000000000000000000e+00
1.051112556457520064e+01 -2.102237939834595171e+00 -5.617741346359252930e-01 2.000000000000000000e+00
3.364780044555664062e+01 -6.735709190368652344e+00 7.922326087951660156e+00 9.000000000000000000e+00
1.976803207397460938e+01 -3.960807323455810991e+00 -3.519103229045867920e-01 3.000000000000000000e+00
2.368983507156372070e+00 -4.781011343002318781e-01 -6.475652456283569336e-01 1.900000000000000000e+01
2.742891788482666016e+00 -5.545587539672851562e-01 -6.460594534873962402e-01 1.400000000000000000e+01
3.211573839187622070e+00 -6.499004364013671875e-01 -6.369204521179199219e-01 1.200000000000000000e+01
3.887477636337279829e+00 -7.880903482437133789e-01 -6.282408237457275391e-01 1.100000000000000000e+01
3.764247131347656250e+01 -7.637924194335938388e+00 4.716099739074707031e+00 2.000000000000000000e+01
4.984061241149902344e+00 -1.012207031250000000e+00 -6.244584918022155762e-01 9.000000000000000000e+00
6.669606208801270419e+00 -1.355734586715698020e+00 -5.954480171203613281e-01 6.000000000000000000e+00
1.049980926513672053e+01 -2.138118743896483931e+00 -5.615648031234741211e-01 2.000000000000000000e+00
3.370428085327147727e+01 -6.869466781616210938e+00 7.941222190856933594e+00 9.000000000000000000e+00
1.822971725463866832e+01 -3.718819141387939009e+00 -3.247543871402739923e-01 3.000000000000000000e+00
2.378654003143310991e+00 -4.887002110481262207e-01 -6.506710648536682129e-01 2.000000000000000000e+01
2.744756937026977983e+00 -5.649155378341674805e-01 -6.469592452049255371e-01 1.300000000000000000e+01
3.209285497665404829e+00 -6.611069440841674805e-01 -6.369204521179199219e-01 1.200000000000000000e+01
3.882768392562866211e+00 -8.012561798095703125e-01 -6.279279589653015137e-01 1.100000000000000000e+01
4.999937534332275391e+00 -1.033617258071898970e+00 -6.268959045410156250e-01 9.000000000000000000e+00
3.803811645507813211e+01 -7.870391845703125000e+00 6.152254581451416016e+00 1.400000000000000000e+01
6.680441856384277344e+00 -1.382237076759337935e+00 -5.968425273895263672e-01 6.000000000000000000e+00
1.053530693054199041e+01 -2.183674812316894975e+00 -5.638675689697265625e-01 2.000000000000000000e+00
1.810306549072265980e+01 -3.758850812911986861e+00 -3.227298855781555176e-01 6.000000000000000000e+00
3.562903976440429688e+01 -7.404364109039306641e+00 9.750748634338378906e+00 7.000000000000000000e+00
2.378824710845946822e+00 -4.973956942558289129e-01 -6.511887311935424805e-01 2.100000000000000000e+01
2.731324195861815962e+00 -5.720960497856140137e-01 -6.442598104476928711e-01 1.300000000000000000e+01
3.212722778320312944e+00 -6.735138893127441406e-01 -6.380652785301208496e-01 1.200000000000000000e+01
3.881881237030028853e+00 -8.152106404304504395e-01 -6.282408237457275391e-01 1.100000000000000000e+01
3.714142608642578125e+01 -7.806617259979248047e+00 4.660039901733398438e+00 2.000000000000000000e+01
4.998241424560546875e+00 -1.051472663879394975e+00 -6.271396279335021973e-01 1.000000000000000000e+01
6.689223766326904297e+00 -1.408421277999877930e+00 -5.980626940727233887e-01 6.000000000000000000e+00
1.051980304718017933e+01 -2.218787908554077148e+00 -5.634489059448242188e-01 2.000000000000000000e+00
1.803505134582519887e+01 -3.810445070266724077e+00 -3.217525780200958252e-01 3.000000000000000000e+00
2.378963470458983931e+00 -5.060982704162597656e-01 -6.517063379287719727e-01 2.000000000000000000e+01
2.729310512542725053e+00 -5.816266536712646484e-01 -6.442598104476928711e-01 1.400000000000000000e+01
3.206511974334716797e+00 -6.839052438735961914e-01 -6.373020410537719727e-01 1.200000000000000000e+01
3.890602588653564009e+00 -8.312323689460754395e-01 -6.301180124282836914e-01 1.100000000000000000e+01
3.740512847900391336e+01 -7.998481750488281250e+00 4.696600914001464844e+00 2.000000000000000000e+01
4.988717079162597656e+00 -1.067667007446289062e+00 -6.264083981513977051e-01 9.000000000000000000e+00
3.626837158203125000e+01 -7.762024402618408203e+00 5.874426841735839844e+00 1.300000000000000000e+01
6.686214923858642578e+00 -1.432179689407349077e+00 -5.982370376586914062e-01 5.000000000000000000e+00
1.051199436187743963e+01 -2.255495309829711914e+00 -5.634489059448242188e-01 2.000000000000000000e+00
4.178900527954102273e+01 -8.974044799804687500e+00 9.867702484130859375e+00 1.300000000000000000e+01
1.800991058349609020e+01 -3.870854616165161133e+00 -3.215431272983551025e-01 3.000000000000000000e+00
2.375204563140869141e+00 -5.144053101539611816e-01 -6.511887311935424805e-01 2.100000000000000000e+01
2.730969190597534180e+00 -5.924524664878845215e-01 -6.451596021652221680e-01 1.400000000000000000e+01
3.203984022140502930e+00 -6.956530809402465820e-01 -6.373020410537719727e-01 1.200000000000000000e+01
3.885599613189696822e+00 -8.450667262077331543e-01 -6.298051476478576660e-01 1.000000000000000000e+01
3.734840774536132812e+01 -8.129613876342773438e+00 4.693188190460205078e+00 2.000000000000000000e+01
4.986710071563720703e+00 -1.086367011070251021e+00 -6.266521811485290527e-01 1.000000000000000000e+01
6.667294025421142578e+00 -1.453705191612244096e+00 -5.970168113708496094e-01 5.000000000000000000e+00
1.056219482421875000e+01 -2.306793451309204102e+00 -5.665890574455261230e-01 2.000000000000000000e+00
1.912472152709960938e+01 -4.183852195739746094e+00 -3.417181074619293213e-01 6.000000000000000000e+00
3.786705780029296875e+01 -8.284050941467285156e+00 1.038640785217284979e+01 8.000000000000000000e+00
2.363961219787598100e+00 -5.206156969070434570e-01 -6.486005187034606934e-01 1.900000000000000000e+01
2.736496448516846147e+00 -6.036608815193176270e-01 -6.469592452049255371e-01 1.400000000000000000e+01
3.201536178588867188e+00 -7.068328261375427246e-01 -6.373020410537719727e-01 1.300000000000000000e+01
3.894198656082152876e+00 -8.611841201782226562e-01 -6.316823959350585938e-01 1.000000000000000000e+01
5.000330448150634766e+00 -1.107631087303162065e+00 -6.288458108901977539e-01 9.000000000000000000e+00
6.675795555114746094e+00 -1.479988217353821023e+00 -5.982370376586914062e-01 5.000000000000000000e+00
1.060867118835449041e+01 -2.355771303176879883e+00 -5.695198774337768555e-01 2.000000000000000000e+00
3.630589294433593750e+01 -8.068769454956054688e+00 8.586381912231445312e+00 1.100000000000000000e+01
1.913342475891112926e+01 -4.255794525146484375e+00 -3.421369791030883789e-01 6.000000000000000000e+00
2.373533248901367188e+00 -5.309825539588928223e-01 -6.517063379287719727e-01 1.900000000000000000e+01
2.732578039169311968e+00 -6.123059988021850586e-01 -6.465093493461608887e-01 1.300000000000000000e+01
3.208752870559691939e+00 -7.195937037467956543e-01 -6.392101049423217773e-01 1.200000000000000000e+01
3.873975276947021040e+00 -8.701965808868408203e-01 -6.288665533065795898e-01 1.200000000000000000e+01
5.002439975738525391e+00 -1.125513911247252974e+00 -6.295770406723022461e-01 1.000000000000000000e+01
6.659188270568847656e+00 -1.499491691589355025e+00 -5.971911549568176270e-01 8.000000000000000000e+00
1.059690475463867010e+01 -2.390058994293212891e+00 -5.693105459213256836e-01 2.000000000000000000e+00
1.890854835510253906e+01 -4.271630287170410156e+00 -3.383672535419464111e-01 6.000000000000000000e+00
3.783617401123046875e+01 -8.547569274902343750e+00 1.039365482330322088e+01 8.000000000000000000e+00
2.367897748947143999e+00 -5.384078025817871094e-01 -6.506710648536682129e-01 2.000000000000000000e+01
2.724723815917969194e+00 -6.205425262451171875e-01 -6.451596021652221680e-01 1.400000000000000000e+01
3.206221580505371094e+00 -7.307899594306945801e-01 -6.392101049423217773e-01 1.200000000000000000e+01
3.872839927673339844e+00 -8.841536641120910645e-01 -6.291794180870056152e-01 1.000000000000000000e+01
4.994610786437988281e+00 -1.142083764076232910e+00 -6.290895342826843262e-01 1.000000000000000000e+01
6.661682605743408203e+00 -1.524505376815795898e+00 -5.978884100914001465e-01 5.000000000000000000e+00
1.062353897094726918e+01 -2.435066699981689009e+00 -5.711946487426757812e-01 3.000000000000000000e+00
1.810223197937012074e+01 -4.155941486358642578e+00 -3.241958916187285822e-01 3.000000000000000000e+00
3.796803283691406250e+01 -8.716765403747558594e+00 1.043817234039306996e+01 8.000000000000000000e+00
2.373533010482788086e+00 -5.484096407890319824e-01 -6.527416110038757324e-01 2.000000000000000000e+01
2.718744039535522017e+00 -6.291710734367370605e-01 -6.442598104476928711e-01 1.300000000000000000e+01
3.207476377487183061e+00 -7.428632378578186035e-01 -6.399733424186706543e-01 1.200000000000000000e+01
3.887048721313477007e+00 -9.016844034194946289e-01 -6.319952607154846191e-01 1.100000000000000000e+01
4.988659858703613281e+00 -1.159062027931212935e+00 -6.288458108901977539e-01 9.000000000000000000e+00
3.591188049316406250e+01 -8.343742370605468750e+00 5.839385509490966797e+00 1.300000000000000000e+01
6.664083003997802734e+00 -1.549554586410522017e+00 -5.985856652259826660e-01 5.000000000000000000e+00
1.059552192687987926e+01 -2.467604875564575195e+00 -5.701479315757751465e-01 3.000000000000000000e+00
1.804282379150390980e+01 -4.208656787872313565e+00 -3.233930766582489014e-01 1.200000000000000000e+01
3.666558074951171875e+01 -8.552588462829589844e+00 1.008824920654297053e+01 8.000000000000000000e+00
2.364081382751464844e+00 -5.549256205558776855e-01 -6.506710648536682129e-01 1.900000000000000000e+01
2.726016283035277876e+00 -6.408873796463012695e-01 -6.465093493461608887e-01 1.500000000000000000e+01
3.204863786697388139e+00 -7.540549039840698242e-01 -6.399733424186706543e-01 1.200000000000000000e+01
3.881954908370972124e+00 -9.147941470146179199e-01 -6.316823959350585938e-01 1.000000000000000000e+01
4.253879928588867188e+01 -1.003223037719726918e+01 5.366394519805908203e+00 3.300000000000000000e+01
4.996175765991210938e+00 -1.179204583168030007e+00 -6.303082704544067383e-01 1.000000000000000000e+01
3.599256134033203125e+01 -8.501647949218750000e+00 5.857532024383544922e+00 1.300000000000000000e+01
6.654755115509033203e+00 -1.571891188621520996e+00 -5.982370376586914062e-01 5.000000000000000000e+00
3.542248153686522727e+01 -8.373519897460937500e+00 7.075197696685791016e+00 6.100000000000000000e+01
1.060628032684325994e+01 -2.509173154830933061e+00 -5.711946487426757812e-01 3.000000000000000000e+00
3.782960891723632812e+01 -8.956484794616699219e+00 8.975096702575683594e+00 1.200000000000000000e+01
1.800078201293944957e+01 -4.265157699584960938e+00 -3.229044377803801935e-01 1.200000000000000000e+01
3.692722702026367188e+01 -8.756451606750488281e+00 1.016900062561034979e+01 8.000000000000000000e+00
2.354711055755614790e+00 -5.609713196754455566e-01 -6.486005187034606934e-01 2.000000000000000000e+01
2.725771665573120117e+00 -6.503759622573852539e-01 -6.469592452049255371e-01 1.400000000000000000e+01
3.200435876846313032e+00 -7.642224431037902832e-01 -6.395917534828186035e-01 1.200000000000000000e+01
3.878899812698363814e+00 -9.276621341705322266e-01 -6.316823959350585938e-01 1.000000000000000000e+01
5.005751132965087891e+00 -1.199002861976623979e+00 -6.320143938064575195e-01 1.000000000000000000e+01
6.684381008148193359e+00 -1.602310299873352051e+00 -6.013746261596679688e-01 5.000000000000000000e+00
1.061732196807860973e+01 -2.548993587493896040e+00 -5.722413659095764160e-01 3.000000000000000000e+00
3.777317428588867188e+01 -9.075510025024414062e+00 8.968798637390136719e+00 1.200000000000000000e+01
3.635106658935546875e+01 -8.740540504455566406e+00 1.001784992218017933e+01 8.000000000000000000e+00
2.360249280929564986e+00 -5.710043907165527344e-01 -6.506710648536682129e-01 1.900000000000000000e+01
2.727272748947143999e+00 -6.608045101165771484e-01 -6.478590369224548340e-01 1.400000000000000000e+01
3.203472614288330078e+00 -7.767773270606994629e-01 -6.407365798950195312e-01 1.200000000000000000e+01
3.875638008117675781e+00 -9.411963820457458496e-01 -6.316823959350585938e-01 1.100000000000000000e+01
3.629305267333983664e+01 -8.820453643798828125e+00 4.585943222045898438e+00 1.900000000000000000e+01
5.003464221954345703e+00 -1.216938018798827903e+00 -6.322581768035888672e-01 9.000000000000000000e+00
6.667131900787354404e+00 -1.622806191444396973e+00 -6.003287434577941895e-01 5.000000000000000000e+00
1.062776374816895064e+01 -2.590769529342650923e+00 -5.732880830764770508e-01 3.000000000000000000e+00
3.772990417480468750e+01 -9.204536437988281250e+00 8.966098785400390625e+00 1.200000000000000000e+01
3.709354782104492188e+01 -9.056151390075683594e+00 1.023111724853515980e+01 8.000000000000000000e+00
2.363768815994263139e+00 -5.810347199440002441e-01 -6.522240042686462402e-01 1.900000000000000000e+01
2.719155550003052202e+00 -6.693985462188720703e-01 -6.465093493461608887e-01 1.500000000000000000e+01
3.198698043823242188e+00 -7.880437970161437988e-01 -6.403549909591674805e-01 1.100000000000000000e+01
3.874080181121826172e+00 -9.558681845664978027e-01 -6.319952607154846191e-01 1.000000000000000000e+01
5.002824783325195312e+00 -1.236220836639404075e+00 -6.327456235885620117e-01 1.000000000000000000e+01
6.692085266113281250e+00 -1.654884219169616921e+00 -6.031177639961242676e-01 3.000000000000000000e+00
1.066472530364990057e+01 -2.641228199005126953e+00 -5.758001804351806641e-01 3.000000000000000000e+00
3.602760314941406250e+01 -8.929277420043945312e+00 8.569285392761230469e+00 1.100000000000000000e+01
1.818221473693848012e+01 -4.509747982025145596e+00 -3.269882798194885254e-01 3.000000000000000000e+00
3.912470245361328125e+01 -9.711377143859863281e+00 1.080155372619629084e+01 9.000000000000000000e+00
2.371098041534423828e+00 -5.916207432746887207e-01 -6.548121571540832520e-01 1.900000000000000000e+01
2.720583677291870117e+00 -6.798309087753295898e-01 -6.474091410636901855e-01 1.500000000000000000e+01
4.235377883911132812e+01 -1.058354187011718928e+01 2.287918567657471147e+00 3.100000000000000000e+01
3.192118406295775923e+00 -7.982519865036010742e-01 -6.395917534828186035e-01 1.100000000000000000e+01
3.876468658447266069e+00 -9.708250761032104492e-01 -6.329338550567626953e-01 1.000000000000000000e+01
4.990777015686035156e+00 -1.251744747161865012e+00 -6.317706704139709473e-01 9.000000000000000000e+00
3.719618606567382812e+01 -9.336134910583496094e+00 6.074037551879882812e+00 1.400000000000000000e+01
6.703660011291503906e+00 -1.682599186897278054e+00 -6.046865582466125488e-01 5.000000000000000000e+00
1.070580291748047053e+01 -2.691098451614379883e+00 -5.785216689109802246e-01 3.000000000000000000e+00
1.808103752136230113e+01 -4.551708698272705078e+00 -3.254524767398834229e-01 3.000000000000000000e+00
2.361631870269774947e+00 -5.975847244262695312e-01 -6.527416110038757324e-01 1.900000000000000000e+01
2.716425180435181108e+00 -6.883702874183654785e-01 -6.469592452049255371e-01 1.400000000000000000e+01
3.195162773132324219e+00 -8.102808594703674316e-01 -6.407365798950195312e-01 1.000000000000000000e+01
3.890459299087523970e+00 -9.880508184432983398e-01 -6.357496380805969238e-01 1.100000000000000000e+01
4.998141765594482422e+00 -1.271223664283751997e+00 -6.332331299781799316e-01 9.000000000000000000e+00
6.707697391510009766e+00 -1.707277297973633035e+00 -6.055580973625183105e-01 5.000000000000000000e+00
1.069682025909424006e+01 -2.726585149765015093e+00 -5.785216689109802246e-01 3.000000000000000000e+00
3.579981994628906250e+01 -9.131914138793945312e+00 8.529693603515625000e+00 1.100000000000000000e+01
3.655329895019531250e+01 -9.337704658508300781e+00 1.010895442962645951e+01 8.000000000000000000e+00
2.353918075561522993e+00 -6.043834090232849121e-01 -6.511887311935424805e-01 1.900000000000000000e+01
2.727217197418212891e+00 -7.012451887130737305e-01 -6.501085758209228516e-01 1.500000000000000000e+01
3.198019027709960938e+00 -8.228967785835266113e-01 -6.418814659118652344e-01 1.200000000000000000e+01
3.879335165023804155e+00 -9.996533393859863281e-01 -6.344981789588928223e-01 1.100000000000000000e+01
3.617404937744141336e+01 -9.328307151794433594e+00 4.586918354034423828e+00 1.900000000000000000e+01
5.005206584930419922e+00 -1.291638851165771040e+00 -6.346955299377441406e-01 1.000000000000000000e+01
6.692051887512207031e+00 -1.728190302848815918e+00 -6.046865582466125488e-01 5.000000000000000000e+00
1.068723773956299006e+01 -2.763907432556151900e+00 -5.785216689109802246e-01 3.000000000000000000e+00
3.565453338623046875e+01 -9.227528572082519531e+00 8.502699851989746094e+00 1.100000000000000000e+01
3.892164230346679688e+01 -1.008756732940674006e+01 1.077360153198242010e+01 9.000000000000000000e+00
2.359271764755249023e+00 -6.145442724227905273e-01 -6.532592773437500000e-01 1.900000000000000000e+01
2.722867250442504883e+00 -7.102687954902648926e-01 -6.496586203575134277e-01 1.400000000000000000e+01
3.193227291107178178e+00 -8.335590958595275879e-01 -6.414998173713684082e-01 1.200000000000000000e+01
3.875822067260742188e+00 -1.013188600540160911e+00 -6.344981789588928223e-01 1.100000000000000000e+01
3.593769836425781250e+01 -9.401268005371093750e+00 4.561081886291503906e+00 1.900000000000000000e+01
5.000667572021484375e+00 -1.309102416038512962e+00 -6.346955299377441406e-01 9.000000000000000000e+00
3.638506698608397727e+01 -9.525083541870117188e+00 5.957024574279785156e+00 1.300000000000000000e+01
6.664777755737304688e+00 -1.745985388755797896e+00 -6.027691364288330078e-01 3.000000000000000000e+00
1.067752456665039062e+01 -2.801196098327637163e+00 -5.785216689109802246e-01 3.000000000000000000e+00
2.589711189270019887e+01 -6.803642749786376953e+00 -4.673754572868347168e-01 4.000000000000000000e+00
3.631325912475585938e+01 -9.540154457092285156e+00 1.006029605865479049e+01 8.000000000000000000e+00
2.358980178833007812e+00 -6.232694387435913086e-01 -6.537768840789794922e-01 1.800000000000000000e+01
2.710951805114746094e+00 -7.172768115997314453e-01 -6.474091410636901855e-01 1.500000000000000000e+01
3.199787616729735884e+00 -8.472129702568054199e-01 -6.434079408645629883e-01 1.100000000000000000e+01
3.876080513000487837e+00 -1.027724146842956987e+00 -6.351239085197448730e-01 1.100000000000000000e+01
3.596606063842772727e+01 -9.542946815490722656e+00 4.568881511688232422e+00 1.900000000000000000e+01
4.999904632568359375e+00 -1.327568888664246050e+00 -6.351830363273620605e-01 9.000000000000000000e+00
3.601557159423828125e+01 -9.562812805175781250e+00 5.901959419250488281e+00 1.300000000000000000e+01
6.677897930145263672e+00 -1.774355530738831010e+00 -6.045122146606445312e-01 5.000000000000000000e+00
1.066768169403075994e+01 -2.838450670242310014e+00 -5.785216689109802246e-01 3.000000000000000000e+00
3.610631942749022727e+01 -9.627394676208496094e+00 1.001267337799072088e+01 8.000000000000000000e+00
2.366120100021361861e+00 -6.340000033378601074e-01 -6.563650965690612793e-01 1.900000000000000000e+01
4.229333496093750000e+01 -1.134037685394286932e+01 7.643106579780578613e-01 4.500000000000000000e+01
2.710313558578491211e+00 -7.272404432296752930e-01 -6.478590369224548340e-01 1.300000000000000000e+01
3.194914579391479048e+00 -8.578680157661437988e-01 -6.430262923240661621e-01 1.200000000000000000e+01
3.880100011825561968e+00 -1.043299674987792969e+00 -6.363754272460937500e-01 1.100000000000000000e+01
4.999073982238770419e+00 -1.346045970916748047e+00 -6.356704831123352051e-01 9.000000000000000000e+00
3.579122924804688211e+01 -9.637112617492675781e+00 5.870672702789306641e+00 1.300000000000000000e+01
6.708215713500976562e+00 -1.807503581047058105e+00 -6.078241467475891113e-01 5.000000000000000000e+00
1.069627475738525035e+01 -2.886076211929320845e+00 -5.806151032447814941e-01 3.000000000000000000e+00
3.611522293090820312e+01 -9.758160591125488281e+00 1.002406120300292969e+01 8.000000000000000000e+00
2.350842952728271040e+00 -6.387098431587219238e-01 -6.527416110038757324e-01 1.900000000000000000e+01
2.713399648666381836e+00 -7.382315397262573242e-01 -6.492087244987487793e-01 1.500000000000000000e+01
3.191900730133057085e+00 -8.690150976181030273e-01 -6.430262923240661621e-01 1.200000000000000000e+01
3.884057760238647017e+00 -1.058915734291077104e+00 -6.376268863677978516e-01 1.100000000000000000e+01
3.645394134521483664e+01 -9.945321083068847656e+00 4.639565944671630859e+00 1.900000000000000000e+01
5.003920078277587891e+00 -1.366101861000061035e+00 -6.368891596794128418e-01 1.000000000000000000e+01
6.705709457397460938e+00 -1.831958770751952903e+00 -6.081727743148803711e-01 5.000000000000000000e+00
1.072081184387207031e+01 -2.932882070541381836e+00 -5.824992060661315918e-01 3.000000000000000000e+00
3.561343765258789062e+01 -9.762779235839843750e+00 9.894652366638183594e+00 7.000000000000000000e+00
2.354412794113159180e+00 -6.476292014122009277e-01 -6.542945504188537598e-01 1.900000000000000000e+01
2.718582153320312944e+00 -7.488222718238830566e-01 -6.510083675384521484e-01 1.500000000000000000e+01
3.189154863357543945e+00 -8.790384531021118164e-01 -6.430262923240661621e-01 1.200000000000000000e+01
3.873095273971558061e+00 -1.069010257720947044e+00 -6.363754272460937500e-01 1.100000000000000000e+01
5.001516819000244141e+00 -1.382344126701354980e+00 -6.371329426765441895e-01 9.000000000000000000e+00
3.820171737670897727e+01 -1.055838108062743963e+01 6.277402400970458984e+00 1.400000000000000000e+01
6.674957275390625000e+00 -1.846112012863158958e+00 -6.059067249298095703e-01 5.000000000000000000e+00
3.612068939208983664e+01 -9.996788978576660156e+00 7.285087585449218750e+00 6.200000000000000000e+01
1.075389003753661932e+01 -2.978275537490845171e+00 -5.848019719123840332e-01 3.000000000000000000e+00
3.865397262573242188e+01 -1.071243000030517933e+01 9.260334968566894531e+00 1.200000000000000000e+01
3.565505218505858664e+01 -9.888021469116210938e+00 9.914321899414062500e+00 7.000000000000000000e+00
2.346554994583129883e+00 -6.542870998382568359e-01 -6.527416110038757324e-01 1.900000000000000000e+01
2.714074850082397017e+00 -7.577832937240600586e-01 -6.505584716796875000e-01 1.300000000000000000e+01
3.191739559173583984e+00 -8.917502164840698242e-01 -6.441711783409118652e-01 1.200000000000000000e+01
3.869340181350708008e+00 -1.082523465156554954e+00 -6.363754272460937500e-01 1.100000000000000000e+01
3.668156814575195312e+01 -1.026928806304931996e+01 4.677101612091063565e+00 2.000000000000000000e+01
5.004307270050048828e+00 -1.401936292648314986e+00 -6.381078958511352539e-01 9.000000000000000000e+00
6.691493511199951172e+00 -1.875854372978210005e+00 -6.079984903335571289e-01 5.000000000000000000e+00
1.072419929504395064e+01 -3.010397672653197798e+00 -5.837552547454833984e-01 3.000000000000000000e+00
3.819233703613281250e+01 -1.072819042205811080e+01 9.158657073974609375e+00 1.200000000000000000e+01
3.550699234008789062e+01 -9.987252235412597656e+00 9.883263587951660156e+00 7.000000000000000000e+00
2.351693153381348100e+00 -6.645755171775817871e-01 -6.548121571540832520e-01 1.800000000000000000e+01
2.696412324905395952e+00 -7.630077600479125977e-01 -6.469592452049255371e-01 1.400000000000000000e+01
3.205608129501343218e+00 -9.077000021934509277e-01 -6.476057171821594238e-01 1.200000000000000000e+01
3.865537881851195845e+00 -1.096023321151732954e+00 -6.363754272460937500e-01 1.200000000000000000e+01
3.692431640625000000e+01 -1.047637557983398082e+01 4.712687492370604581e+00 2.000000000000000000e+01
