-4.483502960205078125e+01 1.573508501052856001e+00 3.924971818923950195e+00 5.400000000000000000e+01
-4.368792057037354404e+00 1.540884524583817083e-01 -6.923789381980895996e-01 1.000000000000000000e+01
-5.741216182708740234e+00 2.045007944107055942e-01 -7.053797841072082520e-01 1.100000000000000000e+01
-8.366662025451660156e+00 2.994807064533234198e-01 -7.324568629264831543e-01 2.000000000000000000e+00
-3.446580505371093750e+01 1.257780194282531960e+00 -6.020033359527587891e-01 2.000000000000000000e+01
-2.538563251495360884e+00 9.619063884019851685e-02 -6.806941032409667969e-01 1.500000000000000000e+01
-4.473477935791016336e+01 1.702898740768433061e+00 7.814140319824218750e-01 4.800000000000000000e+01
-2.957974195480347124e+00 1.131168827414513051e-01 -6.834012866020202637e-01 1.300000000000000000e+01
-4.501726913452147727e+01 1.721520543098449929e+00 2.360979557037353960e+00 3.500000000000000000e+01
-3.499864101409912109e+00 1.344512253999710083e-01 -6.808065176010131836e-01 1.200000000000000000e+01
-4.480139160156250000e+01 1.728926777839661089e+00 3.922531366348267046e+00 5.400000000000000000e+01
-4.366253852844238281e+00 1.692609339952468872e-01 -6.920660734176635742e-01 1.000000000000000000e+01
-5.728565692901611328e+00 2.240746021270751953e-01 -7.039173245429992676e-01 1.100000000000000000e+01
-8.345657348632812500e+00 3.279017508029937744e-01 -7.307137250900268555e-01 2.000000000000000000e+00
-3.447119522094727273e+01 1.378480076789855957e+00 -6.021778583526611328e-01 1.300000000000000000e+01
-2.538193464279174805e+00 1.054942905902862965e-01 -6.806941032409667969e-01 1.800000000000000000e+01
-4.473622894287108664e+01 1.867182016372681108e+00 7.815536856651306152e-01 4.800000000000000000e+01
-2.949751615524291992e+00 1.236312240362166942e-01 -6.816017031669616699e-01 1.300000000000000000e+01
-4.501033020019531250e+01 1.894361376762389915e+00 2.360979557037353960e+00 3.500000000000000000e+01
-3.499347925186156782e+00 1.472779661417006891e-01 -6.808065176010131836e-01 1.200000000000000000e+01
-4.485049057006835938e+01 1.895475983619689941e+00 3.927412033081055132e+00 5.400000000000000000e+01
-4.349815368652343750e+00 1.845928877592087070e-01 -6.895630955696105957e-01 1.000000000000000000e+01
-5.735639095306395596e+00 2.454087734222412109e-01 -7.048922777175903320e-01 1.100000000000000000e+01
-8.342409133911132812e+00 3.584024012088776190e-01 -7.305394411087036133e-01 3.000000000000000000e+00
-3.441596603393554688e+01 1.502633452415466087e+00 -6.013051867485046387e-01 2.000000000000000000e+01
-2.547459363937377930e+00 1.147883981466293057e-01 -6.832822561264038086e-01 1.900000000000000000e+01
-4.476140213012695312e+01 2.024775028228760210e+00 7.821121215820312500e-01 4.800000000000000000e+01
-2.933728218078612837e+00 1.332198232412337979e-01 -6.780024766921997070e-01 1.400000000000000000e+01
-4.500344085693358664e+01 2.051465272903441939e+00 2.360979557037353960e+00 3.500000000000000000e+01
-3.508618593215941939e+00 1.599390804767608920e-01 -6.827145814895629883e-01 1.100000000000000000e+01
-4.481971740722656250e+01 2.050929069519042969e+00 3.925320386886597124e+00 5.400000000000000000e+01
-4.353090763092041016e+00 1.999567300081253052e-01 -6.901888847351074219e-01 1.000000000000000000e+01
-5.738713741302490234e+00 2.656119465827941895e-01 -7.053797841072082520e-01 1.100000000000000000e+01
-8.315234184265136719e+00 3.863186240196228027e-01 -7.282733917236328125e-01 2.000000000000000000e+00
-3.439253234863281250e+01 1.621910691261291948e+00 -6.009910702705383301e-01 1.300000000000000000e+01
-2.562501430511475053e+00 1.239823326468467990e-01 -6.874234080314636230e-01 2.300000000000000000e+01
-4.475444412231445312e+01 2.173197984695435014e+00 7.821121215820312500e-01 4.800000000000000000e+01
-2.931323766708374023e+00 1.428528279066086093e-01 -6.775525808334350586e-01 1.300000000000000000e+01
-3.494342565536499023e+00 1.709018647670746127e-01 -6.800432801246643066e-01 1.200000000000000000e+01
-4.484450912475585938e+01 2.201107978820800781e+00 3.928109407424927202e+00 5.400000000000000000e+01
-4.344511985778808594e+00 2.140022516250610074e-01 -6.889373660087585449e-01 1.000000000000000000e+01
-5.714009284973145419e+00 2.834604978561400812e-01 -7.024549245834350586e-01 1.100000000000000000e+01
-8.339776039123535156e+00 4.151786267757415771e-01 -7.305394411087036133e-01 3.000000000000000000e+00
-3.435501098632813211e+01 1.734338402748107910e+00 -6.004325747489929199e-01 1.900000000000000000e+01
-2.554336071014403853e+00 1.325259953737258911e-01 -6.853528022766113281e-01 2.000000000000000000e+01
-4.475457000732421875e+01 2.329822778701781782e+00 7.822517752647399902e-01 4.800000000000000000e+01
-2.944429874420166016e+00 1.537957340478897095e-01 -6.807019114494323730e-01 1.200000000000000000e+01
-3.491764068603516069e+00 1.829956024885177890e-01 -6.796616315841674805e-01 1.100000000000000000e+01
-4.484053039550781250e+01 2.357840299606322798e+00 3.928457975387572798e+00 5.400000000000000000e+01
-4.351629257202148438e+00 2.295824140310286920e-01 -6.901888847351074219e-01 1.000000000000000000e+01
-5.693161964416503906e+00 3.023516237735747736e-01 -7.000175118446350098e-01 1.000000000000000000e+01
-8.304452896118164062e+00 4.424851834774016779e-01 -7.275761365890502930e-01 2.000000000000000000e+00
-3.433277511596679688e+01 1.853386759757996050e+00 -6.001533269882202148e-01 1.300000000000000000e+01
-2.549999952316284180e+00 1.412278264760971069e-01 -6.843175292015075684e-01 2.900000000000000000e+01
-4.474616622924804688e+01 2.486031293869018999e+00 7.822517752647399902e-01 4.800000000000000000e+01
-2.941929340362548828e+00 1.639643311500549039e-01 -6.802520155906677246e-01 1.300000000000000000e+01
-3.491104125976562944e+00 1.951830238103867132e-01 -6.796616315841674805e-01 1.200000000000000000e+01
-4.484794235229492188e+01 2.515241146087646040e+00 3.929852485656737837e+00 5.400000000000000000e+01
-4.331078529357910156e+00 2.436614781618118009e-01 -6.870601773262023926e-01 1.000000000000000000e+01
-5.711891174316406250e+00 3.233445584774016779e-01 -7.024549245834350586e-01 1.100000000000000000e+01
-8.276998519897460938e+00 4.700020551681519110e-01 -7.253100872039794922e-01 3.000000000000000000e+00
-1.580250644683838068e+01 9.028653502464294434e-01 -8.295249342918395996e-01 4.000000000000000000e+00
-3.433008575439453125e+01 1.973448753356934038e+00 -6.002231836318969727e-01 1.900000000000000000e+01
-2.539849042892456055e+00 1.495603173971175870e-01 -6.817293763160705566e-01 2.400000000000000000e+01
-4.475717926025391336e+01 2.643388271331787109e+00 7.826008200645446777e-01 4.800000000000000000e+01
-2.935503244400023970e+00 1.738868802785873136e-01 -6.789022684097290039e-01 1.200000000000000000e+01
-3.494321107864379883e+00 2.076009213924407959e-01 -6.804248690605163574e-01 1.100000000000000000e+01
-4.482695770263671875e+01 2.671063423156737837e+00 3.928806543350220171e+00 5.400000000000000000e+01
-4.326257705688476562e+00 2.585425972938538153e-01 -6.864344477653503418e-01 1.000000000000000000e+01
-5.716672420501708984e+00 3.436381518840789795e-01 -7.031860947608947754e-01 9.000000000000000000e+00
-8.277296066284179688e+00 4.990111887454987127e-01 -7.254844307899475098e-01 2.000000000000000000e+00
-1.579925918579101918e+01 9.580209255218505859e-01 -8.295249342918395996e-01 4.000000000000000000e+00
-3.434294891357421875e+01 2.094488382339477983e+00 -6.005722284317016602e-01 1.300000000000000000e+01
-2.545095682144165039e+00 1.587860137224197110e-01 -6.832822561264038086e-01 1.900000000000000000e+01
-4.476763534545897727e+01 2.800852537155150923e+00 7.829498648643493652e-01 4.800000000000000000e+01
-2.917374134063721147e+00 1.830344349145889005e-01 -6.748531460762023926e-01 1.200000000000000000e+01
-3.497493982315063032e+00 2.200436592102051059e-01 -6.811881065368652344e-01 1.100000000000000000e+01
-4.486508178710938211e+01 2.830533266067504883e+00 3.932990074157714844e+00 5.400000000000000000e+01
-4.329271793365479404e+00 2.738919258117675781e-01 -6.870601773262023926e-01 1.000000000000000000e+01
-5.697607994079589844e+00 3.624567091464995783e-01 -7.009924650192260742e-01 1.100000000000000000e+01
-8.271527290344238281e+00 5.276476144790649414e-01 -7.251358032226562500e-01 2.000000000000000000e+00
-3.431747055053710938e+01 2.213196754455565962e+00 -6.002580523490905762e-01 1.900000000000000000e+01
-2.540670633316040039e+00 1.674150377511977872e-01 -6.822469830513000488e-01 1.500000000000000000e+01
-4.472965240478516336e+01 2.955258131027222124e+00 7.824611663818359375e-01 4.800000000000000000e+01
-2.924495220184326172e+00 1.937320977449417114e-01 -6.766527891159057617e-01 1.300000000000000000e+01
-3.488868713378905806e+00 2.317304015159606934e-01 -6.796616315841674805e-01 1.100000000000000000e+01
-4.483504867553710938e+01 2.985800504684447798e+00 3.931246995925902876e+00 5.400000000000000000e+01
-4.320405483245849609e+00 2.884758114814757746e-01 -6.858087182044982910e-01 1.000000000000000000e+01
-5.680463314056395596e+00 3.812793493270874023e-01 -6.990425586700439453e-01 1.000000000000000000e+01
-8.229877471923828125e+00 5.538418889045715332e-01 -7.216495275497436523e-01 3.000000000000000000e+00
-3.431751632690429688e+01 2.333516120910644975e+00 -6.003977060317993164e-01 1.900000000000000000e+01
-2.524622440338135210e+00 1.756532490253447931e-01 -6.781058907508850098e-01 1.300000000000000000e+01
-4.477038574218750000e+01 3.122798442840576172e+00 7.833687067031860352e-01 4.800000000000000000e+01
-2.927653551101685014e+00 2.047214806079865057e-01 -6.775525808334350586e-01 1.200000000000000000e+01
-3.484079122543334961e+00 2.442416101694107056e-01 -6.788983941078186035e-01 1.100000000000000000e+01
-4.484367752075195312e+01 3.151505708694458008e+00 3.932990074157714844e+00 5.400000000000000000e+01
-4.321289539337158203e+00 3.044477701187133789e-01 -6.861215829849243164e-01 1.000000000000000000e+01
-5.667146682739257812e+00 4.012555181980133057e-01 -6.975800991058349609e-01 1.000000000000000000e+01
-8.247666358947753906e+00 5.854128003120422363e-01 -7.233926653861999512e-01 2.000000000000000000e+00
-3.432069778442382812e+01 2.460138320922852007e+00 -6.006070971488952637e-01 1.900000000000000000e+01
-2.523993968963623047e+00 1.844647526741028110e-01 -6.781058907508850098e-01 1.400000000000000000e+01
-4.474724578857421875e+01 3.278180599212646040e+00 7.831593155860900879e-01 4.800000000000000000e+01
-2.928864717483520952e+00 2.150823771953583041e-01 -6.780024766921997070e-01 1.200000000000000000e+01
-3.471457481384276900e+00 2.555370628833770752e-01 -6.766086816787719727e-01 1.100000000000000000e+01
-4.491188430786132812e+01 3.313884735107421875e+00 3.939962625503540039e+00 5.400000000000000000e+01
-4.318230628967285156e+00 3.193843364715576172e-01 -6.858087182044982910e-01 1.000000000000000000e+01
-4.496796035766602273e+01 3.333805084228516069e+00 5.536524295806884766e+00 3.800000000000000000e+01
-5.679568767547607422e+00 4.220648705959320068e-01 -6.992862820625305176e-01 1.000000000000000000e+01
-8.180005073547363281e+00 6.093149781227111816e-01 -7.176403999328613281e-01 2.000000000000000000e+00
-1.558496761322020951e+01 1.166368842124938965e+00 -8.190577030181884766e-01 4.000000000000000000e+00
-3.432586288452147727e+01 2.580974340438843218e+00 -6.008514761924743652e-01 2.000000000000000000e+01
-2.519482135772705078e+00 1.929789334535599032e-01 -6.770706176757812500e-01 1.300000000000000000e+01
-4.475148010253906250e+01 3.435582160949707031e+00 7.834385037422180176e-01 4.800000000000000000e+01
-2.928096055984497070e+00 2.253047078847885132e-01 -6.780024766921997070e-01 1.400000000000000000e+01
-4.491679763793945312e+01 3.464045286178588867e+00 2.360979557037353960e+00 3.500000000000000000e+01
-3.474459171295166016e+00 2.679550647735596258e-01 -6.773719191551208496e-01 1.200000000000000000e+01
-4.486031341552733664e+01 3.467565298080443892e+00 3.936476230621337891e+00 5.400000000000000000e+01
-4.301333904266357422e+00 3.332351744174957275e-01 -6.833057403564453125e-01 1.000000000000000000e+01
-4.488084411621093750e+01 3.484912633895874023e+00 5.527262210845947266e+00 3.800000000000000000e+01
-5.674102783203125000e+00 4.415796697139739990e-01 -6.987988352775573730e-01 1.000000000000000000e+01
-8.195705413818359375e+00 6.392592191696166992e-01 -7.192091941833496094e-01 3.000000000000000000e+00
-3.433657836914063211e+01 2.702347278594971147e+00 -6.012005209922790527e-01 2.000000000000000000e+01
-2.530347347259521040e+00 2.026979625225067139e-01 -6.801764369010925293e-01 1.300000000000000000e+01
-4.469536590576171875e+01 3.588252305984497070e+00 7.826706171035766602e-01 4.800000000000000000e+01
-2.917579412460327148e+00 2.347428649663924893e-01 -6.757529377937316895e-01 1.500000000000000000e+01
-3.481330394744873047e+00 2.807127535343170166e-01 -6.788983941078186035e-01 1.100000000000000000e+01
-4.488765335083007812e+01 3.627345561981201172e+00 3.939962625503540039e+00 5.400000000000000000e+01
-4.308020114898681641e+00 3.488854169845581055e-01 -6.845571994781494141e-01 1.000000000000000000e+01
-4.488423538208007812e+01 3.642839431762694868e+00 5.529211997985839844e+00 3.800000000000000000e+01
-5.656698226928710938e+00 4.600958526134490967e-01 -6.968489289283752441e-01 1.000000000000000000e+01
-8.193424224853515625e+00 6.678636670112609863e-01 -7.192091941833496094e-01 2.000000000000000000e+00
-3.433092117309570312e+01 2.822515487670897993e+00 -6.012703180313110352e-01 1.300000000000000000e+01
-2.531623125076293945e+00 2.108065783977509100e-01 -6.806941032409667969e-01 1.400000000000000000e+01
-4.469184112548828125e+01 3.729314327239989790e+00 7.828102111816406250e-01 4.800000000000000000e+01
-2.912943601608275923e+00 2.435827553272247037e-01 -6.748531460762023926e-01 1.500000000000000000e+01
-3.480431318283081055e+00 2.916482686996459961e-01 -6.788983941078186035e-01 1.100000000000000000e+01
-4.484823989868164062e+01 3.766011953353881836e+00 3.937522172927856001e+00 5.400000000000000000e+01
-4.299028873443604404e+00 3.617551624774932861e-01 -6.833057403564453125e-01 1.000000000000000000e+01
-4.487256622314453125e+01 3.783829212188721147e+00 5.529211997985839844e+00 3.800000000000000000e+01
-5.639400959014892578e+00 4.765274524688721258e-01 -6.948990225791931152e-01 1.000000000000000000e+01
-8.193270683288574219e+00 6.937688589096069336e-01 -7.193834781646728516e-01 3.000000000000000000e+00
-3.430395126342772727e+01 2.928824186325072798e+00 -6.009561419486999512e-01 2.000000000000000000e+01
-2.519324302673339844e+00 2.186401337385177890e-01 -6.775882840156555176e-01 1.300000000000000000e+01
-4.474230194091796875e+01 3.890838861465454102e+00 7.839272022247314453e-01 4.800000000000000000e+01
-2.915958404541016069e+00 2.540876865386962891e-01 -6.757529377937316895e-01 1.500000000000000000e+01
-3.467657089233397993e+00 3.027708530426024836e-01 -6.766086816787719727e-01 1.100000000000000000e+01
-4.489436721801757812e+01 3.927748203277587891e+00 3.942751407623291016e+00 5.400000000000000000e+01
-4.305611610412597656e+00 3.774494230747222900e-01 -6.845571994781494141e-01 1.000000000000000000e+01
-4.488677215576171875e+01 3.942872524261475053e+00 5.532624244689941406e+00 3.800000000000000000e+01
-5.637702941894531250e+00 4.962097406387329102e-01 -6.948990225791931152e-01 1.000000000000000000e+01
-8.168968200683593750e+00 7.204390764236450195e-01 -7.174660563468933105e-01 2.000000000000000000e+00
-1.536869812011718928e+01 1.360805630683898926e+00 -8.085905313491821289e-01 4.000000000000000000e+00
-3.426165008544921875e+01 3.045716524124145952e+00 -6.003977060317993164e-01 1.900000000000000000e+01
-2.506962060928345171e+00 2.268279641866683960e-01 -6.744824051856994629e-01 1.400000000000000000e+01
-4.472774124145507812e+01 4.054801464080811435e+00 7.839272022247314453e-01 4.800000000000000000e+01
-2.928592681884766069e+00 2.660074532032012939e-01 -6.789022684097290039e-01 1.400000000000000000e+01
-3.466524124145507812e+00 3.154784142971038818e-01 -6.766086816787719727e-01 1.100000000000000000e+01
-4.484792327880858664e+01 4.089373111724854404e+00 3.939962625503540039e+00 5.400000000000000000e+01
-4.288461685180664062e+00 3.917899727821350098e-01 -6.820542812347412109e-01 1.000000000000000000e+01
-4.485224914550781250e+01 4.105554580688476562e+00 5.530187129974365234e+00 3.800000000000000000e+01
-5.639800071716308594e+00 5.172321796417236328e-01 -6.953864693641662598e-01 1.000000000000000000e+01
-8.144448280334472656e+00 7.483696341514587402e-01 -7.155486345291137695e-01 2.000000000000000000e+00
-1.536360740661620916e+01 1.417125582695007102e+00 -8.085905313491821289e-01 4.000000000000000000e+00
-3.428808975219727273e+01 3.174774169921875000e+00 -6.010608673095703125e-01 2.000000000000000000e+01
-2.515771865844727007e+00 2.364814877510071078e-01 -6.770706176757812500e-01 1.400000000000000000e+01
-4.475711441040039062e+01 4.215030670166015625e+00 7.846950888633728027e-01 4.900000000000000000e+01
-2.917945861816405806e+00 2.753132581710814875e-01 -6.766527891159057617e-01 1.500000000000000000e+01
-3.473220109939575195e+00 3.283159434795380194e-01 -6.781351566314697266e-01 1.100000000000000000e+01
-4.483337402343750000e+01 4.245896816253662109e+00 3.939962625503540039e+00 5.400000000000000000e+01
-4.283134937286376953e+00 4.063839316368103027e-01 -6.814285516738891602e-01 1.000000000000000000e+01
-4.486531066894531250e+01 4.264723300933837891e+00 5.533599376678466797e+00 3.800000000000000000e+01
-5.641912460327148438e+00 5.372920036315917969e-01 -6.958739757537841797e-01 1.000000000000000000e+01
-8.135835647583007812e+00 7.762268185615539551e-01 -7.150257229804992676e-01 2.000000000000000000e+00
-1.523132514953612926e+01 1.458561182022094949e+00 -8.018915057182312012e-01 4.000000000000000000e+00
-3.432656097412108664e+01 3.299225568771361861e+00 -6.019334793090820312e-01 2.000000000000000000e+01
-2.522578954696654829e+00 2.464520484209060947e-01 -6.791411638259887695e-01 1.600000000000000000e+01
-4.476126480102539062e+01 4.380993366241455078e+00 7.850441336631774902e-01 4.900000000000000000e+01
-2.907219886779785156e+00 2.850553989410399836e-01 -6.744032502174377441e-01 1.400000000000000000e+01
-3.475901126861571822e+00 3.414275944232941229e-01 -6.788983941078186035e-01 1.100000000000000000e+01
-4.485320281982421875e+01 4.413702487945556641e+00 3.943100214004517046e+00 5.400000000000000000e+01
-4.281616687774658203e+00 4.220796823501586914e-01 -6.814285516738891602e-01 1.000000000000000000e+01
-4.485333251953125000e+01 4.429524421691895419e+00 5.534086704254150391e+00 3.800000000000000000e+01
-5.632003307342529297e+00 5.571852922439575195e-01 -6.948990225791931152e-01 1.000000000000000000e+01
-8.136901855468750000e+00 8.064339160919189453e-01 -7.153743505477905273e-01 2.000000000000000000e+00
-3.426051330566406250e+01 3.419653892517089844e+00 -6.009910702705383301e-01 2.000000000000000000e+01
-2.521703243255614790e+00 2.552559971809387207e-01 -6.791411638259887695e-01 1.400000000000000000e+01
-4.477355194091796875e+01 4.540036678314208984e+00 7.855328321456909180e-01 4.900000000000000000e+01
-2.902329683303833008e+00 2.948078811168671209e-01 -6.735034584999084473e-01 1.400000000000000000e+01
-3.464922189712523970e+00 3.525649607181549072e-01 -6.769903302192687988e-01 1.000000000000000000e+01
-4.486923599243164062e+01 4.573475360870361328e+00 3.945888996124268022e+00 5.400000000000000000e+01
-4.287977695465087891e+00 4.378253519535065252e-01 -6.826800107955932617e-01 1.000000000000000000e+01
-4.484154510498046875e+01 4.586468696594238281e+00 5.534574508666992188e+00 7.600000000000000000e+01
-5.614226341247558594e+00 5.752226114273071289e-01 -6.929491162300109863e-01 1.000000000000000000e+01
-8.114217758178710938e+00 8.327978849411010742e-01 -7.136312127113342285e-01 2.000000000000000000e+00
-3.428019332885742188e+01 3.542513608932495117e+00 -6.015495657920837402e-01 1.300000000000000000e+01
-2.513203382492064986e+00 2.623745203018187921e-01 -6.770706176757812500e-01 1.500000000000000000e+01
-4.476702499389647727e+01 4.681506156921386719e+00 7.856724262237548828e-01 4.900000000000000000e+01
-2.901389122009276900e+00 3.039243519306182861e-01 -6.735034584999084473e-01 1.400000000000000000e+01
-3.452082395553588867e+00 3.622193336486815851e-01 -6.747006177902221680e-01 1.000000000000000000e+01
-4.485068511962891336e+01 4.713996887207031250e+00 3.945540428161621094e+00 5.400000000000000000e+01
-4.284616470336914062e+00 4.510874450206757147e-01 -6.823671460151672363e-01 1.000000000000000000e+01
-4.488021850585938211e+01 4.732940673828125000e+00 5.541155338287354404e+00 7.600000000000000000e+01
-5.612391471862792969e+00 5.928573608398437500e-01 -6.929491162300109863e-01 1.000000000000000000e+01
-8.091747283935546875e+00 8.561888933181762695e-01 -7.118881344795227051e-01 2.000000000000000000e+00
-1.501688861846924006e+01 1.594239711761475053e+00 -7.914243340492248535e-01 4.000000000000000000e+00
-3.424105834960938211e+01 3.647225141525268999e+00 -6.010608673095703125e-01 1.300000000000000000e+01
-2.504589319229125977e+00 2.703164517879486084e-01 -6.750000715255737305e-01 1.500000000000000000e+01
-4.477426910400391336e+01 4.840322971343994141e+00 7.860912680625915527e-01 4.900000000000000000e+01
-2.915809869766234907e+00 3.157285451889038086e-01 -6.771026849746704102e-01 1.300000000000000000e+01
-4.498693466186522727e+01 4.871257305145263672e+00 2.371446847915648970e+00 3.500000000000000000e+01
-3.454700469970703125e+00 3.746905028820037842e-01 -6.754638552665710449e-01 1.200000000000000000e+01
-4.482207107543945312e+01 4.869235038757324219e+00 3.944494724273682085e+00 5.400000000000000000e+01
-4.281052112579345703e+00 4.658271074295043945e-01 -6.820542812347412109e-01 1.000000000000000000e+01
-4.487131500244141336e+01 4.890433311462402344e+00 5.542130470275878906e+00 7.600000000000000000e+01
-5.602394104003906250e+00 6.115829944610595703e-01 -6.919741034507751465e-01 1.000000000000000000e+01
-8.088709831237792969e+00 8.844291567802429199e-01 -7.118881344795227051e-01 2.000000000000000000e+00
-3.420029067993164062e+01 3.763664007186890093e+00 -6.005722284317016602e-01 1.300000000000000000e+01
-2.507421731948852983e+00 2.799230813980103094e-01 -6.760353446006774902e-01 1.300000000000000000e+01
-4.477610015869141336e+01 5.006618499755859375e+00 7.864403128623962402e-01 4.900000000000000000e+01
-2.906886577606201172e+00 3.255458474159240723e-01 -6.753030419349670410e-01 1.400000000000000000e+01
-3.461107969284058061e+00 3.882254660129547119e-01 -6.769903302192687988e-01 1.200000000000000000e+01
-4.490291976928710938e+01 5.044605255126953125e+00 3.953210115432738814e+00 5.400000000000000000e+01
-4.265574932098388672e+00 4.799686670303344727e-01 -6.798641681671142578e-01 9.000000000000000000e+00
-4.486492538452147727e+01 5.056195735931395596e+00 5.543592929840087891e+00 7.600000000000000000e+01
-5.588279724121093750e+00 6.307767629623413086e-01 -6.905117034912109375e-01 1.000000000000000000e+01
-8.069575309753417969e+00 9.122792482376098633e-01 -7.104936242103576660e-01 2.000000000000000000e+00
-1.493365192413330078e+01 1.693554520606995073e+00 -7.876561284065246582e-01 4.000000000000000000e+00
-3.419421386718750000e+01 3.889893293380736861e+00 -6.007118225097656250e-01 1.300000000000000000e+01
-2.506429195404053178e+00 2.886739075183867853e-01 -6.760353446006774902e-01 1.500000000000000000e+01
-4.478616333007813211e+01 5.166093826293945312e+00 7.869290113449096680e-01 4.900000000000000000e+01
-2.892181396484375000e+00 3.341252803802490234e-01 -6.721537709236145020e-01 1.300000000000000000e+01
-3.451930761337279829e+00 3.994020223617554266e-01 -6.754638552665710449e-01 1.100000000000000000e+01
-4.493253707885742188e+01 5.206819057464599609e+00 3.957393646240233931e+00 5.400000000000000000e+01
-4.263873577117919922e+00 4.948553740978240967e-01 -6.798641681671142578e-01 1.000000000000000000e+01
-4.484897613525391336e+01 5.213002204895020419e+00 5.543836593627929688e+00 7.600000000000000000e+01
-5.589987277984619141e+00 6.507387161254882812e-01 -6.909991502761840820e-01 1.000000000000000000e+01
-8.072278976440429688e+00 9.411339759826660156e-01 -7.110165357589721680e-01 3.000000000000000000e+00
-1.492764949798583984e+01 1.745672345161437988e+00 -7.876561284065246582e-01 4.000000000000000000e+00
-3.415262222290039062e+01 4.005968093872070312e+00 -6.002231836318969727e-01 1.900000000000000000e+01
-2.505458116531372070e+00 2.969839274883270264e-01 -6.760353446006774902e-01 1.600000000000000000e+01
-4.477672576904296875e+01 5.315524578094482422e+00 7.870686054229736328e-01 4.900000000000000000e+01
-2.900733232498168945e+00 3.448645770549774170e-01 -6.744032502174377441e-01 1.300000000000000000e+01
-3.448637962341309038e+00 4.106147289276123047e-01 -6.750822067260742188e-01 1.100000000000000000e+01
-4.487545776367188211e+01 5.351074218750000000e+00 3.953907489776610884e+00 5.400000000000000000e+01
-4.256324768066406250e+00 5.082894563674926758e-01 -6.789255738258361816e-01 1.000000000000000000e+01
-4.487283325195313211e+01 5.366648197174072266e+00 5.548954963684082031e+00 7.700000000000000000e+01
-5.568088531494140625e+00 6.669114828109741211e-01 -6.885617971420288086e-01 1.000000000000000000e+01
-8.047353744506835938e+00 9.652872681617736816e-01 -7.090991139411926270e-01 1.000000000000000000e+00
-3.415701675415039062e+01 4.121356010437011719e+00 -6.005373001098632812e-01 1.900000000000000000e+01
-2.498653411865233931e+00 3.050255179405211847e-01 -6.744824051856994629e-01 1.500000000000000000e+01
-4.481347656250000000e+01 5.478586673736572266e+00 7.880459427833557129e-01 4.900000000000000000e+01
-2.899511575698852983e+00 3.549879193305969238e-01 -6.744032502174377441e-01 1.300000000000000000e+01
-3.437440395355225053e+00 4.214556217193604071e-01 -6.731741428375244141e-01 1.100000000000000000e+01
-4.489605331420897727e+01 5.512542247772216797e+00 3.957393646240233931e+00 5.400000000000000000e+01
-4.254524707794188565e+00 5.231437087059020996e-01 -6.789255738258361816e-01 1.000000000000000000e+01
-4.485579681396483664e+01 5.523493766784667969e+00 5.549198627471923828e+00 7.700000000000000000e+01
-5.565726757049561435e+00 6.863436698913574219e-01 -6.885617971420288086e-01 1.000000000000000000e+01
-8.047889709472656250e+00 9.938602447509765625e-01 -7.094477415084838867e-01 3.000000000000000000e+00
-1.481631565093993963e+01 1.834966421127318892e+00 -7.824225425720214844e-01 4.000000000000000000e+00
-3.413448715209960938e+01 4.239575386047363281e+00 -6.003977060317993164e-01 1.900000000000000000e+01
-2.495656728744506836e+00 3.135048151016234796e-01 -6.739647984504699707e-01 1.500000000000000000e+01
-4.479408264160156250e+01 5.634981632232666016e+00 7.880459427833557129e-01 4.900000000000000000e+01
-2.900188207626343218e+00 3.653505146503447931e-01 -6.748531460762023926e-01 1.300000000000000000e+01
-3.439843893051147017e+00 4.339433908462523859e-01 -6.739373803138732910e-01 1.100000000000000000e+01
-4.487653732299804688e+01 5.669225215911865234e+00 3.957393646240233931e+00 5.400000000000000000e+01
-4.256592273712158203e+00 5.384874343872070312e-01 -6.795513033866882324e-01 1.000000000000000000e+01
-4.487169265747070312e+01 5.684526920318604404e+00 5.553586006164550781e+00 7.700000000000000000e+01
-5.559358596801757812e+00 7.052678465843200684e-01 -6.880742907524108887e-01 1.000000000000000000e+01
-8.018676757812500000e+00 1.018682360649109109e+00 -7.071816921234130859e-01 2.000000000000000000e+00
-1.471075820922851918e+01 1.874053955078125000e+00 -7.771889567375183105e-01 4.000000000000000000e+00
-3.411948013305664062e+01 4.358701229095458984e+00 -6.003977060317993164e-01 1.900000000000000000e+01
-2.498378992080688032e+00 3.227093219757080078e-01 -6.750000715255737305e-01 1.500000000000000000e+01
-4.480587005615233664e+01 5.795412063598632812e+00 7.886044383049011230e-01 4.900000000000000000e+01
-2.896962642669678178e+00 3.752215206623076837e-01 -6.744032502174377441e-01 1.200000000000000000e+01
-3.430520296096802202e+00 4.449379742145537775e-01 -6.724109053611755371e-01 1.100000000000000000e+01
-4.485647583007813211e+01 5.825839042663574219e+00 3.957393646240233931e+00 5.400000000000000000e+01
-4.244892120361328125e+00 5.520686507225036621e-01 -6.779869794845581055e-01 1.000000000000000000e+01
-4.487322998046875000e+01 5.843943595886229581e+00 5.556267261505126953e+00 7.700000000000000000e+01
-5.556862831115722656e+00 7.246693372726440430e-01 -6.880742907524108887e-01 1.200000000000000000e+01
-7.997291564941406250e+00 1.044344663619994895e+00 -7.056128978729248047e-01 2.000000000000000000e+00
-1.470412635803223012e+01 1.925392627716064009e+00 -7.771889567375183105e-01 4.000000000000000000e+00
-3.404259490966796875e+01 4.469704151153563565e+00 -5.993156433105468750e-01 1.900000000000000000e+01
-2.497237205505371094e+00 3.314283192157744806e-01 -6.750000715255737305e-01 1.500000000000000000e+01
-4.479726028442382812e+01 5.953359127044677734e+00 7.888138890266418457e-01 4.900000000000000000e+01
-2.880181550979613814e+00 3.832750618457794189e-01 -6.708040237426757812e-01 1.300000000000000000e+01
-3.438676595687866211e+00 4.582065939903259277e-01 -6.743189692497253418e-01 1.200000000000000000e+01
-4.483586883544921875e+01 5.982381820678710938e+00 3.957393646240233931e+00 5.400000000000000000e+01
-4.235107421875000000e+00 5.658363103866577148e-01 -6.767355203628540039e-01 9.000000000000000000e+00
-4.487616729736328125e+01 6.003703594207763672e+00 5.559192180633544922e+00 7.700000000000000000e+01
-5.546429157257080078e+00 7.430076599121093750e-01 -6.870993375778198242e-01 1.200000000000000000e+01
-8.009394645690917969e+00 1.074373126029968040e+00 -7.070074081420898438e-01 1.000000000000000000e+00
-3.398318481445313211e+01 4.582628250122070312e+00 -5.985477566719055176e-01 1.900000000000000000e+01
-2.505635976791381836e+00 3.414475321769713800e-01 -6.775882840156555176e-01 1.500000000000000000e+01
-4.478809356689453125e+01 6.111316204071044922e+00 7.890232801437377930e-01 4.900000000000000000e+01
-2.876895427703856978e+00 3.930626213550568182e-01 -6.703541278839111328e-01 1.200000000000000000e+01
-3.427330493927001953e+00 4.688764810562133789e-01 -6.724109053611755371e-01 1.200000000000000000e+01
-4.489761734008789062e+01 6.150208473205566406e+00 3.964714765548706055e+00 5.400000000000000000e+01
-4.240934848785400391e+00 5.816898941993713379e-01 -6.779869794845581055e-01 9.000000000000000000e+00
-4.487263488769531250e+01 6.162744998931884766e+00 5.561385631561279297e+00 7.700000000000000000e+01
-5.532002449035645419e+00 7.607411742210388184e-01 -6.856369376182556152e-01 1.000000000000000000e+01
-7.997700691223145419e+00 1.101237535476685014e+00 -7.063101530075073242e-01 1.000000000000000000e+00
-3.398084640502929688e+01 4.703142642974854404e+00 -5.987920761108398438e-01 1.900000000000000000e+01
-2.491036176681518999e+00 3.483190536499022882e-01 -6.739647984504699707e-01 1.800000000000000000e+01
-4.478629302978516336e+01 6.270391464233398438e+00 7.893723249435424805e-01 4.900000000000000000e+01
-2.887084960937500000e+00 4.047257006168364923e-01 -6.730535626411437988e-01 1.300000000000000000e+01
-4.481854248046875000e+01 6.290858745574951172e+00 2.371865510940552202e+00 3.500000000000000000e+01
-3.412063598632812944e+00 4.789269864559174139e-01 -6.697395443916320801e-01 1.200000000000000000e+01
-4.487192916870117188e+01 6.306338310241699219e+00 3.964366197586060014e+00 5.400000000000000000e+01
-4.233009815216063565e+00 5.956641435623168945e-01 -6.770483851432800293e-01 7.000000000000000000e+00
-4.490785598754882812e+01 6.327373981475830078e+00 5.568454265594482422e+00 7.800000000000000000e+01
-5.521450519561767578e+00 7.789376378059387207e-01 -6.846619844436645508e-01 1.000000000000000000e+01
-7.962243080139160156e+00 1.124689340591431108e+00 -7.035211324691772461e-01 1.000000000000000000e+00
-1.458428192138672053e+01 2.065263748168944868e+00 -7.719553709030151367e-01 4.000000000000000000e+00
-3.399787902832031250e+01 4.826507568359375000e+00 -5.993854403495788574e-01 1.300000000000000000e+01
-2.493629693984984907e+00 3.575606942176818848e-01 -6.750000715255737305e-01 1.500000000000000000e+01
-4.479580307006835938e+01 6.431233406066895419e+00 7.899308204650878906e-01 4.900000000000000000e+01
-2.885654687881470171e+00 4.148010313510894775e-01 -6.730535626411437988e-01 1.200000000000000000e+01
-4.483584976196289062e+01 6.452956676483154297e+00 2.373959064483643022e+00 3.500000000000000000e+01
-3.410371065139770952e+00 4.908344149589539129e-01 -6.697395443916320801e-01 1.200000000000000000e+01
-4.484964370727539062e+01 6.462932109832763672e+00 3.964366197586060014e+00 5.400000000000000000e+01
-4.226994514465332031e+00 6.098723411560058594e-01 -6.764226555824279785e-01 7.000000000000000000e+00
-4.488156509399414062e+01 6.483525276184082031e+00 5.567966461181640625e+00 7.800000000000000000e+01
-5.522627353668212891e+00 7.987746596336364746e-01 -6.851494312286376953e-01 1.000000000000000000e+01
-7.970099449157714844e+00 1.154189229011536089e+00 -7.045670151710510254e-01 1.000000000000000000e+00
-3.399071884155272727e+01 4.946592807769775391e+00 -5.995599627494812012e-01 1.900000000000000000e+01
-2.484721183776855025e+00 3.651393949985504150e-01 -6.729295253753662109e-01 1.600000000000000000e+01
-4.477307891845703125e+01 6.587560653686523438e+00 7.899308204650878906e-01 4.900000000000000000e+01
-2.893828868865966797e+00 4.262913465499877930e-01 -6.753030419349670410e-01 1.300000000000000000e+01
-4.484466552734375000e+01 6.614086627960205078e+00 2.375633716583251953e+00 3.500000000000000000e+01
-3.410579204559326172e+00 5.030223131179809570e-01 -6.701211929321289062e-01 1.300000000000000000e+01
-4.484651947021483664e+01 6.622357845306395596e+00 3.966109275817871094e+00 5.400000000000000000e+01
-4.211161136627197266e+00 6.226012110710144043e-01 -6.742325425148010254e-01 9.000000000000000000e+00
-4.487633514404296875e+01 6.642767906188964844e+00 5.570160388946533203e+00 7.800000000000000000e+01
-5.525696277618408203e+00 8.189204335212707520e-01 -6.858806610107421875e-01 1.200000000000000000e+01
-7.926606178283691406e+00 1.176154375076293945e+00 -7.010807991027832031e-01 1.000000000000000000e+00
-3.397324752807617188e+01 5.065212726593017578e+00 -5.995599627494812012e-01 1.900000000000000000e+01
-2.491072654724121094e+00 3.749606311321259100e-01 -6.750000715255737305e-01 1.400000000000000000e+01
-4.476958465576171875e+01 6.746787548065186435e+00 7.902798652648925781e-01 4.900000000000000000e+01
-2.869199991226195845e+00 4.329013228416442871e-01 -6.699042320251464844e-01 1.300000000000000000e+01
-4.481340408325195312e+01 6.769390106201171875e+00 2.375215053558350053e+00 3.500000000000000000e+01
-3.420449972152709961e+00 5.166838169097900391e-01 -6.724109053611755371e-01 1.200000000000000000e+01
-4.488222885131835938e+01 6.787799358367919922e+00 3.971338510513306108e+00 5.400000000000000000e+01
-4.216774463653563565e+00 6.384800076484680176e-01 -6.754840016365051270e-01 9.000000000000000000e+00
-4.487053680419921875e+01 6.802052497863770419e+00 5.572353839874267578e+00 7.800000000000000000e+01
-5.518878936767578125e+00 8.376079797744750977e-01 -6.853932142257690430e-01 1.200000000000000000e+01
-7.938210487365722656e+00 1.206210732460021973e+00 -7.024753093719482422e-01 1.000000000000000000e+00
-1.446313095092773082e+01 2.202837467193603960e+00 -7.667217850685119629e-01 4.000000000000000000e+00
-3.395733642578125000e+01 5.184072017669677734e+00 -5.995948910713195801e-01 1.900000000000000000e+01
-2.489681720733643022e+00 3.840883672237396240e-01 -6.750000715255737305e-01 1.500000000000000000e+01
-4.481570434570313211e+01 6.921819686889648438e+00 7.915364503860473633e-01 5.000000000000000000e+01
-2.865668296813964844e+00 4.431167542934417725e-01 -6.694543361663818359e-01 1.300000000000000000e+01
-4.481592559814453125e+01 6.937871456146240234e+00 2.376680374145507812e+00 3.500000000000000000e+01
-3.406892299652100053e+00 5.274147987365722656e-01 -6.701211929321289062e-01 1.200000000000000000e+01
-4.489642715454102273e+01 6.958358287811279297e+00 3.974824905395507812e+00 5.400000000000000000e+01
-4.206598281860351562e+00 6.527194380760192871e-01 -6.742325425148010254e-01 9.000000000000000000e+00
-4.485511398315429688e+01 6.967989444732666016e+00 5.573572635650634766e+00 7.800000000000000000e+01
-5.511848926544188565e+00 8.572199344635009766e-01 -6.849057078361511230e-01 1.200000000000000000e+01
-7.921924114227294922e+00 1.233458518981934038e+00 -7.014294266700744629e-01 1.000000000000000000e+00
-3.396181488037108664e+01 5.312205791473388672e+00 -6.000137329101562500e-01 1.300000000000000000e+01
-2.480692863464355025e+00 3.915717899799346924e-01 -6.729295253753662109e-01 1.700000000000000000e+01
-4.481892013549804688e+01 7.082583427429199219e+00 7.920250892639160156e-01 5.000000000000000000e+01
-2.860254526138306108e+00 4.525080621242523193e-01 -6.685545444488525391e-01 1.200000000000000000e+01
-4.483088684082031250e+01 7.100514888763427734e+00 2.378773927688599077e+00 3.500000000000000000e+01
-3.410847902297974077e+00 5.402252078056335449e-01 -6.712660193443298340e-01 1.200000000000000000e+01
-4.493483352661132812e+01 7.125018119812011719e+00 3.980402708053588867e+00 5.400000000000000000e+01
-4.217950820922851562e+00 6.695671081542968750e-01 -6.764226555824279785e-01 1.000000000000000000e+01
-4.488933181762695312e+01 7.133867263793945312e+00 5.580884933471679688e+00 7.800000000000000000e+01
-5.497060298919677734e+00 8.745832443237304688e-01 -6.834432482719421387e-01 1.200000000000000000e+01
-7.893959045410156250e+00 1.257342815399169922e+00 -6.993376612663269043e-01 1.000000000000000000e+00
-1.434838294982909979e+01 2.290533781051636186e+00 -7.614881396293640137e-01 4.000000000000000000e+00
-3.389962387084960938e+01 5.423771858215332031e+00 -5.992458462715148926e-01 1.300000000000000000e+01
-2.469844818115233931e+00 3.982582390308380127e-01 -6.703413128852844238e-01 1.600000000000000000e+01
-4.481098175048828125e+01 7.233718872070313388e+00 7.923043370246887207e-01 5.000000000000000000e+01
-2.881823539733887163e+00 4.657212793827056885e-01 -6.739533543586730957e-01 1.300000000000000000e+01
-4.482680892944335938e+01 7.252330303192138672e+00 2.379820585250854048e+00 3.500000000000000000e+01
-3.387718915939331055e+00 5.480839610099792480e-01 -6.670682430267333984e-01 1.100000000000000000e+01
-4.487949371337891336e+01 7.268891811370849609e+00 3.977613687515258789e+00 5.400000000000000000e+01
-4.207907676696777344e+00 6.822860240936279297e-01 -6.751711368560791016e-01 1.000000000000000000e+01
-4.489286041259766336e+01 7.287139415740966797e+00 5.584297180175781250e+00 7.900000000000000000e+01
-5.494130134582520419e+00 8.928073048591613770e-01 -6.834432482719421387e-01 1.200000000000000000e+01
-7.905478477478027344e+00 1.286072611808777078e+00 -7.007321715354919434e-01 1.000000000000000000e+00
-3.382619476318358664e+01 5.527128219604492188e+00 -5.982685089111328125e-01 1.300000000000000000e+01
-2.472251653671265093e+00 4.075055718421936035e-01 -6.713765859603881836e-01 1.500000000000000000e+01
-4.480124282836914062e+01 7.392698764801025391e+00 7.925835847854614258e-01 5.000000000000000000e+01
-2.864798784255981001e+00 4.732370078563690186e-01 -6.703541278839111328e-01 1.200000000000000000e+01
-4.482880783081054688e+01 7.413322925567626953e+00 2.381285905838013139e+00 3.500000000000000000e+01
-3.401280641555786133e+00 5.624684691429138184e-01 -6.701211929321289062e-01 1.200000000000000000e+01
-4.490102005004882812e+01 7.433315753936767578e+00 3.981797218322753906e+00 5.400000000000000000e+01
-4.197705268859863281e+00 6.956782937049865723e-01 -6.739196777343750000e-01 1.000000000000000000e+01
-4.487889862060546875e+01 7.445749759674072266e+00 5.585759639739990234e+00 7.900000000000000000e+01
-5.490980148315429688e+00 9.119799733161926270e-01 -6.834432482719421387e-01 1.200000000000000000e+01
-7.865563869476318359e+00 1.307778000831604004e+00 -6.975945830345153809e-01 2.000000000000000000e+00
-1.423395442962645951e+01 2.371732950210570845e+00 -7.562545537948608398e-01 4.000000000000000000e+00
-3.376724624633789062e+01 5.638582706451416016e+00 -5.975704193115234375e-01 1.300000000000000000e+01
-2.484149456024169922e+00 4.183787405490875244e-01 -6.750000715255737305e-01 1.500000000000000000e+01
-4.478305053710938211e+01 7.550368785858154297e+00 7.927231788635253906e-01 5.000000000000000000e+01
-2.857364654541016069e+00 4.822611808776854914e-01 -6.690044403076171875e-01 1.300000000000000000e+01
-4.486567687988281250e+01 7.580407142639160156e+00 2.384635448455810991e+00 3.600000000000000000e+01
-3.408975839614868164e+00 5.759730935096740723e-01 -6.720292568206787109e-01 1.200000000000000000e+01
-4.491408920288085938e+01 7.596649646759033203e+00 3.985283374786376953e+00 5.400000000000000000e+01
-4.175774574279785156e+00 7.070291042327880859e-01 -6.707909703254699707e-01 1.000000000000000000e+01
-4.487612152099608664e+01 7.606341838836669922e+00 5.588684558868408203e+00 7.900000000000000000e+01
-5.487763404846191406e+00 9.311414957046508789e-01 -6.834432482719421387e-01 1.200000000000000000e+01
-7.853094100952148438e+00 1.333891391754149947e+00 -6.968973278999328613e-01 1.000000000000000000e+00
-1.422558879852294922e+01 2.421404123306273970e+00 -7.562545537948608398e-01 4.000000000000000000e+00
-3.386563110351563211e+01 5.776592254638671875e+00 -5.996646881103515625e-01 1.300000000000000000e+01
-2.482673883438109907e+00 4.270474910736083984e-01 -6.750000715255737305e-01 1.500000000000000000e+01
-4.480765914916992188e+01 7.715467929840087891e+00 7.936307191848754883e-01 5.000000000000000000e+01
-2.851823091506958008e+00 4.915702641010283869e-01 -6.681046485900878906e-01 1.200000000000000000e+01
-4.481532669067382812e+01 7.732895851135253906e+00 2.383379459381103960e+00 3.600000000000000000e+01
-3.391467094421387163e+00 5.851985216140747070e-01 -6.689763665199279785e-01 1.200000000000000000e+01
-4.486766433715820312e+01 7.749991893768311435e+00 3.983540296554564986e+00 5.400000000000000000e+01
-4.196639060974121094e+00 7.256397604942321777e-01 -6.745454072952270508e-01 1.000000000000000000e+01
-4.487276840209960938e+01 7.767004966735839844e+00 5.591609001159667969e+00 7.900000000000000000e+01
-5.484479427337645596e+00 9.502916932106018066e-01 -6.834432482719421387e-01 1.200000000000000000e+01
-7.868020534515380859e+00 1.364700675010680930e+00 -6.986404061317443848e-01 1.000000000000000000e+00
-1.414621067047118963e+01 2.458733558654785156e+00 -7.524864077568054199e-01 4.000000000000000000e+00
-3.384132003784179688e+01 5.894083976745604581e+00 -5.995948910713195801e-01 1.300000000000000000e+01
-2.469751596450806108e+00 4.337062537670134943e-01 -6.718942523002624512e-01 1.500000000000000000e+01
-4.483560180664063211e+01 7.881522655487061435e+00 7.946080565452575684e-01 5.000000000000000000e+01
-2.852009057998656782e+00 5.018597245216369629e-01 -6.685545444488525391e-01 1.100000000000000000e+01
-4.482090759277343750e+01 7.887004852294921875e+00 2.385054111480712891e+00 3.600000000000000000e+01
-3.383603334426879883e+00 5.960116386413574219e-01 -6.678314805030822754e-01 1.200000000000000000e+01
-4.491490173339843750e+01 7.919708728790283203e+00 3.990164279937744141e+00 5.400000000000000000e+01
-4.194080352783203125e+00 7.402843236923217773e-01 -6.745454072952270508e-01 1.000000000000000000e+01
-4.489425659179688211e+01 7.932227611541748047e+00 5.597702503204345703e+00 7.900000000000000000e+01
-5.465490818023681641e+00 9.666644930839538574e-01 -6.814933419227600098e-01 1.200000000000000000e+01
-7.820047855377197266e+00 1.384515285491942915e+00 -6.948055624961853027e-01 1.000000000000000000e+00
-1.411001014709473012e+01 2.503213644027709961e+00 -7.510209679603576660e-01 4.000000000000000000e+00
-3.369453430175781250e+01 5.989777088165283203e+00 -5.973609685897827148e-01 1.300000000000000000e+01
-2.466320991516112837e+00 4.419838786125183105e-01 -6.713765859603881836e-01 1.600000000000000000e+01
-4.478419494628906250e+01 8.033742904663085938e+00 7.941892147064208984e-01 5.000000000000000000e+01
-2.863666296005249023e+00 5.142229795455932617e-01 -6.717038750648498535e-01 1.300000000000000000e+01
-4.482315063476563211e+01 8.056881904602050781e+00 2.386729001998900923e+00 3.600000000000000000e+01
-3.377637624740601030e+00 6.071243286132812500e-01 -6.670682430267333984e-01 1.100000000000000000e+01
-4.488698196411132812e+01 8.076442718505859375e+00 3.990164279937744141e+00 5.400000000000000000e+01
-4.183694362640380859e+00 7.535192966461181641e-01 -6.732939481735229492e-01 1.000000000000000000e+01
-4.487996673583983664e+01 8.091355323791503906e+00 5.599408626556395596e+00 7.900000000000000000e+01
-5.469897270202636719e+00 9.871469140052795410e-01 -6.824682950973510742e-01 1.200000000000000000e+01
-7.811245918273925781e+00 1.411095499992371050e+00 -6.944569349288940430e-01 1.000000000000000000e+00
-1.407367229461669922e+01 2.547471284866333008e+00 -7.495555877685546875e-01 4.000000000000000000e+00
-3.372851562500000000e+01 6.117348194122313565e+00 -5.983383059501647949e-01 1.900000000000000000e+01
-2.457240104675292969e+00 4.487717449665070135e-01 -6.693060398101806641e-01 1.500000000000000000e+01
-4.481238937377929688e+01 8.192277908325195312e+00 7.951665520668029785e-01 5.000000000000000000e+01
-2.856194496154785156e+00 5.226640701293945312e-01 -6.703541278839111328e-01 1.200000000000000000e+01
-4.480547714233397727e+01 8.199095726013183594e+00 2.387147665023804155e+00 3.600000000000000000e+01
-3.383330345153809038e+00 6.197366118431091309e-01 -6.685947179794311523e-01 1.100000000000000000e+01
-4.488346862792968750e+01 8.229560852050781250e+00 3.992255926132202148e+00 5.400000000000000000e+01
-4.163686275482177734e+00 7.641794681549072266e-01 -6.704781055450439453e-01 9.000000000000000000e+00
-4.488217544555664062e+01 8.245517730712890625e+00 5.603065013885498047e+00 8.000000000000000000e+01
-5.462688922882080078e+00 1.004562258720397949e+00 -6.819808483123779297e-01 1.200000000000000000e+01
-7.806523799896240234e+00 1.436990737915039062e+00 -6.944569349288940430e-01 1.000000000000000000e+00
-1.399443817138672053e+01 2.581085920333861861e+00 -7.457873821258544922e-01 4.000000000000000000e+00
-3.373557281494141336e+01 6.234250068664550781e+00 -5.988269448280334473e-01 1.900000000000000000e+01
-2.463255405426024947e+00 4.587612152099608820e-01 -6.713765859603881836e-01 1.400000000000000000e+01
-4.481890487670897727e+01 8.355248451232910156e+00 7.957948446273803711e-01 5.000000000000000000e+01
-2.835196018218994141e+00 5.290561914443969727e-01 -6.658551096916198730e-01 1.200000000000000000e+01
-4.484726715087891336e+01 8.368636131286621094e+00 2.390915870666503906e+00 3.600000000000000000e+01
-3.377286672592163086e+00 6.308218836784362793e-01 -6.678314805030822754e-01 1.200000000000000000e+01
-4.490147399902343750e+01 8.394970893859863281e+00 3.996439456939696822e+00 5.400000000000000000e+01
-4.151285171508789062e+00 7.768919467926025391e-01 -6.689137816429138184e-01 1.000000000000000000e+01
-4.487458419799804688e+01 8.406156539916992188e+00 5.605746269226074219e+00 8.000000000000000000e+01
-5.449393749237061435e+00 1.021795272827147993e+00 -6.807621717453002930e-01 1.000000000000000000e+01
-7.801459789276123047e+00 1.464231848716736062e+00 -6.944569349288940430e-01 1.000000000000000000e+00
-1.398534297943115057e+01 2.629919767379761186e+00 -7.457873821258544922e-01 4.000000000000000000e+00
-3.375290679931641336e+01 6.359375953674316406e+00 -5.995250940322875977e-01 1.300000000000000000e+01
-2.467332839965819868e+00 4.684377908706665039e-01 -6.729295253753662109e-01 1.500000000000000000e+01
-4.482089614868164062e+01 8.517618179321289062e+00 7.963532805442810059e-01 5.000000000000000000e+01
-2.833332061767578125e+00 5.389496088027954102e-01 -6.658551096916198730e-01 1.200000000000000000e+01
-4.482806396484375000e+01 8.535194396972656250e+00 2.391543865203856978e+00 3.600000000000000000e+01
-3.378921270370482954e+00 6.433414220809936523e-01 -6.685947179794311523e-01 1.200000000000000000e+01
