-3.281300544738769975e+00 3.511384725570679155e+00 -5.900913476943969727e-01 8.000000000000000000e+00
-4.425691604614257812e+00 4.737677574157714844e+00 -5.672096014022827148e-01 6.000000000000000000e+00
-6.731323719024658203e+00 7.210887908935546875e+00 -5.169745683670043945e-01 2.000000000000000000e+00
-1.600003719329833984e+00 1.720002174377440962e+00 -6.294479370117187500e-01 1.700000000000000000e+01
-1.838940978050231934e+00 1.978243589401244895e+00 -6.235643029212951660e-01 1.200000000000000000e+01
-2.135612249374390093e+00 2.298192501068114790e+00 -6.098255515098571777e-01 1.200000000000000000e+01
-2.594257593154906782e+00 2.793708801269530806e+00 -6.038370132446289062e-01 9.000000000000000000e+00
-3.274424791336060014e+00 3.528637647628784180e+00 -5.910663008689880371e-01 8.000000000000000000e+00
-4.395577430725097656e+00 4.738490581512451172e+00 -5.654664635658264160e-01 6.000000000000000000e+00
-6.689818859100341797e+00 7.216763496398925781e+00 -5.157185196876525879e-01 2.000000000000000000e+00
-1.582904815673827903e+00 1.714776873588562012e+00 -6.253067851066589355e-01 1.700000000000000000e+01
-1.831331491470336914e+00 1.985290050506592019e+00 -6.235643029212951660e-01 1.400000000000000000e+01
-2.126772165298461914e+00 2.306375741958618164e+00 -6.098255515098571777e-01 1.200000000000000000e+01
-2.578156948089600053e+00 2.797838687896728960e+00 -6.025855541229248047e-01 9.000000000000000000e+00
-3.254128217697143999e+00 3.533883094787598100e+00 -5.898476243019104004e-01 9.000000000000000000e+00
-4.367905139923095703e+00 4.745071887969970703e+00 -5.642462968826293945e-01 4.000000000000000000e+00
-6.678284645080566406e+00 7.260036468505859375e+00 -5.169745683670043945e-01 2.000000000000000000e+00
-1.402819156646729049e+01 1.526088905334473012e+01 -3.618232905864716131e-01 3.000000000000000000e+00
-1.584741830825806108e+00 1.728836297988892046e+00 -6.284126639366149902e-01 2.000000000000000000e+01
-1.820441484451293945e+00 1.987359523773192915e+00 -6.222146153450012207e-01 1.300000000000000000e+01
-2.125337600708007812e+00 2.321025133132935014e+00 -6.117336153984069824e-01 1.200000000000000000e+01
-2.555039644241333008e+00 2.792247772216796875e+00 -5.994568467140197754e-01 9.000000000000000000e+00
-3.257847785949707031e+00 3.562800168991088867e+00 -5.927724838256835938e-01 9.000000000000000000e+00
-4.351315021514892578e+00 4.760290145874023438e+00 -5.642462968826293945e-01 4.000000000000000000e+00
-6.615185737609863281e+00 7.242013931274414062e+00 -5.140437483787536621e-01 2.000000000000000000e+00
-1.397483634948729936e+01 1.530976390838623047e+01 -3.618232905864716131e-01 3.000000000000000000e+00
-1.580603599548340066e+00 1.735234618186950906e+00 -6.289302706718444824e-01 1.900000000000000000e+01
-1.814189076423645020e+00 1.993068814277648926e+00 -6.222146153450012207e-01 1.500000000000000000e+01
-2.116714239120482954e+00 2.326238632202147993e+00 -6.113520264625549316e-01 1.200000000000000000e+01
-2.548913002014160156e+00 2.803183794021606001e+00 -6.000826358795166016e-01 9.000000000000000000e+00
-3.231954097747803178e+00 3.556856632232666016e+00 -5.900913476943969727e-01 8.000000000000000000e+00
-4.333659172058104581e+00 4.770987033843994141e+00 -5.638976693153381348e-01 6.000000000000000000e+00
-6.587031841278076172e+00 7.256844520568847656e+00 -5.136250853538513184e-01 2.000000000000000000e+00
-1.392667007446289062e+01 1.535359096527099965e+01 -3.618232905864716131e-01 3.000000000000000000e+00
-1.575832724571228027e+00 1.742174029350280984e+00 -6.294479370117187500e-01 1.800000000000000000e+01
-1.805914163589477983e+00 1.997943639755249023e+00 -6.217647194862365723e-01 1.400000000000000000e+01
-2.103316307067871094e+00 2.327786207199097124e+00 -6.098255515098571777e-01 1.300000000000000000e+01
-2.541760206222534180e+00 2.814996480941772017e+00 -6.007083654403686523e-01 9.000000000000000000e+00
-3.214199304580688032e+00 3.562221288681029829e+00 -5.891163945198059082e-01 8.000000000000000000e+00
-4.323651313781738281e+00 4.793482303619384766e+00 -5.647692084312438965e-01 6.000000000000000000e+00
-6.534916877746582031e+00 7.250122547149658203e+00 -5.115316510200500488e-01 2.000000000000000000e+00
-1.566550850868225098e+00 1.745336651802062988e+00 -6.284126639366149902e-01 1.700000000000000000e+01
-1.798229217529297097e+00 2.004863023757935014e+00 -6.217647194862365723e-01 1.200000000000000000e+01
-2.093052148818970171e+00 2.334383487701416016e+00 -6.094439029693603516e-01 1.200000000000000000e+01
-2.533569097518920898e+00 2.827677726745605025e+00 -6.013340950012207031e-01 9.000000000000000000e+00
-3.200497865676879883e+00 3.574536561965941939e+00 -5.891163945198059082e-01 8.000000000000000000e+00
-4.295912742614746094e+00 4.799656867980957031e+00 -5.635490417480468750e-01 7.000000000000000000e+00
-6.533659934997558594e+00 7.304934978485107422e+00 -5.136250853538513184e-01 2.000000000000000000e+00
-1.550166010856627974e+00 1.739256858825684038e+00 -6.242715120315551758e-01 1.600000000000000000e+01
-1.791220068931580034e+00 2.011127948760985884e+00 -6.217647194862365723e-01 1.100000000000000000e+01
-2.075752496719359907e+00 2.331411361694335938e+00 -6.067726016044616699e-01 1.200000000000000000e+01
-2.518430948257445845e+00 2.830600976943970171e+00 -6.000826358795166016e-01 9.000000000000000000e+00
-3.180086851119995117e+00 3.576785326004027876e+00 -5.876539945602416992e-01 8.000000000000000000e+00
-4.276485443115234375e+00 4.811644554138183594e+00 -5.632004141807556152e-01 6.000000000000000000e+00
-6.489552974700927734e+00 7.306790351867675781e+00 -5.121596455574035645e-01 2.000000000000000000e+00
-1.552379369735717995e+00 1.752795457839966042e+00 -6.273773908615112305e-01 1.800000000000000000e+01
-1.784893035888672097e+00 2.016745328903197798e+00 -6.217647194862365723e-01 1.100000000000000000e+01
-2.078824996948242188e+00 2.349684238433837891e+00 -6.098255515098571777e-01 1.200000000000000000e+01
-2.505600690841674805e+00 2.834059238433837891e+00 -5.991439819335937500e-01 9.000000000000000000e+00
-3.181977748870850053e+00 3.601634979248046875e+00 -5.900913476943969727e-01 9.000000000000000000e+00
-4.253434658050537109e+00 4.816095352172851562e+00 -5.621545314788818359e-01 9.000000000000000000e+00
-6.466566085815429688e+00 7.327142238616943359e+00 -5.121596455574035645e-01 2.000000000000000000e+00
-1.547527313232422097e+00 1.759654283523560014e+00 -6.278949975967407227e-01 1.900000000000000000e+01
-1.770123839378356934e+00 2.014180660247803178e+00 -6.190652847290039062e-01 1.000000000000000000e+01
-2.075793266296387163e+00 2.362826108932495117e+00 -6.113520264625549316e-01 1.100000000000000000e+01
-2.500905752182006836e+00 2.848726034164429155e+00 -6.003955006599426270e-01 9.000000000000000000e+00
-3.166768074035644975e+00 3.609735727310181108e+00 -5.896039009094238281e-01 8.000000000000000000e+00
-4.216892242431640625e+00 4.808444023132324219e+00 -5.595398545265197754e-01 7.000000000000000000e+00
-6.406724929809570312e+00 7.310616016387938565e+00 -5.094382166862487793e-01 2.000000000000000000e+00
-1.542646169662476030e+00 1.766500592231750044e+00 -6.284126639366149902e-01 1.800000000000000000e+01
-5.840384674072266336e+01 6.690242767333984375e+01 1.550157666206360085e+00 2.000000000000000000e+00
-1.766926169395446999e+00 2.024752140045166016e+00 -6.204150319099426270e-01 1.500000000000000000e+01
-2.059789419174193892e+00 2.361180782318114790e+00 -6.090623140335083008e-01 1.100000000000000000e+01
-2.484456300735474077e+00 2.849993467330933061e+00 -5.988311171531677246e-01 9.000000000000000000e+00
-3.138501405715941939e+00 3.602806091308594194e+00 -5.866790413856506348e-01 8.000000000000000000e+00
-4.223633766174316406e+00 4.850180149078369141e+00 -5.626775026321411133e-01 6.000000000000000000e+00
-6.394278049468994141e+00 7.348001480102539062e+00 -5.104849338531494141e-01 2.000000000000000000e+00
-1.535205006599426047e+00 1.770415067672729048e+00 -6.278949975967407227e-01 1.900000000000000000e+01
-1.764952421188354048e+00 2.036798477172852007e+00 -6.222146153450012207e-01 1.500000000000000000e+01
-2.048963785171508789e+00 2.365388631820679155e+00 -6.082990765571594238e-01 1.100000000000000000e+01
-2.484835624694824219e+00 2.870596647262572798e+00 -6.013340950012207031e-01 9.000000000000000000e+00
-3.118114233016968218e+00 3.604731559753417969e+00 -5.852165818214416504e-01 8.000000000000000000e+00
-4.183220386505126953e+00 4.837766170501708984e+00 -5.595398545265197754e-01 4.000000000000000000e+00
-6.342473030090332031e+00 7.340052604675292969e+00 -5.083914995193481445e-01 2.000000000000000000e+00
-1.284427547454833984e+01 1.487498664855957031e+01 -3.430444896221160889e-01 3.000000000000000000e+00
-1.520500183105468972e+00 1.765250205993651900e+00 -6.242715120315551758e-01 1.600000000000000000e+01
-1.762002348899841087e+00 2.047070980072021040e+00 -6.235643029212951660e-01 1.400000000000000000e+01
-2.039828300476074219e+00 2.370682001113892046e+00 -6.079174876213073730e-01 1.000000000000000000e+01
-2.463711738586425781e+00 2.865340471267700195e+00 -5.985182523727416992e-01 8.000000000000000000e+00
-3.111318111419678178e+00 3.621074438095093218e+00 -5.861915349960327148e-01 8.000000000000000000e+00
-4.181435108184813565e+00 4.868237018585205078e+00 -5.614572763442993164e-01 4.000000000000000000e+00
-6.318097591400145596e+00 7.361044406890869141e+00 -5.083914995193481445e-01 2.000000000000000000e+00
-1.278185939788818004e+01 1.490231990814208984e+01 -3.426954448223114014e-01 3.000000000000000000e+00
-1.516840338706969993e+00 1.773483276367187944e+00 -6.253067851066589355e-01 1.700000000000000000e+01
-1.753579854965209961e+00 2.051727533340454102e+00 -6.231144070625305176e-01 1.500000000000000000e+01
-2.026439428329468218e+00 2.371817350387572798e+00 -6.063910126686096191e-01 1.000000000000000000e+01
-2.454977512359619141e+00 2.875425338745117188e+00 -5.988311171531677246e-01 9.000000000000000000e+00
-3.103812932968140093e+00 3.637953519821166992e+00 -5.871664881706237793e-01 9.000000000000000000e+00
-4.150194168090820312e+00 4.866127967834472656e+00 -5.595398545265197754e-01 4.000000000000000000e+00
-6.284591197967529297e+00 7.373933315277099609e+00 -5.077634453773498535e-01 2.000000000000000000e+00
-1.513141512870789018e+00 1.781712174415587935e+00 -6.263421177864074707e-01 1.800000000000000000e+01
-1.733797907829284890e+00 2.042978286743164062e+00 -6.186153888702392578e-01 1.500000000000000000e+01
-2.027038335800170898e+00 2.389356136322021040e+00 -6.090623140335083008e-01 1.100000000000000000e+01
-2.442370653152465820e+00 2.880963802337646040e+00 -5.982053875923156738e-01 9.000000000000000000e+00
-3.088528871536254883e+00 3.645736217498778853e+00 -5.866790413856506348e-01 8.000000000000000000e+00
-4.128032684326171875e+00 4.874503612518311435e+00 -5.588425993919372559e-01 3.000000000000000000e+00
-6.253652095794677734e+00 7.389727592468261719e+00 -5.073447823524475098e-01 2.000000000000000000e+00
-1.256646251678466975e+01 1.485987567901610973e+01 -3.396936357021331787e-01 3.000000000000000000e+00
-1.514385342597960982e+00 1.795844197273253950e+00 -6.294479370117187500e-01 1.700000000000000000e+01
-1.729167461395263894e+00 2.051998138427733931e+00 -6.195151805877685547e-01 1.600000000000000000e+01
-2.016155958175659180e+00 2.393414258956909180e+00 -6.082990765571594238e-01 1.100000000000000000e+01
-2.439932107925415039e+00 2.898539066314696822e+00 -6.000826358795166016e-01 9.000000000000000000e+00
-3.066839218139647993e+00 3.645861387252808061e+00 -5.849728584289550781e-01 9.000000000000000000e+00
-4.117403507232666016e+00 4.896508216857910156e+00 -5.597141981124877930e-01 4.000000000000000000e+00
-6.245807647705078125e+00 7.432919025421142578e+00 -5.088101625442504883e-01 2.000000000000000000e+00
-1.256080818176270064e+01 1.495878124237061080e+01 -3.409502208232880194e-01 3.000000000000000000e+00
-1.499113321304321067e+00 1.791012883186340110e+00 -6.258244514465332031e-01 1.600000000000000000e+01
-1.726636052131653054e+00 2.064301252365111861e+00 -6.213148236274719238e-01 1.600000000000000000e+01
-2.001073360443114790e+00 2.393256902694702148e+00 -6.063910126686096191e-01 1.000000000000000000e+01
-2.430558443069458008e+00 2.908978223800659180e+00 -6.003955006599426270e-01 9.000000000000000000e+00
-3.061089515686035156e+00 3.666219949722290039e+00 -5.864352583885192871e-01 9.000000000000000000e+00
-4.094322681427001953e+00 4.905447959899902344e+00 -5.590169429779052734e-01 4.000000000000000000e+00
-6.218522548675537109e+00 7.455760955810546875e+00 -5.088101625442504883e-01 2.000000000000000000e+00
-1.237786865234375000e+01 1.485110759735107067e+01 -3.374597430229187012e-01 3.000000000000000000e+00
-1.485443711280822976e+00 1.787320494651793990e+00 -6.227186322212219238e-01 1.600000000000000000e+01
-1.718174695968627930e+00 2.068816661834716797e+00 -6.208649277687072754e-01 1.400000000000000000e+01
-1.992707252502440962e+00 2.400227546691894975e+00 -6.063910126686096191e-01 1.000000000000000000e+01
-2.412821769714355025e+00 2.908323049545288086e+00 -5.985182523727416992e-01 8.000000000000000000e+00
-3.041938543319702148e+00 3.669241905212401900e+00 -5.852165818214416504e-01 8.000000000000000000e+00
-4.077174663543701172e+00 4.919709682464599609e+00 -5.590169429779052734e-01 4.000000000000000000e+00
-6.159337520599365234e+00 7.437427997589111328e+00 -5.060886740684509277e-01 2.000000000000000000e+00
-1.237440013885498047e+01 1.495276546478270951e+01 -3.387861251831055243e-01 3.000000000000000000e+00
-1.486573219299315962e+00 1.801434874534606934e+00 -6.258244514465332031e-01 1.800000000000000000e+01
-1.712182521820067915e+00 2.076305150985718218e+00 -6.213148236274719238e-01 1.300000000000000000e+01
-1.990560650825500044e+00 2.414743185043334961e+00 -6.082990765571594238e-01 1.100000000000000000e+01
-2.391351461410522017e+00 2.903005361557006836e+00 -5.957024693489074707e-01 9.000000000000000000e+00
-3.031635046005249023e+00 3.682903051376343218e+00 -5.857040882110595703e-01 8.000000000000000000e+00
-4.053647041320800781e+00 4.926219463348388672e+00 -5.581454038619995117e-01 4.000000000000000000e+00
-6.107967853546142578e+00 7.428029060363770419e+00 -5.039952397346496582e-01 2.000000000000000000e+00
-1.224595737457275035e+01 1.490316867828368963e+01 -3.366918265819550116e-01 3.000000000000000000e+00
-1.483949184417725053e+00 1.811095952987670898e+00 -6.273773908615112305e-01 1.900000000000000000e+01
-1.698751688003540039e+00 2.074730157852172852e+00 -6.190652847290039062e-01 1.400000000000000000e+01
-1.984606504440308061e+00 2.424715280532836914e+00 -6.090623140335083008e-01 1.100000000000000000e+01
-2.384955406188964844e+00 2.915922403335570845e+00 -5.966410636901855469e-01 9.000000000000000000e+00
-3.026298522949219194e+00 3.702685117721558061e+00 -5.871664881706237793e-01 8.000000000000000000e+00
-4.040208339691162109e+00 4.944967746734619141e+00 -5.586683154106140137e-01 6.000000000000000000e+00
-6.071897029876708984e+00 7.436927795410156250e+00 -5.031578540802001953e-01 2.000000000000000000e+00
-1.218627643585205078e+01 1.493652725219726918e+01 -3.364824056625366211e-01 3.000000000000000000e+00
-1.476715683937072976e+00 1.814508557319640891e+00 -6.268597245216369629e-01 1.800000000000000000e+01
-1.688173651695251021e+00 2.075816392898560014e+00 -6.177155971527099609e-01 1.200000000000000000e+01
-1.966647386550903098e+00 2.419096231460570845e+00 -6.060093641281127930e-01 1.100000000000000000e+01
-2.382746219635010210e+00 2.933014154434204102e+00 -5.985182523727416992e-01 8.000000000000000000e+00
-3.000240564346313032e+00 3.695747375488280806e+00 -5.844853520393371582e-01 9.000000000000000000e+00
-3.996167421340941939e+00 4.924303054809570312e+00 -5.548334717750549316e-01 6.000000000000000000e+00
-6.042170047760009766e+00 7.450816631317138672e+00 -5.027391910552978516e-01 2.000000000000000000e+00
-1.207876396179199041e+01 1.490538978576659979e+01 -3.348767757415770929e-01 3.000000000000000000e+00
-1.466730356216431108e+00 1.815144419670104980e+00 -6.253067851066589355e-01 1.600000000000000000e+01
-1.688262939453125000e+00 2.090793371200561968e+00 -6.204150319099426270e-01 1.300000000000000000e+01
-1.961890578269958052e+00 2.430529356002808061e+00 -6.071542501449584961e-01 1.000000000000000000e+01
-2.374974012374877930e+00 2.944388866424560991e+00 -5.991439819335937500e-01 9.000000000000000000e+00
-2.984830379486083984e+00 3.703106641769409180e+00 -5.839979052543640137e-01 9.000000000000000000e+00
-3.971453666687012163e+00 4.928913593292236328e+00 -5.537875890731811523e-01 6.000000000000000000e+00
-6.021135330200195312e+00 7.478085041046142578e+00 -5.031578540802001953e-01 2.000000000000000000e+00
-1.203919696807860973e+01 1.496304225921631037e+01 -3.352258205413817804e-01 3.000000000000000000e+00
-1.454340815544127974e+00 1.812719106674193892e+00 -6.227186322212219238e-01 1.600000000000000000e+01
-1.677297592163085938e+00 2.092112541198730025e+00 -6.190652847290039062e-01 1.300000000000000000e+01
-1.953394412994384988e+00 2.437362909317017046e+00 -6.071542501449584961e-01 1.000000000000000000e+01
-2.363446712493896040e+00 2.951119184494018999e+00 -5.988311171531677246e-01 9.000000000000000000e+00
-2.974366664886475053e+00 3.716602802276610884e+00 -5.844853520393371582e-01 9.000000000000000000e+00
-3.960447549819945845e+00 4.950525760650634766e+00 -5.546591281890869141e-01 4.000000000000000000e+00
-5.982523918151854581e+00 7.483457088470458984e+00 -5.021111369132995605e-01 2.000000000000000000e+00
-1.194196033477783025e+01 1.494873046875000000e+01 -3.339692354202271063e-01 3.000000000000000000e+00
-1.449208021163939986e+00 1.819295644760132058e+00 -6.232362389564514160e-01 1.600000000000000000e+01
-1.672411799430846946e+00 2.101004123687744141e+00 -6.199650764465332031e-01 1.300000000000000000e+01
-1.941207289695739968e+00 2.439558029174805132e+00 -6.060093641281127930e-01 1.100000000000000000e+01
-2.345754384994506836e+00 2.950074195861815962e+00 -5.969539284706115723e-01 9.000000000000000000e+00
-2.966314792633057085e+00 3.733179330825806108e+00 -5.854603052139282227e-01 9.000000000000000000e+00
-3.936946868896483931e+00 4.956519126892089844e+00 -5.537875890731811523e-01 4.000000000000000000e+00
-5.973748683929443359e+00 7.526195526123046875e+00 -5.035765767097473145e-01 2.000000000000000000e+00
-1.188970661163330078e+01 1.499032497406006037e+01 -3.339692354202271063e-01 3.000000000000000000e+00
-1.444365620613097922e+00 1.825606465339661089e+00 -6.237539052963256836e-01 1.700000000000000000e+01
-1.660601139068603960e+00 2.100423574447631836e+00 -6.181654930114746094e-01 1.400000000000000000e+01
-1.935541391372681108e+00 2.449062347412108931e+00 -6.067726016044616699e-01 1.100000000000000000e+01
-2.340855836868286133e+00 2.964037656784058061e+00 -5.982053875923156738e-01 9.000000000000000000e+00
-2.948999881744385210e+00 3.736762285232543945e+00 -5.844853520393371582e-01 9.000000000000000000e+00
-3.901978492736815962e+00 4.946084022521972656e+00 -5.511729121208190918e-01 6.000000000000000000e+00
-5.881987571716308594e+00 7.461266040802001953e+00 -4.979242980480194092e-01 2.000000000000000000e+00
-1.177805900573729936e+01 1.495112800598145064e+01 -3.322240114212036133e-01 3.000000000000000000e+00
-1.445144414901732954e+00 1.839752316474914995e+00 -6.268597245216369629e-01 1.700000000000000000e+01
-1.654462337493896040e+00 2.107740402221680132e+00 -6.186153888702392578e-01 1.500000000000000000e+01
-1.928192734718322976e+00 2.457348346710205078e+00 -6.071542501449584961e-01 1.000000000000000000e+01
-2.331714153289794922e+00 2.973745346069335938e+00 -5.985182523727416992e-01 8.000000000000000000e+00
-2.926143407821654829e+00 3.734533071517943892e+00 -5.825354456901550293e-01 9.000000000000000000e+00
-3.883461236953734907e+00 4.958106040954589844e+00 -5.509986281394958496e-01 6.000000000000000000e+00
-5.833748817443847656e+00 7.453442096710205078e+00 -4.960401952266693115e-01 2.000000000000000000e+00
-1.178739643096924006e+01 1.507090759277343928e+01 -3.339692354202271063e-01 3.000000000000000000e+00
-1.436337590217590110e+00 1.841738820075988992e+00 -6.258244514465332031e-01 1.700000000000000000e+01
-1.645897030830383079e+00 2.111965417861938032e+00 -6.181654930114746094e-01 1.400000000000000000e+01
-1.914777040481566939e+00 2.457869052886962891e+00 -6.056277751922607422e-01 1.000000000000000000e+01
-2.327386856079102007e+00 2.989660024642943892e+00 -6.000826358795166016e-01 9.000000000000000000e+00
-2.915527343750000000e+00 3.747858047485352007e+00 -5.830229520797729492e-01 9.000000000000000000e+00
-3.872245788574219194e+00 4.979495525360107422e+00 -5.518701672554016113e-01 6.000000000000000000e+00
-5.817500114440917969e+00 7.486376762390136719e+00 -4.968775808811187744e-01 2.000000000000000000e+00
-1.167339420318604049e+01 1.503298950195313033e+01 -3.322240114212036133e-01 3.000000000000000000e+00
-1.420438289642333984e+00 1.834521412849426047e+00 -6.216833591461181641e-01 1.700000000000000000e+01
-1.639707326889038086e+00 2.119239091873168945e+00 -6.186153888702392578e-01 1.500000000000000000e+01
-1.903783559799193892e+00 2.461431980133057085e+00 -6.048645377159118652e-01 1.000000000000000000e+01
-2.306064844131470171e+00 2.983699321746826172e+00 -5.972667932510375977e-01 9.000000000000000000e+00
-2.912134170532227007e+00 3.770581007003784180e+00 -5.849728584289550781e-01 9.000000000000000000e+00
-3.826836347579956055e+00 4.956709384918212891e+00 -5.478609800338745117e-01 6.000000000000000000e+00
-5.786452293395996094e+00 7.500312805175781250e+00 -4.964588880538939875e-01 2.000000000000000000e+00
-1.162084865570068004e+01 1.507364559173583984e+01 -3.322240114212036133e-01 3.000000000000000000e+00
-1.420767545700073020e+00 1.848906159400939941e+00 -6.247891783714294434e-01 1.700000000000000000e+01
-1.631928920745850053e+00 2.125234842300415039e+00 -6.186153888702392578e-01 1.500000000000000000e+01
-1.900726318359375000e+00 2.476179838180541992e+00 -6.067726016044616699e-01 1.000000000000000000e+01
-2.285495519638061968e+00 2.979592323303223100e+00 -5.947638154029846191e-01 8.000000000000000000e+00
-2.895879507064818892e+00 3.778078079223632812e+00 -5.844853520393371582e-01 9.000000000000000000e+00
-3.820761203765869141e+00 4.986517429351806641e+00 -5.496041178703308105e-01 7.000000000000000000e+00
-5.758923530578613281e+00 7.521471023559570312e+00 -4.964588880538939875e-01 2.000000000000000000e+00
-1.156552314758300959e+01 1.511613750457764027e+01 -3.322240114212036133e-01 3.000000000000000000e+00
-1.414304971694946067e+00 1.853854298591613992e+00 -6.247891783714294434e-01 1.600000000000000000e+01
-1.612686038017272949e+00 2.115420818328856978e+00 -6.141163706779479980e-01 1.500000000000000000e+01
-1.887311339378356934e+00 2.476553440093994141e+00 -6.052461266517639160e-01 9.000000000000000000e+00
-2.285851955413817915e+00 3.001696109771728960e+00 -5.975796580314636230e-01 9.000000000000000000e+00
-2.877865552902222124e+00 3.781844615936278853e+00 -5.835103988647460938e-01 9.000000000000000000e+00
-3.794888019561768022e+00 4.988723754882813388e+00 -5.483839511871337891e-01 6.000000000000000000e+00
-5.722964286804199219e+00 7.528807163238525391e+00 -4.956215023994445801e-01 2.000000000000000000e+00
-1.408149600028991921e+00 1.858534216880797896e+00 -6.247891783714294434e-01 1.600000000000000000e+01
-1.611543655395508035e+00 2.128525257110596147e+00 -6.163659095764160156e-01 1.600000000000000000e+01
-1.873164415359497070e+00 2.474971055984497070e+00 -6.033380627632141113e-01 1.000000000000000000e+01
-2.268735885620117188e+00 2.999806642532349077e+00 -5.957024693489074707e-01 9.000000000000000000e+00
-2.860521078109741211e+00 3.785032510757445845e+00 -5.825354456901550293e-01 9.000000000000000000e+00
-3.780725955963135210e+00 5.004459857940673828e+00 -5.487325787544250488e-01 7.000000000000000000e+00
-5.712407112121582031e+00 7.566872119903563565e+00 -4.968775808811187744e-01 2.000000000000000000e+00
-1.131303215026854936e+01 1.499655723571776988e+01 -3.278958201408386230e-01 3.000000000000000000e+00
-1.398169755935668945e+00 1.858806610107422097e+00 -6.232362389564514160e-01 1.600000000000000000e+01
-1.608787417411803977e+00 2.140368700027465820e+00 -6.181654930114746094e-01 1.700000000000000000e+01
-1.869231104850769043e+00 2.487772941589355025e+00 -6.048645377159118652e-01 1.000000000000000000e+01
-2.262995004653931108e+00 3.014026403427124023e+00 -5.969539284706115723e-01 9.000000000000000000e+00
-2.849674224853516069e+00 3.798170328140258789e+00 -5.830229520797729492e-01 9.000000000000000000e+00
-3.752475023269652876e+00 5.003281593322753906e+00 -5.471637248992919922e-01 8.000000000000000000e+00
-5.662003040313720703e+00 7.554801464080811435e+00 -4.947841167449951172e-01 2.000000000000000000e+00
-1.122944927215575994e+01 1.499433994293213068e+01 -3.269882798194885254e-01 3.000000000000000000e+00
-1.394814252853393999e+00 1.868563055992126021e+00 -6.247891783714294434e-01 1.500000000000000000e+01
-1.600931763648987038e+00 2.146250963211060014e+00 -6.181654930114746094e-01 1.700000000000000000e+01
-1.856579661369323953e+00 2.489885568618773970e+00 -6.037196516990661621e-01 1.100000000000000000e+01
-2.249572277069091797e+00 3.019132375717163086e+00 -5.963281989097595215e-01 9.000000000000000000e+00
-2.833363056182860884e+00 3.805404901504517046e+00 -5.825354456901550293e-01 9.000000000000000000e+00
-3.737680673599243164e+00 5.021796226501464844e+00 -5.476866960525512695e-01 8.000000000000000000e+00
-5.634274959564208984e+00 7.575503349304199219e+00 -4.947841167449951172e-01 2.000000000000000000e+00
-1.383682489395142046e+00 1.867211937904357910e+00 -6.227186322212219238e-01 1.200000000000000000e+01
-1.592270493507385032e+00 2.150259971618651900e+00 -6.177155971527099609e-01 1.500000000000000000e+01
-1.850213170051574929e+00 2.499507188796997070e+00 -6.044828891754150391e-01 1.100000000000000000e+01
-2.234321117401123047e+00 3.020614147186278853e+00 -5.950766801834106445e-01 9.000000000000000000e+00
-2.817702531814575195e+00 3.812079191207886186e+00 -5.820479989051818848e-01 9.000000000000000000e+00
-3.711840629577637163e+00 5.023595809936523438e+00 -5.464665293693542480e-01 9.000000000000000000e+00
-5.607797145843505859e+00 7.595124244689941406e+00 -4.947841167449951172e-01 2.000000000000000000e+00
-1.112186527252197088e+01 1.507431221008300959e+01 -3.269882798194885254e-01 3.000000000000000000e+00
-1.380918145179748979e+00 1.876457929611206055e+00 -6.242715120315551758e-01 1.100000000000000000e+01
-1.572431802749634011e+00 2.138258934020996094e+00 -6.127666831016540527e-01 1.600000000000000000e+01
-1.839588642120361106e+00 2.502465248107910156e+00 -6.037196516990661621e-01 1.100000000000000000e+01
-2.221953153610229048e+00 3.024822711944580078e+00 -5.944509506225585938e-01 9.000000000000000000e+00
-2.802696466445922852e+00 3.818201541900635210e+00 -5.815604925155639648e-01 9.000000000000000000e+00
-3.701054811477661133e+00 5.043908596038818359e+00 -5.473380684852600098e-01 9.000000000000000000e+00
-5.582580089569091797e+00 7.613678455352783203e+00 -4.947841167449951172e-01 2.000000000000000000e+00
-1.107181644439697088e+01 1.511111068725585938e+01 -3.269882798194885254e-01 3.000000000000000000e+00
-1.381197214126586914e+00 1.890626311302185059e+00 -6.273773908615112305e-01 9.000000000000000000e+00
-1.574150323867798074e+00 2.156326532363892046e+00 -6.163659095764160156e-01 1.600000000000000000e+01
-1.831999540328979048e+00 2.510457277297974077e+00 -6.041013002395629883e-01 1.200000000000000000e+01
-2.209053277969359907e+00 3.029368162155150923e+00 -5.938252210617065430e-01 9.000000000000000000e+00
-2.782337188720703125e+00 3.818335533142089844e+00 -5.800980925559997559e-01 1.100000000000000000e+01
-3.672868013381958008e+00 5.042303085327148438e+00 -5.457692742347717285e-01 8.000000000000000000e+00
-5.541864871978759766e+00 7.613741874694824219e+00 -4.935280680656433105e-01 1.000000000000000000e+00
-1.365516066551208052e+00 1.882924914360045943e+00 -6.232362389564514160e-01 7.000000000000000000e+00
-1.564326763153075950e+00 2.158652305603026900e+00 -6.154660582542419434e-01 1.600000000000000000e+01
-1.818618178367614968e+00 2.510477066040039062e+00 -6.025748252868652344e-01 1.200000000000000000e+01
-2.203098535537720171e+00 3.043461322784423828e+00 -5.950766801834106445e-01 9.000000000000000000e+00
-2.767828226089477983e+00 3.826416015625000000e+00 -5.798543095588684082e-01 1.100000000000000000e+01
-3.663416862487792969e+00 5.066394805908203125e+00 -5.469894409179687500e-01 6.000000000000000000e+00
-5.529291152954101562e+00 7.652466773986816406e+00 -4.947841167449951172e-01 2.000000000000000000e+00
-1.096605205535889027e+01 1.518803787231444957e+01 -3.269882798194885254e-01 3.000000000000000000e+00
-1.352163076400757058e+00 1.878273010253906028e+00 -6.201304197311401367e-01 7.000000000000000000e+00
-1.559058189392090066e+00 2.167263507843018022e+00 -6.163659095764160156e-01 1.600000000000000000e+01
-1.812136292457581010e+00 2.519997835159302202e+00 -6.033380627632141113e-01 1.100000000000000000e+01
-2.192461490631103960e+00 3.051132917404174805e+00 -5.950766801834106445e-01 9.000000000000000000e+00
-2.754454612731934038e+00 3.836054325103760210e+00 -5.798543095588684082e-01 1.100000000000000000e+01
-3.634091615676879883e+00 5.062965393066406250e+00 -5.452463030815124512e-01 8.000000000000000000e+00
-5.483920097351074219e+00 7.645753383636474609e+00 -4.931093752384185791e-01 1.000000000000000000e+00
-1.091296863555908025e+01 1.522622394561767933e+01 -3.269882798194885254e-01 3.000000000000000000e+00
-1.352337598800658958e+00 1.892412066459655984e+00 -6.232362389564514160e-01 8.000000000000000000e+00
-1.548086047172545943e+00 2.167934656143188032e+00 -6.150161623954772949e-01 1.600000000000000000e+01
-1.803328871726989968e+00 2.526308059692382812e+00 -6.033380627632141113e-01 1.100000000000000000e+01
-2.177209138870238814e+00 3.052334785461425781e+00 -5.938252210617065430e-01 9.000000000000000000e+00
-2.745656251907349077e+00 3.852111816406250000e+00 -5.808292627334594727e-01 1.100000000000000000e+01
-3.607147216796875000e+00 5.062638759613037109e+00 -5.438518524169921875e-01 6.000000000000000000e+00
-5.443297386169433594e+00 7.645325183868408203e+00 -4.918533265590667725e-01 1.000000000000000000e+00
-1.081801986694335938e+01 1.520556545257568004e+01 -3.257317245006560724e-01 3.000000000000000000e+00
-1.351312160491942915e+00 1.904999494552612083e+00 -6.258244514465332031e-01 9.000000000000000000e+00
-1.537128329277039018e+00 2.168555736541748047e+00 -6.136664748191833496e-01 1.600000000000000000e+01
-1.795634388923645020e+00 2.534189224243164062e+00 -6.037196516990661621e-01 1.100000000000000000e+01
-2.166541337966918945e+00 3.059916019439696822e+00 -5.938252210617065430e-01 9.000000000000000000e+00
-2.723021030426024947e+00 3.848708391189575195e+00 -5.788793563842773438e-01 1.000000000000000000e+01
-3.598657131195067915e+00 5.088212966918945312e+00 -5.452463030815124512e-01 9.000000000000000000e+00
-5.425798892974854404e+00 7.677327632904052734e+00 -4.926906824111937921e-01 1.000000000000000000e+00
-1.069105052947998047e+01 1.513869476318359020e+01 -3.234978020191193182e-01 3.000000000000000000e+00
-1.347990870475769043e+00 1.914443612098694070e+00 -6.273773908615112305e-01 1.200000000000000000e+01
-1.531792044639586958e+00 2.177095651626586914e+00 -6.145662665367126465e-01 1.700000000000000000e+01
-1.785648107528686968e+00 2.538836002349853960e+00 -6.033380627632141113e-01 1.100000000000000000e+01
-2.155847072601317915e+00 3.067460060119628906e+00 -5.938252210617065430e-01 9.000000000000000000e+00
-2.708428859710692915e+00 3.856565475463867188e+00 -5.786356329917907715e-01 8.000000000000000000e+00
-3.572860479354857954e+00 5.089328765869140625e+00 -5.440261363983154297e-01 9.000000000000000000e+00
-5.364556789398193359e+00 7.647168636322020596e+00 -4.895505309104918878e-01 1.000000000000000000e+00
-1.063814067840575994e+01 1.517592144012450994e+01 -3.234978020191193182e-01 3.000000000000000000e+00
-1.336873292922974077e+00 1.912803530693053977e+00 -6.253067851066589355e-01 1.300000000000000000e+01
-1.523067474365233931e+00 2.180831670761107954e+00 -6.141163706779479980e-01 1.500000000000000000e+01
-1.772279739379883035e+00 2.538614511489868164e+00 -6.018115878105163574e-01 1.100000000000000000e+01
-2.154168128967285156e+00 3.087927579879761186e+00 -5.963281989097595215e-01 1.000000000000000000e+01
-2.697221040725708008e+00 3.869253158569335938e+00 -5.791231393814086914e-01 1.100000000000000000e+01
-3.556212902069091797e+00 5.103404045104979581e+00 -5.442004799842834473e-01 6.000000000000000000e+00
-5.317286968231201172e+00 7.636344909667968750e+00 -4.876664280891417902e-01 1.000000000000000000e+00
-1.326884746551513894e+00 1.912696480751038042e+00 -6.237539052963256836e-01 1.600000000000000000e+01
-1.522106885910033958e+00 2.195744276046752930e+00 -6.168158054351806641e-01 1.500000000000000000e+01
-1.761171102523803933e+00 2.541558027267456055e+00 -6.010483503341674805e-01 1.100000000000000000e+01
-2.138877868652344194e+00 3.088932037353516069e+00 -5.950766801834106445e-01 9.000000000000000000e+00
-2.680309772491455078e+00 3.873747348785399947e+00 -5.783919095993041992e-01 1.000000000000000000e+01
-3.527043342590332031e+00 5.099400043487548828e+00 -5.424573421478271484e-01 6.000000000000000000e+00
-5.311038970947265625e+00 7.684433937072753906e+00 -4.895505309104918878e-01 1.000000000000000000e+00
-1.316913366317749023e+00 1.912543177604675071e+00 -6.222009658813476562e-01 1.900000000000000000e+01
-1.507805347442626953e+00 2.191411495208739790e+00 -6.141163706779479980e-01 1.600000000000000000e+01
-1.754513740539551003e+00 2.550925254821776900e+00 -6.018115878105163574e-01 1.100000000000000000e+01
-2.119131565093994141e+00 3.083355665206909180e+00 -5.925737619400024414e-01 9.000000000000000000e+00
-2.674638032913208008e+00 3.894534349441527876e+00 -5.800980925559997559e-01 9.000000000000000000e+00
-3.519370317459106001e+00 5.126463890075683594e+00 -5.440261363983154297e-01 8.000000000000000000e+00
-5.284183025360107422e+00 7.702925682067871094e+00 -4.895505309104918878e-01 1.000000000000000000e+00
-1.047863864898681996e+01 1.528648948669433949e+01 -3.234978020191193182e-01 3.000000000000000000e+00
-1.314170241355895996e+00 1.921454548835753950e+00 -6.237539052963256836e-01 2.000000000000000000e+01
-1.497614741325377974e+00 2.191310882568358931e+00 -6.127666831016540527e-01 1.600000000000000000e+01
-1.746491193771362083e+00 2.556424617767333984e+00 -6.018115878105163574e-01 1.100000000000000000e+01
-2.111661911010742188e+00 3.093260765075684038e+00 -5.931994915008544922e-01 9.000000000000000000e+00
-2.651203393936156782e+00 3.886518955230712891e+00 -5.776606798171997070e-01 8.000000000000000000e+00
-3.483043193817139116e+00 5.107865333557128906e+00 -5.408885478973388672e-01 6.000000000000000000e+00
-5.235215187072753906e+00 7.683176994323729581e+00 -4.872477650642395020e-01 1.000000000000000000e+00
-1.037429141998291016e+01 1.523668766021729049e+01 -3.217525780200958252e-01 3.000000000000000000e+00
-1.310710191726685014e+00 1.930825352668761985e+00 -6.253067851066589355e-01 1.900000000000000000e+01
-1.485580682754517046e+00 2.190074205398560014e+00 -6.109670400619506836e-01 1.600000000000000000e+01
-1.732047915458678977e+00 2.554380893707274947e+00 -5.999034643173217773e-01 1.200000000000000000e+01
-2.096419334411621094e+00 3.094071626663208008e+00 -5.919480323791503906e-01 9.000000000000000000e+00
-2.630943298339844194e+00 3.885886907577515093e+00 -5.761982798576354980e-01 1.000000000000000000e+01
-3.479709625244141069e+00 5.141442298889160156e+00 -5.431545972824096680e-01 6.000000000000000000e+00
-5.199413299560546875e+00 7.688169002532958984e+00 -4.864103794097899836e-01 1.000000000000000000e+00
-1.029417037963867010e+01 1.523304367065430043e+01 -3.209148347377777100e-01 3.000000000000000000e+00
-1.298565149307250977e+00 1.927378058433532937e+00 -6.227186322212219238e-01 1.700000000000000000e+01
-1.485545039176940918e+00 2.206562280654906782e+00 -6.141163706779479980e-01 1.500000000000000000e+01
-1.725313186645508035e+00 2.563668966293334961e+00 -6.006667017936706543e-01 1.200000000000000000e+01
-2.093322753906250000e+00 3.112844944000244141e+00 -5.941380858421325684e-01 9.000000000000000000e+00
-2.619577169418334961e+00 3.898342370986938032e+00 -5.766857266426086426e-01 8.000000000000000000e+00
-3.447299003601074219e+00 5.132056713104248047e+00 -5.408885478973388672e-01 6.000000000000000000e+00
-5.188127994537354404e+00 7.729488372802734375e+00 -4.878757894039154053e-01 1.000000000000000000e+00
-1.021197414398193004e+01 1.522570514678955078e+01 -3.200073242187500000e-01 3.000000000000000000e+00
-1.288607835769653098e+00 1.927081465721129927e+00 -6.211656928062438965e-01 1.600000000000000000e+01
-1.477833628654479980e+00 2.211734294891356978e+00 -6.141163706779479980e-01 1.500000000000000000e+01
-1.715263366699218972e+00 2.568043231964110884e+00 -6.002851128578186035e-01 1.200000000000000000e+01
-2.074767827987670898e+00 3.108631849288939986e+00 -5.919480323791503906e-01 9.000000000000000000e+00
-2.607054948806763139e+00 3.909114122390747070e+00 -5.769294500350952148e-01 1.000000000000000000e+01
-3.433784484863280806e+00 5.150689601898193359e+00 -5.415858030319213867e-01 9.000000000000000000e+00
-5.136754989624023438e+00 7.710982322692871094e+00 -4.855729937553405762e-01 1.000000000000000000e+00
-1.013660240173340021e+01 1.522796630859375000e+01 -3.193092346191406250e-01 3.000000000000000000e+00
-1.285077929496764915e+00 1.936396718025207964e+00 -6.227186322212219238e-01 1.600000000000000000e+01
-1.472258210182189941e+00 2.220127582550048828e+00 -6.150161623954772949e-01 1.500000000000000000e+01
-1.712797164916991965e+00 2.583833217620850053e+00 -6.025748252868652344e-01 1.200000000000000000e+01
-2.061722278594971147e+00 3.112561464309691939e+00 -5.913223028182983398e-01 9.000000000000000000e+00
-2.602159023284912109e+00 3.931433200836182085e+00 -5.788793563842773438e-01 1.000000000000000000e+01
-3.412486076354980025e+00 5.157659530639648438e+00 -5.410628318786621094e-01 6.000000000000000000e+00
-5.109807014465332031e+00 7.728866100311279297e+00 -4.855729937553405762e-01 1.000000000000000000e+00
-1.010543060302734020e+01 1.529662609100341975e+01 -3.200073242187500000e-01 3.000000000000000000e+00
-1.279373407363892046e+00 1.942484021186829057e+00 -6.232362389564514160e-01 1.600000000000000000e+01
-1.457000255584717019e+00 2.213858366012572798e+00 -6.118668913841247559e-01 1.400000000000000000e+01
-1.702688455581665039e+00 2.588155984878540039e+00 -6.021931767463684082e-01 1.200000000000000000e+01
-2.046504497528076172e+00 3.113136768341064009e+00 -5.900707840919494629e-01 9.000000000000000000e+00
-2.577521085739136186e+00 3.923901081085205078e+00 -5.764420032501220703e-01 1.000000000000000000e+01
-3.398836135864257812e+00 5.176201820373535156e+00 -5.417600870132446289e-01 6.000000000000000000e+00
-5.082797527313232422e+00 7.746655464172363281e+00 -4.855729937553405762e-01 1.000000000000000000e+00
-1.000811672210693004e+01 1.526491451263427912e+01 -3.186111450195313055e-01 3.000000000000000000e+00
-1.278926849365233931e+00 1.956640362739562988e+00 -6.263421177864074707e-01 1.700000000000000000e+01
-1.447132349014282005e+00 2.215667724609375000e+00 -6.109670400619506836e-01 1.400000000000000000e+01
-1.689350605010986106e+00 2.587508201599121094e+00 -6.006667017936706543e-01 1.200000000000000000e+01
-2.042101144790648970e+00 3.130187988281250000e+00 -5.919480323791503906e-01 9.000000000000000000e+00
-2.562724351882935014e+00 3.931211471557617188e+00 -5.761982798576354980e-01 1.000000000000000000e+01
-3.378571510314940962e+00 5.184696197509765625e+00 -5.414114594459533691e-01 6.000000000000000000e+00
-5.025210380554199219e+00 7.717486858367919922e+00 -4.826421737670897882e-01 1.000000000000000000e+00
-9.959133148193359375e+00 1.530646133422851918e+01 -3.187507390975952148e-01 3.000000000000000000e+00
-1.262627363204956055e+00 1.946506142616271973e+00 -6.216833591461181641e-01 1.600000000000000000e+01
-1.443629145622252974e+00 2.227246761322021040e+00 -6.127666831016540527e-01 1.300000000000000000e+01
-1.677105545997620073e+00 2.588446378707886186e+00 -5.995218753814697266e-01 1.100000000000000000e+01
-2.031162261962891069e+00 3.137297153472899947e+00 -5.919480323791503906e-01 9.000000000000000000e+00
-2.554377555847167969e+00 3.948466539382935014e+00 -5.774169564247131348e-01 1.000000000000000000e+01
-3.361534833908081055e+00 5.198130607604979581e+00 -5.415858030319213867e-01 6.000000000000000000e+00
-4.998240470886229581e+00 7.734981060028076172e+00 -4.826421737670897882e-01 1.000000000000000000e+00
-9.890457153320312500e+00 1.531761264801025035e+01 -3.182620704174041748e-01 3.000000000000000000e+00
-1.257211446762084961e+00 1.952306628227234109e+00 -6.222009658813476562e-01 1.600000000000000000e+01
-1.438344359397887962e+00 2.235299348831177202e+00 -6.136664748191833496e-01 1.400000000000000000e+01
-1.672761082649230957e+00 2.600598335266112837e+00 -6.010483503341674805e-01 1.100000000000000000e+01
-2.018611431121826172e+00 3.140691995620727983e+00 -5.913223028182983398e-01 9.000000000000000000e+00
-2.532688140869141069e+00 3.943553209304810014e+00 -5.754670500755310059e-01 1.000000000000000000e+01
-3.331362247467041016e+00 5.189130306243895596e+00 -5.394940376281738281e-01 4.000000000000000000e+00
-4.989817619323729581e+00 7.778410911560058594e+00 -4.843169450759888250e-01 1.000000000000000000e+00
-9.785651206970214844e+00 1.526615047454833984e+01 -3.165168464183806818e-01 3.000000000000000000e+00
-1.248308420181273970e+00 1.953427553176880105e+00 -6.211656928062438965e-01 1.600000000000000000e+01
-1.429484248161315918e+00 2.238663911819458008e+00 -6.132165789604187012e-01 1.300000000000000000e+01
-1.663673043251038042e+00 2.606421470642089844e+00 -6.010483503341674805e-01 1.100000000000000000e+01
-2.001262664794921875e+00 3.137726306915283203e+00 -5.894450545310974121e-01 9.000000000000000000e+00
-2.523174762725830078e+00 3.959065914154053178e+00 -5.764420032501220703e-01 1.000000000000000000e+01
-3.329286336898804155e+00 5.225932598114013672e+00 -5.421087145805358887e-01 6.000000000000000000e+00
-4.926168918609619141e+00 7.738496303558349609e+00 -4.807581007480620783e-01 1.000000000000000000e+00
-9.732302665710449219e+00 1.530021572113036932e+01 -3.165168464183806818e-01 3.000000000000000000e+00
-1.247002720832824929e+00 1.967997312545775923e+00 -6.242715120315551758e-01 1.600000000000000000e+01
-1.410453200340270996e+00 2.227671623229980025e+00 -6.087175607681274414e-01 1.300000000000000000e+01
-1.655752778053283913e+00 2.616108179092406782e+00 -6.018115878105163574e-01 1.100000000000000000e+01
-1.989199876785278098e+00 3.145387411117554155e+00 -5.894450545310974121e-01 9.000000000000000000e+00
-2.505833625793457031e+00 3.965368986129761186e+00 -5.759544968605041504e-01 1.000000000000000000e+01
-3.292170763015747070e+00 5.211726188659667969e+00 -5.393197536468505859e-01 4.000000000000000000e+00
-4.896419048309326172e+00 7.757354259490966797e+00 -4.807581007480620783e-01 1.000000000000000000e+00
-9.645746231079101562e+00 1.529349613189697088e+01 -3.156093060970305841e-01 3.000000000000000000e+00
-1.242182016372681108e+00 1.975609064102173074e+00 -6.253067851066589355e-01 1.800000000000000000e+01
-1.407852172851562944e+00 2.240831851959228960e+00 -6.109670400619506836e-01 1.400000000000000000e+01
-1.645566582679748979e+00 2.620209217071533203e+00 -6.014299392700195312e-01 1.000000000000000000e+01
-1.982408285140990989e+00 3.159004688262939009e+00 -5.906965136528015137e-01 9.000000000000000000e+00
-2.483540058135985884e+00 3.960637331008911133e+00 -5.740045905113220215e-01 1.000000000000000000e+01
-3.283481836318970171e+00 5.238379955291748047e+00 -5.408885478973388672e-01 6.000000000000000000e+00
-4.862950325012207031e+00 7.764242649078369141e+00 -4.801300764083861750e-01 1.000000000000000000e+00
-9.577450752258300781e+00 1.530334186553955078e+01 -3.151206374168395996e-01 3.000000000000000000e+00
-1.234601020812988059e+00 1.978078603744507058e+00 -6.247891783714294434e-01 1.900000000000000000e+01
-1.399382352828979048e+00 2.243834733963013139e+00 -6.105171442031860352e-01 1.300000000000000000e+01
-1.625443816184998003e+00 2.607325553894042969e+00 -5.972321629524230957e-01 1.100000000000000000e+01
-1.969832897186279075e+00 3.162207841873168945e+00 -5.900707840919494629e-01 9.000000000000000000e+00
-2.472490310668944868e+00 3.972221851348876953e+00 -5.744920969009399414e-01 1.000000000000000000e+01
-3.253462076187133789e+00 5.228939533233642578e+00 -5.387967824935913086e-01 6.000000000000000000e+00
-4.835067272186279297e+00 7.776933670043945312e+00 -4.799207150936127264e-01 1.000000000000000000e+00
-9.526650428771972656e+00 1.533501720428466975e+01 -3.151206374168395996e-01 3.000000000000000000e+00
-1.222602963447571023e+00 1.974164128303528054e+00 -6.222009658813476562e-01 1.900000000000000000e+01
-1.394617676734924094e+00 2.253677129745482954e+00 -6.118668913841247559e-01 1.400000000000000000e+01
-1.615299820899962935e+00 2.611313819885253906e+00 -5.968505144119262695e-01 1.200000000000000000e+01
-1.960859894752501997e+00 3.172425270080565962e+00 -5.906965136528015137e-01 9.000000000000000000e+00
-2.457566499710083008e+00 3.979139328002930132e+00 -5.742483735084533691e-01 8.000000000000000000e+00
-3.226816654205321822e+00 5.226701736450195312e+00 -5.374023318290710449e-01 6.000000000000000000e+00
-4.793210506439208984e+00 7.769966125488281250e+00 -4.784553050994873047e-01 1.000000000000000000e+00
-9.437387466430664062e+00 1.531030082702637074e+01 -3.139338791370391846e-01 3.000000000000000000e+00
-1.214026331901550071e+00 1.974915981292725053e+00 -6.211656928062438965e-01 1.700000000000000000e+01
-1.386116623878479004e+00 2.256628990173339844e+00 -6.114169359207153320e-01 1.200000000000000000e+01
-1.612794995307921919e+00 2.626694440841674805e+00 -5.991402268409729004e-01 1.200000000000000000e+01
-1.937932848930359109e+00 3.158705234527587891e+00 -5.869421362876892090e-01 9.000000000000000000e+00
-2.446432828903197798e+00 3.990651845932006836e+00 -5.747358202934265137e-01 8.000000000000000000e+00
-3.210507631301879883e+00 5.239072322845458984e+00 -5.375766158103942871e-01 6.000000000000000000e+00
-4.788277626037597656e+00 7.819884777069091797e+00 -4.805487394332885742e-01 1.000000000000000000e+00
-9.401175498962402344e+00 1.536539268493651988e+01 -3.144225478172302246e-01 3.000000000000000000e+00
-1.209137082099914995e+00 1.982440233230591042e+00 -6.222009658813476562e-01 1.800000000000000000e+01
-1.374174475669861062e+00 2.254797458648682085e+00 -6.096173524856567383e-01 1.200000000000000000e+01
-1.608723402023314986e+00 2.640691280364989790e+00 -6.010483503341674805e-01 1.100000000000000000e+01
-1.935112118721008079e+00 3.178949356079102007e+00 -5.894450545310974121e-01 9.000000000000000000e+00
-2.434551000595093218e+00 4.002559185028076172e+00 -5.752233266830444336e-01 8.000000000000000000e+00
-3.187024831771851030e+00 5.241734981536865234e+00 -5.367050766944885254e-01 6.000000000000000000e+00
-4.721545219421386719e+00 7.771687507629395419e+00 -4.765712320804595947e-01 1.000000000000000000e+00
-3.217340087890625000e+01 5.302012252807617188e+01 1.661773490905762074e+01 2.700000000000000000e+01
-1.202209711074829102e+00 1.986648917198180930e+00 -6.222009658813476562e-01 1.800000000000000000e+01
-1.367303729057312012e+00 2.261248111724853960e+00 -6.100672483444213867e-01 1.300000000000000000e+01
-1.594418168067931907e+00 2.637889623641968218e+00 -5.991402268409729004e-01 1.200000000000000000e+01
-1.919918775558471902e+00 3.178921222686768022e+00 -5.881935954093933105e-01 9.000000000000000000e+00
-2.415436267852783203e+00 4.002534866333007812e+00 -5.740045905113220215e-01 1.000000000000000000e+01
-3.183116197586060014e+00 5.276711940765380859e+00 -5.391454100608825684e-01 6.000000000000000000e+00
-4.700574398040770596e+00 7.798384666442871094e+00 -4.771992564201354980e-01 3.000000000000000000e+00
