-9.382855892181396484e-01 -1.373414635658263938e+00 -4.456863999366760254e-01 5.300000000000000000e+01
-9.447720646858215332e-01 -1.381873369216918945e+00 -3.864659070968627930e-01 3.800000000000000000e+01
-9.409684538841247559e-01 -1.375794529914855957e+00 -3.239936828613281250e-01 3.000000000000000000e+00
-3.259943485260010210e+00 -4.759245395660400391e+00 -7.083046436309814453e-01 1.600000000000000000e+01
-4.063358783721923828e+00 -5.929944038391113281e+00 -6.289158463478088379e-01 1.400000000000000000e+01
-1.041745901107788086e+00 -1.518586993217468040e+00 4.251574873924254816e-01 1.100000000000000000e+01
-2.013598060607910156e+01 -2.934189605712890980e+01 -6.211660504341125488e-01 7.000000000000000000e+00
-1.008095502853393999e+00 -1.468434572219849077e+00 4.772623181343079168e-01 6.400000000000000000e+01
-9.321207404136657715e-01 -1.354217767715454102e+00 -4.405100047588347834e-01 6.400000000000000000e+01
-9.484844803810119629e-01 -1.376962184906006081e+00 -3.860160112380980890e-01 4.900000000000000000e+01
-9.424232244491577148e-01 -1.367651700973510964e+00 -3.228488266468048096e-01 2.400000000000000000e+01
-3.281046628952025923e+00 -4.754372119903563565e+00 -7.092795968055725098e-01 1.800000000000000000e+01
-4.053471088409423828e+00 -5.871454715728759766e+00 -6.242094039916992188e-01 1.100000000000000000e+01
-1.568841361999512074e+01 -2.270771789550780895e+01 -1.446461200714111106e+00 1.300000000000000000e+01
-1.042608499526977983e+00 -1.508528947830199973e+00 4.233578741550446112e-01 1.300000000000000000e+01
-2.002675437927246094e+01 -2.896549224853515980e+01 -6.146737337112426758e-01 7.000000000000000000e+00
-9.978300929069519043e-01 -1.442663073539734109e+00 4.700153768062592108e-01 5.500000000000000000e+01
-9.324386715888977051e-01 -1.344605803489685059e+00 -4.384394586086273193e-01 6.100000000000000000e+01
-9.455078244209289551e-01 -1.362436056137084961e+00 -3.828666806221007746e-01 5.600000000000000000e+01
-9.438326358795166016e-01 -1.359515547752379927e+00 -3.217039704322814941e-01 3.500000000000000000e+01
-9.681712985038757324e-01 -1.393534898757935014e+00 -2.687544226646422785e-01 2.000000000000000000e+00
-3.346350193023682085e+00 -4.812974452972412109e+00 -7.197603583335876465e-01 1.000000000000000000e+00
-4.078492164611816406e+00 -5.863812446594238281e+00 -6.249066591262817383e-01 1.100000000000000000e+01
-1.576758289337158025e+01 -2.265281677246094105e+01 -1.446461200714111106e+00 1.300000000000000000e+01
-1.050095081329345925e+00 -1.508078813552856001e+00 4.242576956748961847e-01 1.600000000000000000e+01
-2.030833053588866832e+01 -2.915466308593750000e+01 -6.201887130737304688e-01 7.000000000000000000e+00
-1.005068778991698997e+00 -1.442341208457946999e+00 4.710506498813629150e-01 6.200000000000000000e+01
-9.393393993377685547e-01 -1.344510078430176003e+00 -4.394747316837310791e-01 6.100000000000000000e+01
-9.457913041114807129e-01 -1.352738976478577104e+00 -3.810670971870421808e-01 6.300000000000000000e+01
-9.530733823776245117e-01 -1.362647891044616921e+00 -3.232304453849791925e-01 4.400000000000000000e+01
-9.605695009231567383e-01 -1.372345209121704102e+00 -2.653128504753112793e-01 1.400000000000000000e+01
-4.126376152038574219e+00 -5.888700008392333984e+00 -6.290901303291320801e-01 6.000000000000000000e+00
-1.584656047821044922e+01 -2.259763908386230113e+01 -1.446461200714111106e+00 1.300000000000000000e+01
-1.053114533424376997e+00 -1.501213431358336958e+00 4.233578741550446112e-01 1.900000000000000000e+01
-2.034335136413573863e+01 -2.898865890502930043e+01 -6.181642413139343262e-01 7.000000000000000000e+00
-1.012317419052124023e+00 -1.441986322402954102e+00 4.720859527587891180e-01 6.900000000000000000e+01
-9.506984353065490723e-01 -1.350701689720154031e+00 -4.425805807113646906e-01 6.100000000000000000e+01
-9.460186362266540527e-01 -1.343056559562683105e+00 -3.792674839496613104e-01 6.000000000000000000e+01
-9.499081969261169434e-01 -1.348078727722167969e+00 -3.205591142177581787e-01 4.900000000000000000e+01
-9.528317451477050781e-01 -1.351225733757019043e+00 -2.618713080883026123e-01 4.000000000000000000e+01
-4.079113006591796875e+00 -5.778227806091308594e+00 -6.188057661056518555e-01 7.000000000000000000e+00
-1.052724838256835938e+00 -1.489571094512939009e+00 4.211083650588989258e-01 1.600000000000000000e+01
-2.037746047973633168e+01 -2.882276725769042969e+01 -6.161397695541381836e-01 7.000000000000000000e+00
-1.021554589271544966e+00 -1.444931149482727051e+00 4.741564989089965820e-01 6.800000000000000000e+01
-9.509377479553222656e-01 -1.341071367263793945e+00 -4.405100047588347834e-01 6.100000000000000000e+01
-9.518287777900695801e-01 -1.341335415840148926e+00 -3.797173798084259033e-01 5.800000000000000000e+01
-9.534716606140136719e-01 -1.343153834342956987e+00 -3.201774954795836847e-01 5.100000000000000000e+01
-9.575425982475280762e-01 -1.347891569137573020e+00 -2.618713080883026123e-01 4.100000000000000000e+01
-9.661755561828613281e-01 -1.359038710594177024e+00 -2.047404944896697998e-01 2.000000000000000000e+00
-1.060178518295288086e+00 -1.489062309265136941e+00 4.220081865787506104e-01 1.300000000000000000e+01
-2.052899169921875000e+01 -2.882312774658203125e+01 -6.176755428314208984e-01 7.000000000000000000e+00
-1.022359609603882058e+00 -1.434883832931518999e+00 4.720859527587891180e-01 7.000000000000000000e+01
-9.511214494705200195e-01 -1.331455945968627930e+00 -4.384394586086273193e-01 5.900000000000000000e+01
-9.610383510589599609e-01 -1.344345927238463911e+00 -3.815169930458068848e-01 5.800000000000000000e+01
-9.535862803459167480e-01 -1.333429694175719993e+00 -3.186510205268859863e-01 5.100000000000000000e+01
-9.633914232254028320e-01 -1.346147298812865989e+00 -2.621841728687285822e-01 4.500000000000000000e+01
-9.847837686538696289e-01 -1.375024318695067915e+00 -2.076653540134429932e-01 2.600000000000000000e+01
-1.064234018325806108e+00 -1.483769059181212935e+00 4.215582907199860174e-01 1.100000000000000000e+01
-1.023733496665955034e+00 -1.426776885986327903e+00 4.705330133438109796e-01 7.300000000000000000e+01
-9.580200910568237305e-01 -1.331263899803162065e+00 -4.394747316837310791e-01 6.100000000000000000e+01
-9.634474515914916992e-01 -1.337820410728455034e+00 -3.806171715259552002e-01 5.800000000000000000e+01
-9.593825936317443848e-01 -1.331685900688170943e+00 -3.190326392650604248e-01 5.300000000000000000e+01
-9.565321803092956543e-01 -1.326752543449402078e+00 -2.590554654598236084e-01 4.400000000000000000e+01
-9.849316477775573730e-01 -1.365139126777648926e+00 -2.066904008388519010e-01 4.200000000000000000e+01
-1.076254725456238015e+00 -1.489522457122802956e+00 4.242576956748961847e-01 1.100000000000000000e+01
-1.028956055641174094e+00 -1.423015117645263894e+00 4.705330133438109796e-01 7.200000000000000000e+01
-9.683306217193603516e-01 -1.335732102394104004e+00 -4.420629143714904785e-01 6.400000000000000000e+01
-9.623897671699523926e-01 -1.326562404632567915e+00 -3.783676624298096258e-01 5.600000000000000000e+01
-9.674845933914184570e-01 -1.333095669746398926e+00 -3.201774954795836847e-01 5.500000000000000000e+01
-9.658008813858032227e-01 -1.329798817634582964e+00 -2.603069543838500977e-01 4.400000000000000000e+01
-9.850224852561950684e-01 -1.355269670486449973e+00 -2.057154476642608920e-01 4.800000000000000000e+01
-1.038090467453002930e+00 -1.427760601043700950e+00 -1.544399708509444913e-01 1.000000000000000000e+00
-1.007049679756164995e+00 -1.384052038192749023e+00 -8.970382809638977051e-02 2.000000000000000000e+00
-1.083741188049315962e+00 -1.488907694816588911e+00 4.251574873924254816e-01 1.300000000000000000e+01
-1.037080764770508035e+00 -1.424280285835265891e+00 4.720859527587891180e-01 6.800000000000000000e+01
-9.718480110168457031e-01 -1.330783724784851074e+00 -4.415452778339385986e-01 6.100000000000000000e+01
-9.693141579627990723e-01 -1.326341748237610085e+00 -3.792674839496613104e-01 5.600000000000000000e+01
-9.605453014373779297e-01 -1.313861608505249023e+00 -3.163613080978394110e-01 6.000000000000000000e+01
-9.681040644645690918e-01 -1.323230981826782005e+00 -2.596812248229979914e-01 4.400000000000000000e+01
-9.686388969421386719e-01 -1.322992682456969993e+00 -2.013281583786011020e-01 4.200000000000000000e+01
-9.794949889183044434e-01 -1.337330460548401101e+00 -1.450271606445313055e-01 5.000000000000000000e+00
-9.953448176383972168e-01 -1.357975959777832031e+00 -8.823842555284500122e-02 2.500000000000000000e+01
-1.085474967956542969e+00 -1.480401039123534934e+00 4.238077998161315918e-01 1.900000000000000000e+01
-1.045722603797913042e+00 -1.425142288208008035e+00 4.736388623714447021e-01 5.900000000000000000e+01
-9.760239720344543457e-01 -1.327723979949950950e+00 -4.415452778339385986e-01 6.100000000000000000e+01
-9.757857322692871094e-01 -1.326429486274719016e+00 -3.801672756671906073e-01 5.500000000000000000e+01
-9.635044932365417480e-01 -1.309256196022033913e+00 -3.159796893596649170e-01 6.700000000000000000e+01
-9.792847037315368652e-01 -1.329726576805114968e+00 -2.615584135055541992e-01 4.300000000000000000e+01
-9.751458764076232910e-01 -1.323139071464539018e+00 -2.018156349658966064e-01 4.900000000000000000e+01
-9.860561490058898926e-01 -1.337453961372375044e+00 -1.453757733106612882e-01 4.100000000000000000e+01
-9.924914240837097168e-01 -1.345199346542357954e+00 -8.761039376258850098e-02 4.800000000000000000e+01
-1.094749331474303977e+00 -1.483255267143249956e+00 4.256073832511901855e-01 2.000000000000000000e+01
-1.016739964485168013e+00 -1.377058863639831987e+00 -2.987851947546004902e-02 3.000000000000000000e+00
-1.030439257621764915e+00 -1.395612955093384011e+00 4.648390114307404120e-01 4.800000000000000000e+01
-9.714553952217102051e-01 -1.311888694763184038e+00 -4.374041855335236151e-01 6.100000000000000000e+01
-9.815701246261596680e-01 -1.324580907821655051e+00 -3.806171715259552002e-01 5.300000000000000000e+01
-9.668996334075927734e-01 -1.304307818412780984e+00 -3.155980706214904785e-01 6.500000000000000000e+01
-9.756817817687988281e-01 -1.315194725990294966e+00 -2.593683302402495783e-01 4.200000000000000000e+01
-9.809418320655822754e-01 -1.321321010589600053e+00 -2.020593732595444003e-01 5.000000000000000000e+01
-9.776516556739807129e-01 -1.316409111022948997e+00 -1.434583514928818027e-01 5.700000000000000000e+01
-9.959896206855773926e-01 -1.340123653411865012e+00 -8.750572055578231812e-02 4.700000000000000000e+01
-1.105733752250670943e+00 -1.487244248390197976e+00 4.278568923473358154e-01 2.200000000000000000e+01
-1.025120854377747026e+00 -1.378314971923827903e+00 -2.998323366045951843e-02 3.400000000000000000e+01
-1.026322245597838911e+00 -1.379427433013916016e+00 4.606978893280028742e-01 5.300000000000000000e+01
-9.822635650634765625e-01 -1.315889477729796919e+00 -4.399923682212830145e-01 6.400000000000000000e+01
-1.020586252212523970e+00 -1.366730809211730957e+00 2.977380529046059002e-02 1.000000000000000000e+00
-9.843164086341857910e-01 -1.317679762840270996e+00 -3.797173798084259033e-01 5.300000000000000000e+01
-9.813023805618286133e-01 -1.313166856765747070e+00 -3.186510205268859863e-01 6.400000000000000000e+01
-9.783585071563720703e-01 -1.308274745941162109e+00 -2.587426006793975830e-01 4.500000000000000000e+01
-9.883868694305419922e-01 -1.320723414421081987e+00 -2.025468498468399048e-01 5.400000000000000000e+01
-9.767288565635681152e-01 -1.304670691490172896e+00 -1.425867974758147916e-01 6.300000000000000000e+01
-9.999305009841918945e-01 -1.334691047668457031e+00 -8.740104734897613525e-02 4.900000000000000000e+01
-1.114942312240601030e+00 -1.487665772438049094e+00 4.292066097259520929e-01 2.200000000000000000e+01
-1.026806950569153054e+00 -1.369568824768065962e+00 -2.987851947546004902e-02 5.200000000000000000e+01
-1.030212283134460005e+00 -1.374110937118530051e+00 4.601802527904509943e-01 5.900000000000000000e+01
-9.903339147567749023e-01 -1.317084908485413042e+00 -4.415452778339385986e-01 6.100000000000000000e+01
-1.014532446861267090e+00 -1.348777294158935991e+00 2.945966273546218872e-02 1.300000000000000000e+01
-9.842231869697570801e-01 -1.308007240295409934e+00 -3.779177665710449219e-01 5.200000000000000000e+01
-9.906029701232910156e-01 -1.316007614135741965e+00 -3.201774954795836847e-01 5.800000000000000000e+01
-9.817307591438293457e-01 -1.303273916244507058e+00 -2.584297358989716131e-01 4.300000000000000000e+01
-9.882112741470336914e-01 -1.310924530029297097e+00 -2.015718966722488126e-01 5.800000000000000000e+01
-9.848759174346923828e-01 -1.306025624275207964e+00 -1.431097239255904874e-01 6.200000000000000000e+01
-9.889430999755859375e-01 -1.310467362403870073e+00 -8.604031056165695190e-02 5.300000000000000000e+01
-1.121302604675292969e+00 -1.485320091247559038e+00 4.296565055847167969e-01 4.000000000000000000e+00
-1.018325090408324973e+00 -1.348422765731811968e+00 -2.949456684291363109e-02 4.900000000000000000e+01
-1.043393254280090110e+00 -1.381115674972533958e+00 4.638037383556365967e-01 6.400000000000000000e+01
-9.984244704246520996e-01 -1.318239927291869895e+00 -4.430982172489166260e-01 5.700000000000000000e+01
-1.013196229934691939e+00 -1.337258338928223100e+00 2.928513847291469921e-02 4.000000000000000000e+01
-9.876058697700500488e-01 -1.303010582923888938e+00 -3.774678707122802734e-01 5.100000000000000000e+01
-1.026908397674560991e+00 -1.354373812675476074e+00 8.907579630613327026e-02 7.000000000000000000e+00
-9.916321635246276855e-01 -1.307848572731018066e+00 -3.190326392650604248e-01 6.000000000000000000e+01
-1.086046576499938965e+00 -1.431851148605346902e+00 1.572289615869522095e-01 1.000000000000000000e+00
-9.886621236801147461e-01 -1.302986383438109907e+00 -2.590554654598236084e-01 4.400000000000000000e+01
-1.124573349952697976e+00 -1.481570720672606978e+00 2.283831536769866943e-01 1.000000000000000000e+00
-9.783757328987121582e-01 -1.288495421409606934e+00 -1.986470371484755915e-01 5.200000000000000000e+01
-9.906339049339294434e-01 -1.304166436195373979e+00 -1.432840377092360895e-01 6.600000000000000000e+01
-9.923028349876403809e-01 -1.305417299270630105e+00 -8.593563735485076904e-02 5.500000000000000000e+01
-1.012129664421081987e+00 -1.330536007881164995e+00 -2.918042428791522980e-02 5.000000000000000000e+01
-1.045628309249877930e+00 -1.374572992324829102e+00 4.627684652805327814e-01 6.400000000000000000e+01
-9.971611499786376953e-01 -1.307067155838012917e+00 -4.405100047588347834e-01 5.400000000000000000e+01
-1.013005256652832031e+00 -1.327354907989501953e+00 2.914551831781864166e-02 4.300000000000000000e+01
-1.005156159400939941e+00 -1.316593527793884055e+00 -3.824167847633361816e-01 6.100000000000000000e+01
-1.034054398536681907e+00 -1.353955626487731934e+00 8.928514271974563599e-02 3.900000000000000000e+01
-9.914249181747436523e-01 -1.298138022422790971e+00 -3.175061643123627264e-01 6.900000000000000000e+01
-1.068056106567383035e+00 -1.397970557212830034e+00 1.539170444011687955e-01 2.100000000000000000e+01
-9.932043552398681641e-01 -1.299527406692505105e+00 -2.590554654598236084e-01 4.300000000000000000e+01
-1.052573561668395996e+00 -1.376709103584289995e+00 2.127838730812073031e-01 6.000000000000000000e+00
-9.816614985466003418e-01 -1.283495545387268066e+00 -1.984032839536666870e-01 5.500000000000000000e+01
-9.830734729766845703e-01 -1.284876942634582964e+00 -1.415409296751022061e-01 7.000000000000000000e+01
-9.980677366256713867e-01 -1.303531289100646973e+00 -8.604031056165695190e-02 5.800000000000000000e+01
-1.011903047561645952e+00 -1.320645689964293990e+00 -2.904080413281917919e-02 5.100000000000000000e+01
-1.050420045852660911e+00 -1.370914697647094949e+00 4.627684652805327814e-01 6.400000000000000000e+01
-9.981862902641296387e-01 -1.298982977867126021e+00 -4.389570951461791992e-01 4.900000000000000000e+01
-1.009101271629333052e+00 -1.312712907791137917e+00 2.890118584036827087e-02 4.700000000000000000e+01
-1.008557796478271040e+00 -1.311532139778136985e+00 -3.819668889045714777e-01 5.500000000000000000e+01
-1.031467437744141069e+00 -1.340839505195617898e+00 8.865711092948913574e-02 4.000000000000000000e+01
-9.959502220153808594e-01 -1.294669508934020996e+00 -3.175061643123627264e-01 6.700000000000000000e+01
-1.049842596054076926e+00 -1.364233255386352983e+00 1.506051272153854093e-01 3.100000000000000000e+01
-9.977344870567321777e-01 -1.296052575111388938e+00 -2.590554654598236084e-01 4.300000000000000000e+01
-1.052528023719788042e+00 -1.366735458374022993e+00 2.118089199066162109e-01 1.500000000000000000e+01
-9.921930432319641113e-01 -1.287923932075500044e+00 -1.996219903230667114e-01 6.100000000000000000e+01
-1.063526868820189986e+00 -1.380020976066588911e+00 2.759504020214080811e-01 1.000000000000000000e+00
-9.814715385437011719e-01 -1.273546934127808061e+00 -1.406693756580353061e-01 7.200000000000000000e+01
-1.001392126083374023e+00 -1.298457860946655051e+00 -8.593563735485076904e-02 6.600000000000000000e+01
-1.010397911071776900e+00 -1.309190154075623003e+00 -2.886627987027167927e-02 4.900000000000000000e+01
-1.048117160797118919e+00 -1.358063578605652078e+00 4.596626162528992254e-01 6.200000000000000000e+01
-1.016903877258301003e+00 -1.313823223114013894e+00 -4.451687633991240900e-01 4.200000000000000000e+01
-1.002659201622009055e+00 -1.294952273368835005e+00 2.858704142272472035e-02 5.000000000000000000e+01
-1.015516400337219016e+00 -1.311084866523742898e+00 -3.828666806221007746e-01 5.400000000000000000e+01
-1.022685170173645020e+00 -1.319864273071289062e+00 8.750572055578231812e-02 4.800000000000000000e+01
-1.012488245964050071e+00 -1.306704044342041016e+00 -3.213223516941071112e-01 6.200000000000000000e+01
-1.036289334297179954e+00 -1.336939573287964089e+00 1.479904502630234042e-01 3.600000000000000000e+01
-9.937793612480163574e-01 -1.281634449958801047e+00 -2.568653821945189875e-01 4.500000000000000000e+01
-1.048775672912598100e+00 -1.352073431015015093e+00 2.101027518510817926e-01 2.600000000000000000e+01
-1.001550555229187012e+00 -1.290725946426392046e+00 -2.005969434976578036e-01 6.400000000000000000e+01
-1.080450177192687988e+00 -1.391904473304748979e+00 2.790790796279907227e-01 8.000000000000000000e+00
-9.871327877044677734e-01 -1.271687030792236106e+00 -1.408436745405196866e-01 8.100000000000000000e+01
-9.997922778129577637e-01 -1.287068009376526101e+00 -8.541227877140045166e-02 6.900000000000000000e+01
-1.012507081031799094e+00 -1.302497625350951926e+00 -2.879646979272365917e-02 5.200000000000000000e+01
-1.056645393371582031e+00 -1.358788013458251953e+00 4.612155258655548096e-01 5.400000000000000000e+01
-1.048802495002747026e+00 -1.345307469367980957e+00 -4.570744335651398260e-01 4.900000000000000000e+01
-1.010862588882446067e+00 -1.296175003051758035e+00 2.869175560772418976e-02 5.400000000000000000e+01
-1.014093279838562012e+00 -1.299849748611449973e+00 -3.806171715259552002e-01 5.200000000000000000e+01
-1.028514981269835982e+00 -1.317860841751099077e+00 8.761039376258850098e-02 5.200000000000000000e+01
-1.017043232917786089e+00 -1.303161859512329102e+00 -3.213223516941071112e-01 5.600000000000000000e+01
-1.045854210853577104e+00 -1.339595913887023926e+00 1.486876904964447021e-01 4.100000000000000000e+01
-9.958152174949645996e-01 -1.275043964385986106e+00 -2.562396526336669922e-01 5.100000000000000000e+01
-1.041267395019531028e+00 -1.332761526107788086e+00 2.076653540134429932e-01 4.000000000000000000e+01
-9.974929690361022949e-01 -1.276273608207703081e+00 -1.988907754421234131e-01 5.400000000000000000e+01
-1.085302352905272993e+00 -1.388124585151671919e+00 2.790790796279907227e-01 1.200000000000000000e+01
-1.000156044960021973e+00 -1.279220700263977051e+00 -1.420638561248779019e-01 8.000000000000000000e+01
-1.000586628913878950e+00 -1.278851270675658958e+00 -8.509826660156250000e-02 6.600000000000000000e+01
-1.020745873451232910e+00 -1.303678870201111062e+00 -2.890118584036827087e-02 5.600000000000000000e+01
-1.075437068939208984e+00 -1.373529434204102007e+00 4.674271941184998114e-01 5.900000000000000000e+01
-1.064229846000670943e+00 -1.355312943458556907e+00 -4.617331624031066895e-01 4.600000000000000000e+01
-1.021557211875915971e+00 -1.300501346588134988e+00 2.886627987027167927e-02 5.600000000000000000e+01
-1.018624424934386985e+00 -1.296301960945128950e+00 -3.806171715259552002e-01 4.900000000000000000e+01
-1.018297314643860085e+00 -1.295420169830322044e+00 8.635433018207550049e-02 5.000000000000000000e+01
-1.019159436225890891e+00 -1.296516895294189009e+00 -3.205591142177581787e-01 5.500000000000000000e+01
-1.045597553253174050e+00 -1.329672336578368919e+00 1.479904502630234042e-01 4.300000000000000000e+01
-1.005145192146301047e+00 -1.277770519256592019e+00 -2.574911415576934814e-01 5.200000000000000000e+01
-1.049596071243285911e+00 -1.333798646926880105e+00 2.083965837955475131e-01 3.800000000000000000e+01
-9.958025813102722168e-01 -1.264984965324402078e+00 -1.976720690727233887e-01 5.100000000000000000e+01
-1.064476370811461958e+00 -1.351737022399901900e+00 2.725088298320770264e-01 1.700000000000000000e+01
-1.012011289596558061e+00 -1.285113573074341042e+00 -1.431097239255904874e-01 8.000000000000000000e+01
-1.063038110733032005e+00 -1.349425911903380904e+00 3.339157402515410822e-01 5.000000000000000000e+00
-1.005044579505919966e+00 -1.275350809097290039e+00 -8.509826660156250000e-02 6.600000000000000000e+01
-1.016622424125670943e+00 -1.289116621017456055e+00 -2.865685150027275085e-02 5.600000000000000000e+01
-1.092187643051147017e+00 -1.384936094284058061e+00 4.726035892963408869e-01 7.500000000000000000e+01
-1.054573774337768999e+00 -1.333407044410706010e+00 -4.555215239524840753e-01 1.100000000000000000e+01
-1.026090502738953081e+00 -1.296927452087401900e+00 2.886627987027167927e-02 5.600000000000000000e+01
-1.038865208625793013e+00 -1.312603116035460982e+00 -3.864659070968627930e-01 4.700000000000000000e+01
-1.026306033134460005e+00 -1.296734571456908958e+00 8.666834235191345215e-02 5.800000000000000000e+01
-1.022460222244262917e+00 -1.291412234306335005e+00 -3.201774954795836847e-01 5.300000000000000000e+01
-1.041573524475098100e+00 -1.315081477165221946e+00 1.467702686786651889e-01 4.500000000000000000e+01
-1.012052774429321067e+00 -1.277350783348083052e+00 -2.581168711185454767e-01 5.100000000000000000e+01
-1.048080325126647949e+00 -1.322348237037658913e+00 2.071778774261474887e-01 3.700000000000000000e+01
-1.007611989974976030e+00 -1.270834207534790039e+00 -1.991345137357712070e-01 5.000000000000000000e+01
-1.055453062057494895e+00 -1.331173062324523926e+00 2.690672874450684149e-01 4.500000000000000000e+01
-1.014014720916748047e+00 -1.278451204299926980e+00 -1.427611112594603937e-01 7.700000000000000000e+01
-1.088486671447753906e+00 -1.371852159500122070e+00 3.404032588005065918e-01 1.900000000000000000e+01
-1.010731935501099077e+00 -1.273399114608765093e+00 -8.520293980836868286e-02 7.000000000000000000e+01
-1.123327374458312988e+00 -1.414748430252074973e+00 4.170592427253723145e-01 1.000000000000000000e+00
-1.012409925460814986e+00 -1.274599194526671919e+00 -2.841251716017723083e-02 5.900000000000000000e+01
-1.105426073074341042e+00 -1.391704320907592995e+00 4.762270450592041016e-01 6.800000000000000000e+01
-1.166347622871398926e+00 -1.464200615882873979e+00 -5.015913248062133789e-01 1.000000000000000000e+00
-1.030611395835876021e+00 -1.293337821960448997e+00 2.886627987027167927e-02 5.600000000000000000e+01
-1.047084927558898926e+00 -1.313540339469909890e+00 -3.878156244754791260e-01 2.500000000000000000e+01
-1.028561353683471902e+00 -1.289841175079345925e+00 8.645900338888168335e-02 5.300000000000000000e+01
-1.034306049346924050e+00 -1.297045111656188965e+00 -3.224672079086304266e-01 4.900000000000000000e+01
-1.041187763214111106e+00 -1.305207490921020952e+00 1.460730284452438077e-01 5.100000000000000000e+01
-1.025130271911621094e+00 -1.284618258476257102e+00 -2.603069543838500977e-01 4.700000000000000000e+01
-1.053928256034851074e+00 -1.320233106613158958e+00 2.074216157197951993e-01 4.600000000000000000e+01
-1.018235564231873003e+00 -1.275065064430237038e+00 -2.003532052040100098e-01 4.900000000000000000e+01
-1.057859063148498979e+00 -1.324208974838257058e+00 2.684415280818939209e-01 5.000000000000000000e+01
-1.011009812355041948e+00 -1.265563845634460005e+00 -1.417152434587478915e-01 7.600000000000000000e+01
-1.081012368202209029e+00 -1.352707505226135032e+00 3.365870714187622070e-01 4.000000000000000000e+01
-1.023900747299193892e+00 -1.280783414840698020e+00 -8.593563735485076904e-02 6.600000000000000000e+01
-1.127041816711426003e+00 -1.409296751022339089e+00 4.166093468666077215e-01 9.000000000000000000e+00
-1.018102049827575906e+00 -1.272618889808655007e+00 -2.844742313027381897e-02 5.700000000000000000e+01
-1.096034526824950950e+00 -1.369543671607970969e+00 4.700153768062592108e-01 2.100000000000000000e+01
-1.714260339736938032e+00 -2.136687994003295898e+00 -7.340108156204223633e-01 1.900000000000000000e+01
-1.023854851722717063e+00 -1.275696635246277078e+00 2.855213731527328144e-02 6.100000000000000000e+01
-2.008165121078491211e+00 -2.501227378845214844e+00 -7.405388951301574707e-01 1.700000000000000000e+01
-1.041585803031920943e+00 -1.297325134277343972e+00 8.719170093536376953e-02 5.600000000000000000e+01
-1.044974207878113015e+00 -1.301080226898192915e+00 -3.243753015995026190e-01 3.600000000000000000e+01
-1.044489502906799094e+00 -1.300011992454529031e+00 1.458987146615982056e-01 5.600000000000000000e+01
-1.024658203125000000e+00 -1.274873256683350053e+00 -2.590554654598236084e-01 4.300000000000000000e+01
-1.049823284149169922e+00 -1.305716753005981001e+00 2.057154476642608920e-01 4.600000000000000000e+01
-1.038853883743285911e+00 -1.291611909866333008e+00 -2.035218030214309970e-01 5.000000000000000000e+01
-1.059998393058777078e+00 -1.317430138587952104e+00 2.678157985210419256e-01 5.200000000000000000e+01
-1.022915244102478027e+00 -1.271340966224669966e+00 -1.427611112594603937e-01 7.200000000000000000e+01
-1.079572677612304910e+00 -1.341278791427612083e+00 3.346789777278900146e-01 5.400000000000000000e+01
-1.023355007171631081e+00 -1.270978927612304910e+00 -8.551695197820663452e-02 6.400000000000000000e+01
-1.112395763397217019e+00 -1.381071448326111062e+00 4.094109237194060724e-01 1.700000000000000000e+01
-1.030066013336182085e+00 -1.278400063514709029e+00 -2.865685150027275085e-02 5.500000000000000000e+01
-1.104206323623657005e+00 -1.370414495468140093e+00 4.715682864189147949e-01 3.500000000000000000e+01
-1.728993415832519975e+00 -2.139706611633300781e+00 -7.371166348457336426e-01 1.600000000000000000e+01
-1.028301596641540971e+00 -1.272114992141724077e+00 2.855213731527328144e-02 6.000000000000000000e+01
-2.019334554672241211e+00 -2.497233152389525923e+00 -7.414386868476867676e-01 2.400000000000000000e+01
-1.046108007431030051e+00 -1.293681383132935014e+00 8.719170093536376953e-02 5.600000000000000000e+01
-2.433627128601074219e+00 -3.008498668670653853e+00 -7.521690726280212402e-01 7.000000000000000000e+00
-1.047767758369446023e+00 -1.294809341430664062e+00 1.457244008779526034e-01 5.900000000000000000e+01
-1.042773723602294922e+00 -1.288177967071532981e+00 -2.624970376491547186e-01 4.500000000000000000e+01
-1.041882038116455078e+00 -1.286617159843445046e+00 2.032780647277832031e-01 4.500000000000000000e+01
-1.044605612754821999e+00 -1.289520263671875000e+00 -2.037655413150787076e-01 5.100000000000000000e+01
-1.064590573310852051e+00 -1.313722014427185059e+00 2.678157985210419256e-01 5.200000000000000000e+01
-1.022329211235045943e+00 -1.261570811271667036e+00 -1.420638561248779019e-01 6.500000000000000000e+01
-1.086720585823059082e+00 -1.340552449226378950e+00 3.354422152042388916e-01 6.000000000000000000e+01
-1.021495342254638894e+00 -1.259642601013184038e+00 -8.499359339475631714e-02 6.300000000000000000e+01
-1.109843611717223899e+00 -1.368099808692931907e+00 4.067115187644957941e-01 2.900000000000000000e+01
-1.042082667350769043e+00 -1.284113049507140891e+00 -2.886627987027167927e-02 5.600000000000000000e+01
-1.100461959838866965e+00 -1.356051325798034890e+00 4.679448306560515802e-01 4.300000000000000000e+01
-1.742548942565917969e+00 -2.141150236129761186e+00 -7.397048473358154297e-01 1.700000000000000000e+01
-1.040310978889465110e+00 -1.277822375297545943e+00 2.876156568527222027e-02 6.000000000000000000e+01
-2.028039216995238814e+00 -2.490169048309326172e+00 -7.414386868476867676e-01 2.500000000000000000e+01
-1.036965847015381081e+00 -1.272805929183959961e+00 8.604031056165695190e-02 5.400000000000000000e+01
-2.432953596115111861e+00 -2.986286878585814986e+00 -7.487344741821289062e-01 1.300000000000000000e+01
-1.054798483848571999e+00 -1.294232845306396040e+00 1.460730284452438077e-01 5.900000000000000000e+01
-1.056001543998718040e+00 -1.295247316360474077e+00 -2.646871209144591730e-01 4.900000000000000000e+01
-1.050130724906920943e+00 -1.287587523460387962e+00 2.040092796087265015e-01 5.000000000000000000e+01
-1.046590805053710938e+00 -1.282789826393126997e+00 -2.032780647277832031e-01 5.200000000000000000e+01
-1.072687506675719993e+00 -1.314776301383971946e+00 2.687544226646422785e-01 5.200000000000000000e+01
-1.039324522018433061e+00 -1.273429989814758079e+00 -1.438069790601730069e-01 6.200000000000000000e+01
-1.086426854133605957e+00 -1.330667853355407937e+00 3.339157402515410822e-01 5.600000000000000000e+01
-1.029676318168639915e+00 -1.260709881782531960e+00 -8.530760556459426880e-02 6.400000000000000000e+01
-1.104748487472533958e+00 -1.352144718170166016e+00 4.031122922897338867e-01 3.800000000000000000e+01
-1.040231227874756081e+00 -1.272726058959960938e+00 -2.869175560772418976e-02 5.400000000000000000e+01
-1.101756334304810014e+00 -1.347522020339966042e+00 4.663919210433959961e-01 4.500000000000000000e+01
-1.737765908241271973e+00 -2.120113611221313032e+00 -7.345284223556518555e-01 1.700000000000000000e+01
-1.042229175567626953e+00 -1.271090507507323997e+00 2.869175560772418976e-02 6.100000000000000000e+01
-2.040426731109619141e+00 -2.487594842910767046e+00 -7.427883744239807129e-01 2.900000000000000000e+01
-1.043714284896851030e+00 -1.272448658943176047e+00 8.624965697526931763e-02 5.400000000000000000e+01
-2.439626932144165039e+00 -2.973222970962523970e+00 -7.475896477699279785e-01 1.500000000000000000e+01
-1.058045744895935059e+00 -1.289003014564513938e+00 1.458987146615982056e-01 5.800000000000000000e+01
-1.064277052879333052e+00 -1.296133279800415039e+00 -2.656257152557373047e-01 5.100000000000000000e+01
-1.054618835449218972e+00 -1.283914089202881081e+00 2.040092796087265015e-01 5.100000000000000000e+01
-1.057363510131835938e+00 -1.286797404289246050e+00 -2.044967561960220059e-01 5.000000000000000000e+01
-1.071227431297302024e+00 -1.303205847740172896e+00 2.671900689601898193e-01 5.100000000000000000e+01
-1.038702726364135964e+00 -1.263637781143188032e+00 -1.431097239255904874e-01 6.200000000000000000e+01
-1.099793672561645952e+00 -1.337482333183289018e+00 3.365870714187622070e-01 5.400000000000000000e+01
-1.041683554649353027e+00 -1.266362667083740012e+00 -8.593563735485076904e-02 6.000000000000000000e+01
-1.106985211372375044e+00 -1.345270633697509988e+00 4.022124707698822021e-01 4.000000000000000000e+01
-1.039584040641784890e+00 -1.262911677360534890e+00 -2.855213731527328144e-02 5.400000000000000000e+01
-1.100313186645508035e+00 -1.336211442947387917e+00 4.638037383556365967e-01 4.000000000000000000e+01
-1.745155930519104004e+00 -2.114034652709960938e+00 -7.345284223556518555e-01 1.800000000000000000e+01
-1.041566491127013938e+00 -1.261277079582213911e+00 2.855213731527328144e-02 6.100000000000000000e+01
-2.050338745117187944e+00 -2.481959581375122070e+00 -7.432382702827453613e-01 2.800000000000000000e+01
-1.050693631172179954e+00 -1.271877288818358931e+00 8.645900338888168335e-02 5.300000000000000000e+01
-2.457494258880614790e+00 -2.973769187927246094e+00 -7.498793601989746094e-01 1.500000000000000000e+01
-1.056191444396973100e+00 -1.277623891830443892e+00 1.450271606445313055e-01 6.100000000000000000e+01
-1.063759326934814009e+00 -1.286321163177490012e+00 -2.643742561340332031e-01 1.600000000000000000e+01
-1.065420866012573020e+00 -1.287872552871704102e+00 2.052279710769653043e-01 5.400000000000000000e+01
-1.073239326477051003e+00 -1.296862602233886941e+00 -2.066904008388519010e-01 5.100000000000000000e+01
-1.075543045997620073e+00 -1.299646377563477007e+00 2.671900689601898193e-01 5.000000000000000000e+01
-1.048189401626586914e+00 -1.266143202781677024e+00 -1.438069790601730069e-01 6.500000000000000000e+01
-1.105707883834839089e+00 -1.335147261619568093e+00 3.369686901569365900e-01 5.000000000000000000e+01
-1.053742647171020952e+00 -1.271947026252747026e+00 -8.656366914510726929e-02 5.900000000000000000e+01
-1.105456948280334029e+00 -1.333896040916443093e+00 3.999629616737365723e-01 4.300000000000000000e+01
-1.051643729209899902e+00 -1.268511891365051047e+00 -2.876156568527222027e-02 5.400000000000000000e+01
-1.088938713073730025e+00 -1.313031315803528054e+00 4.570744335651398260e-01 4.600000000000000000e+01
-1.753759741783142090e+00 -2.109415531158446822e+00 -7.350460886955261230e-01 1.900000000000000000e+01
-1.043405532836914062e+00 -1.254558801651000977e+00 2.848232723772526134e-02 6.100000000000000000e+01
-2.056497097015380859e+00 -2.471791505813599077e+00 -7.423384785652160645e-01 2.700000000000000000e+01
-1.056404232978821023e+00 -1.269737243652343972e+00 8.656366914510726929e-02 5.600000000000000000e+01
-2.464092016220093218e+00 -2.960645914077758789e+00 -7.487344741821289062e-01 1.400000000000000000e+01
-1.058095097541809082e+00 -1.270866990089416948e+00 1.446785330772399902e-01 6.100000000000000000e+01
-3.096008300781250000e+00 -3.717263698577880859e+00 -7.662159800529479980e-01 1.300000000000000000e+01
-1.071180582046509011e+00 -1.285670876502990945e+00 2.054717093706130981e-01 6.500000000000000000e+01
-1.081572532653809038e+00 -1.297683000564574973e+00 -2.074216157197951993e-01 4.800000000000000000e+01
-1.081337809562683105e+00 -1.297401547431946023e+00 2.675029337406157892e-01 5.900000000000000000e+01
-1.060257911682128906e+00 -1.271658301353455034e+00 -1.448528468608855924e-01 6.200000000000000000e+01
-1.099044322967529075e+00 -1.317710399627685991e+00 3.335341215133666992e-01 5.400000000000000000e+01
-1.063294291496277078e+00 -1.274395227432250977e+00 -8.698236197233200073e-02 5.900000000000000000e+01
-1.112603783607482910e+00 -1.333021402359009011e+00 4.008627831935883123e-01 5.100000000000000000e+01
-1.065036654472351074e+00 -1.275578141212462935e+00 -2.900590002536774029e-02 5.600000000000000000e+01
-1.088561773300170898e+00 -1.303291440010071023e+00 4.550038874149323065e-01 5.200000000000000000e+01
-1.763225078582763894e+00 -2.106551170349121094e+00 -7.360813617706298828e-01 1.900000000000000000e+01
-1.052695155143738015e+00 -1.257224559783935991e+00 2.862194739282130848e-02 5.900000000000000000e+01
-2.062180042266846147e+00 -2.461970329284667969e+00 -7.414386868476867676e-01 2.500000000000000000e+01
-1.061891555786133035e+00 -1.267758250236511008e+00 8.666834235191345215e-02 5.300000000000000000e+01
-2.478939771652222124e+00 -2.958477497100830078e+00 -7.502609491348266602e-01 1.300000000000000000e+01
-1.064863443374634011e+00 -1.270405054092407005e+00 1.450271606445313055e-01 6.100000000000000000e+01
-3.104510545730590820e+00 -3.702435493469237837e+00 -7.652773857116699219e-01 1.300000000000000000e+01
-1.060129404067992942e+00 -1.263860940933227983e+00 2.025468498468399048e-01 7.000000000000000000e+01
-1.082041859626770020e+00 -1.289527297019958052e+00 -2.066904008388519010e-01 2.800000000000000000e+01
-1.090713262557982954e+00 -1.299861431121825950e+00 2.687544226646422785e-01 6.600000000000000000e+01
-1.072154760360717995e+00 -1.277291536331176980e+00 -1.458987146615982056e-01 5.600000000000000000e+01
-1.104670405387877974e+00 -1.315562009811400923e+00 3.339157402515410822e-01 6.000000000000000000e+01
-1.062376022338866965e+00 -1.264744997024535911e+00 -8.656366914510726929e-02 5.900000000000000000e+01
-1.114510774612426980e+00 -1.326340556144713911e+00 3.999629616737365723e-01 5.000000000000000000e+01
-1.074407577514647993e+00 -1.278162240982056108e+00 -2.914551831781864166e-02 5.600000000000000000e+01
-1.095137000083922896e+00 -1.302822828292846902e+00 4.560391604900360107e-01 5.000000000000000000e+01
-1.773057818412780984e+00 -2.103337526321411133e+00 -7.371166348457336426e-01 1.900000000000000000e+01
-1.059655547142029031e+00 -1.256599783897399902e+00 2.869175560772418976e-02 5.500000000000000000e+01
-2.061965465545653853e+00 -2.444330215454102007e+00 -7.382893562316894531e-01 1.900000000000000000e+01
-1.053432226181030051e+00 -1.248777627944946067e+00 8.562162518501281738e-02 5.300000000000000000e+01
-2.484187126159667969e+00 -2.943804740905762163e+00 -7.487344741821289062e-01 1.300000000000000000e+01
-1.075717449188231978e+00 -1.274292588233947976e+00 1.458987146615982056e-01 5.800000000000000000e+01
-3.113592147827147993e+00 -3.687048435211182085e+00 -7.643387913703918457e-01 1.100000000000000000e+01
-1.069658756256103960e+00 -1.266218423843384011e+00 2.035218030214309970e-01 8.200000000000000000e+01
-3.847723245620727983e+00 -4.553165435791015625e+00 -7.319473028182983398e-01 1.600000000000000000e+01
-1.090143918991089089e+00 -1.290011048316956010e+00 2.675029337406157892e-01 6.700000000000000000e+01
-1.088183283805846946e+00 -1.287235260009766069e+00 -1.474675238132477084e-01 5.000000000000000000e+01
-1.102917194366455078e+00 -1.304202556610106978e+00 3.320076465606688898e-01 6.500000000000000000e+01
-1.066784381866455078e+00 -1.261028885841370073e+00 -8.656366914510726929e-02 5.900000000000000000e+01
-1.104027390480041948e+00 -1.304591417312622070e+00 3.945641517639160156e-01 5.000000000000000000e+01
-1.077570676803589089e+00 -1.272877812385559082e+00 -2.911061421036719929e-02 5.200000000000000000e+01
-1.096159338951111062e+00 -1.294377446174622026e+00 4.544862508773804266e-01 4.900000000000000000e+01
-1.772522926330565962e+00 -2.088608741760253906e+00 -7.340108156204223633e-01 1.900000000000000000e+01
-1.072875976562500000e+00 -1.263749957084655984e+00 2.893608994781970978e-02 5.200000000000000000e+01
-2.076367139816284180e+00 -2.444905996322631836e+00 -7.405388951301574707e-01 1.800000000000000000e+01
-1.061664223670959029e+00 -1.249659180641174094e+00 8.593563735485076904e-02 5.600000000000000000e+01
-2.488851070404053178e+00 -2.929565906524658203e+00 -7.472079992294311523e-01 1.300000000000000000e+01
-1.077356815338134988e+00 -1.267681956291198953e+00 1.455500870943068903e-01 5.800000000000000000e+01
-3.130919694900513139e+00 -3.682723045349121094e+00 -7.655902504920959473e-01 1.200000000000000000e+01
-1.073851823806762917e+00 -1.262664318084717019e+00 2.035218030214309970e-01 8.200000000000000000e+01
-3.865373373031616211e+00 -4.543405055999755859e+00 -7.324347496032714844e-01 2.400000000000000000e+01
-1.081615567207335982e+00 -1.271343469619750977e+00 2.643742561340332031e-01 6.700000000000000000e+01
-1.096319794654845969e+00 -1.288171410560607910e+00 -1.479904502630234042e-01 5.000000000000000000e+01
-1.116144895553589089e+00 -1.311002135276793990e+00 3.346789777278900146e-01 6.100000000000000000e+01
-1.080025196075439009e+00 -1.268128156661987083e+00 -8.729637414216995239e-02 5.200000000000000000e+01
-1.108347415924072044e+00 -1.300923109054564986e+00 3.945641517639160156e-01 5.200000000000000000e+01
-1.076597332954406960e+00 -1.263209700584412065e+00 -2.897099405527114868e-02 5.200000000000000000e+01
-1.097714066505431907e+00 -1.287986755371093972e+00 4.534509778022766113e-01 4.700000000000000000e+01
-1.776037216186522993e+00 -2.078003168106079102e+00 -7.324578762054443359e-01 1.700000000000000000e+01
-1.082478761672974077e+00 -1.266076803207397017e+00 2.907570824027061115e-02 5.200000000000000000e+01
-2.088688850402832031e+00 -2.442085981369018999e+00 -7.418885827064514160e-01 2.000000000000000000e+01
-1.067318320274353027e+00 -1.247463226318358931e+00 8.604031056165695190e-02 5.400000000000000000e+01
-2.499062061309814009e+00 -2.920860290527344194e+00 -7.472079992294311523e-01 1.300000000000000000e+01
-1.068819880485534890e+00 -1.248776912689208984e+00 1.438069790601730069e-01 5.800000000000000000e+01
-3.138616800308227983e+00 -3.665769815444945845e+00 -7.643387913703918457e-01 1.200000000000000000e+01
-1.083418011665344016e+00 -1.264938831329345925e+00 2.044967561960220059e-01 8.200000000000000000e+01
-3.888958930969237837e+00 -4.538928985595703125e+00 -7.338972091674804688e-01 3.300000000000000000e+01
-1.095266580581665039e+00 -1.277869462966918945e+00 2.665643393993378241e-01 7.000000000000000000e+01
-1.108589291572571023e+00 -1.293413281440735085e+00 -1.490363180637359897e-01 2.700000000000000000e+01
-1.114324808120727983e+00 -1.299646019935607910e+00 3.327708840370178223e-01 6.900000000000000000e+01
-1.096147775650023970e+00 -1.277994513511657937e+00 -8.823842555284500122e-02 4.600000000000000000e+01
-1.110343813896178977e+00 -1.294088482856750044e+00 3.936643302440642755e-01 5.200000000000000000e+01
-1.082302570343018022e+00 -1.260961413383484109e+00 -2.900590002536774029e-02 4.900000000000000000e+01
-1.086067199707031028e+00 -1.264900684356689009e+00 4.467216730117797852e-01 5.000000000000000000e+01
-1.784902095794677956e+00 -2.072943687438964844e+00 -7.329755425453186035e-01 1.600000000000000000e+01
-1.081891655921936035e+00 -1.256040334701538086e+00 2.893608994781970978e-02 5.200000000000000000e+01
-2.098897457122803178e+00 -2.435890436172484907e+00 -7.423384785652160645e-01 2.100000000000000000e+01
-1.078403353691101074e+00 -1.251107096672058105e+00 8.656366914510726929e-02 5.600000000000000000e+01
-2.508468866348267046e+00 -2.910194158554077148e+00 -7.468264102935791016e-01 1.300000000000000000e+01
-1.077292919158935991e+00 -1.249377846717834029e+00 1.443299055099487027e-01 6.100000000000000000e+01
-3.144289970397949219e+00 -3.645266771316527876e+00 -7.624616026878356934e-01 1.100000000000000000e+01
-1.084156513214111106e+00 -1.256450653076172097e+00 2.037655413150787076e-01 8.700000000000000000e+01
-3.928916454315185991e+00 -4.551693439483642578e+00 -7.382844686508178711e-01 3.100000000000000000e+01
-1.097139000892638938e+00 -1.271047830581665039e+00 2.659385800361632746e-01 7.400000000000000000e+01
-4.735852241516113281e+00 -5.484601974487304688e+00 -6.339708566665649414e-01 1.000000000000000000e+01
-1.110097408294677956e+00 -1.285152912139893022e+00 3.300995528697968084e-01 7.700000000000000000e+01
-1.115188837051392046e+00 -1.290591835975646973e+00 -8.938981592655181885e-02 4.700000000000000000e+01
-1.115079402923583984e+00 -1.290010213851928933e+00 3.936643302440642755e-01 5.200000000000000000e+01
-1.106536388397217019e+00 -1.279675364494323953e+00 -2.952947095036507000e-02 5.000000000000000000e+01
-1.086685180664062944e+00 -1.256718039512634055e+00 4.451687633991240900e-01 5.300000000000000000e+01
-1.092821121215820090e+00 -1.259808897972106934e+00 2.911061421036719929e-02 5.200000000000000000e+01
-2.102278709411621094e+00 -2.422661781311035156e+00 -7.405388951301574707e-01 2.400000000000000000e+01
-1.080145478248595969e+00 -1.244318604469299094e+00 8.635433018207550049e-02 5.700000000000000000e+01
-2.526334047317504883e+00 -2.910315752029418945e+00 -7.491161227226257324e-01 1.400000000000000000e+01
-1.086872816085814986e+00 -1.251627206802367942e+00 1.450271606445313055e-01 5.900000000000000000e+01
-3.155699729919434038e+00 -3.632777452468872070e+00 -7.621487379074096680e-01 1.200000000000000000e+01
-1.082025289535522017e+00 -1.245166659355164018e+00 2.025468498468399048e-01 7.900000000000000000e+01
-3.972130060195922852e+00 -4.569412708282470703e+00 -7.434030175209045410e-01 3.500000000000000000e+01
-1.104382753372191939e+00 -1.269999265670775923e+00 2.665643393993378241e-01 8.400000000000000000e+01
-4.770657062530517578e+00 -5.486078739166259766e+00 -6.360626220703125000e-01 1.100000000000000000e+01
-1.113288044929503950e+00 -1.279788970947266069e+00 3.297179341316223145e-01 7.400000000000000000e+01
-1.123620390892029031e+00 -1.291211247444153054e+00 -8.970382809638977051e-02 3.600000000000000000e+01
-1.117016553878783958e+00 -1.283170223236083984e+00 3.927645385265349787e-01 5.200000000000000000e+01
-1.121502518653870073e+00 -1.287869453430176003e+00 -2.980870939791202892e-02 5.000000000000000000e+01
-1.090015053749084029e+00 -1.251270055770874023e+00 4.446511268615723211e-01 5.600000000000000000e+01
-1.210989952087401900e+00 -1.386717438697814941e+00 -4.933091104030609131e-01 9.000000000000000000e+00
-1.103790044784545898e+00 -1.263516545295715110e+00 2.928513847291469921e-02 5.200000000000000000e+01
-2.108157873153686968e+00 -2.412374019622803178e+00 -7.396390438079833984e-01 1.900000000000000000e+01
-1.079224228858947976e+00 -1.234525918960571067e+00 8.593563735485076904e-02 5.700000000000000000e+01
-2.533893108367919922e+00 -2.898523330688477007e+00 -7.483528852462768555e-01 1.500000000000000000e+01
-1.092546820640563965e+00 -1.249325394630431907e+00 1.452014744281769076e-01 6.200000000000000000e+01
-3.168361186981201172e+00 -3.621739864349364790e+00 -7.621487379074096680e-01 1.200000000000000000e+01
-1.086365222930907981e+00 -1.241382122039794922e+00 2.025468498468399048e-01 8.500000000000000000e+01
-3.985440969467163086e+00 -4.552532672882080078e+00 -7.429155111312866211e-01 4.300000000000000000e+01
-1.105985879898071067e+00 -1.263357400894165039e+00 2.659385800361632746e-01 8.000000000000000000e+01
-4.808154582977294922e+00 -5.490376949310302734e+00 -6.385029554367065430e-01 1.100000000000000000e+01
-1.117748618125915971e+00 -1.275894999504088911e+00 3.297179341316223145e-01 7.400000000000000000e+01
-1.136018872261046919e+00 -1.296293735504149947e+00 -9.033185988664627075e-02 7.000000000000000000e+00
-1.113781094551085982e+00 -1.270471096038817915e+00 3.900651335716248114e-01 5.500000000000000000e+01
-1.123354196548461914e+00 -1.280939936637877974e+00 -2.973890118300915111e-02 4.500000000000000000e+01
-1.100527167320251021e+00 -1.254910707473755105e+00 4.472393095493317206e-01 7.000000000000000000e+01
-1.223477840423583984e+00 -1.391185879707335982e+00 -4.964149296283721924e-01 4.800000000000000000e+01
-1.116118907928467019e+00 -1.268664121627808061e+00 2.949456684291363109e-02 5.100000000000000000e+01
-2.121715784072875977e+00 -2.410851955413817915e+00 -7.414386868476867676e-01 1.000000000000000000e+00
-1.087486267089843972e+00 -1.235248446464539018e+00 8.624965697526931763e-02 5.400000000000000000e+01
-2.540103673934936968e+00 -2.885240077972412109e+00 -7.472079992294311523e-01 1.300000000000000000e+01
-1.096901059150696023e+00 -1.245504140853882058e+00 1.452014744281769076e-01 6.200000000000000000e+01
-3.190124988555908203e+00 -3.621033668518065962e+00 -7.643387913703918457e-01 1.100000000000000000e+01
-1.094629287719727007e+00 -1.242050170898437944e+00 2.032780647277832031e-01 7.700000000000000000e+01
-3.996057033538817915e+00 -4.532636642456054688e+00 -7.419405579566955566e-01 2.600000000000000000e+01
-1.105382442474365012e+00 -1.253369212150573953e+00 2.646871209144591730e-01 7.600000000000000000e+01
-4.832561492919921875e+00 -5.479537010192871094e+00 -6.392002105712890625e-01 1.300000000000000000e+01
-1.119597792625427024e+00 -1.269041180610656960e+00 3.289546966552733820e-01 7.600000000000000000e+01
-1.113050103187561035e+00 -1.260732054710387962e+00 3.882655203342437744e-01 5.600000000000000000e+01
-1.130466103553771973e+00 -1.280008554458617942e+00 -2.980870939791202892e-02 4.400000000000000000e+01
-1.098723888397217019e+00 -1.243629813194274902e+00 4.446511268615723211e-01 7.500000000000000000e+01
-1.227045774459839089e+00 -1.385460495948791948e+00 -4.958972930908203125e-01 5.800000000000000000e+01
-1.123192787170409934e+00 -1.267753958702086958e+00 2.956437692046165119e-02 5.000000000000000000e+01
-1.233090281486511008e+00 -1.391306638717650923e+00 -4.292066097259520929e-01 3.000000000000000000e+00
-1.095766425132751021e+00 -1.235928297042846902e+00 8.656366914510726929e-02 5.600000000000000000e+01
