-3.412703323364257812e+01 4.299144744873046875e+00 -6.003977060317993164e-01 1.900000000000000000e+01
-2.506659507751464844e+00 3.188873827457427979e-01 -6.770706176757812500e-01 1.500000000000000000e+01
-4.482088088989257812e+01 5.709885597229003906e+00 7.886742353439331055e-01 4.900000000000000000e+01
-2.888012409210205078e+00 3.684260547161101740e-01 -6.721537709236145020e-01 1.200000000000000000e+01
-3.429420709609984907e+00 4.381022453308104914e-01 -6.720292568206787109e-01 1.200000000000000000e+01
-4.486757659912108664e+01 5.739710330963134766e+00 3.957393646240233931e+00 5.400000000000000000e+01
-4.245944499969482422e+00 5.439180135726928711e-01 -6.779869794845581055e-01 9.000000000000000000e+00
-4.486467742919921875e+01 5.755256652832031250e+00 5.553829669952392578e+00 7.700000000000000000e+01
-5.554306030273438388e+00 7.134937047958374023e-01 -6.875868439674377441e-01 1.000000000000000000e+01
-8.034852027893066406e+00 1.033564567565917969e+00 -7.087504863739013672e-01 1.000000000000000000e+00
-1.470779609680175959e+01 1.897159218788146973e+00 -7.771889567375183105e-01 4.000000000000000000e+00
-3.406896209716796875e+01 4.406647205352783203e+00 -5.996297597885131836e-01 1.900000000000000000e+01
-2.494037866592406782e+00 3.261323869228363037e-01 -6.739647984504699707e-01 1.500000000000000000e+01
-4.479671096801757812e+01 5.865785598754882812e+00 7.886044383049011230e-01 4.900000000000000000e+01
-2.896369695663452148e+00 3.797715902328491211e-01 -6.744032502174377441e-01 1.300000000000000000e+01
-3.427870750427246094e+00 4.500705003738402765e-01 -6.720292568206787109e-01 1.200000000000000000e+01
-4.484727096557617188e+01 5.896292209625244141e+00 3.957393646240233931e+00 5.400000000000000000e+01
-4.257729053497313565e+00 5.605406761169433594e-01 -6.801770329475402832e-01 9.000000000000000000e+00
-4.485021591186522727e+01 5.912606716156005859e+00 5.554561138153076172e+00 7.700000000000000000e+01
-5.547845363616943359e+00 7.323579192161560059e-01 -6.870993375778198242e-01 1.000000000000000000e+01
-7.995641231536865234e+00 1.056905508041382058e+00 -7.056128978729248047e-01 1.000000000000000000e+00
-3.402958297729492188e+01 4.522382259368895596e+00 -5.992109179496765137e-01 1.900000000000000000e+01
-2.485225677490233931e+00 3.338075280189514160e-01 -6.718942523002624512e-01 1.600000000000000000e+01
-4.479974365234375000e+01 6.025318145751953125e+00 7.890232801437377930e-01 4.900000000000000000e+01
-2.898889064788817915e+00 3.903996944427490234e-01 -6.753030419349670410e-01 1.300000000000000000e+01
-3.428224325180054155e+00 4.622956216335297186e-01 -6.724109053611755371e-01 1.200000000000000000e+01
-4.485800552368164062e+01 6.057068347930908203e+00 3.960182666778564009e+00 5.400000000000000000e+01
-4.238128662109375000e+00 5.730174779891967773e-01 -6.773612499237060547e-01 9.000000000000000000e+00
-4.488045120239257812e+01 6.076051712036132812e+00 5.560898303985595703e+00 7.700000000000000000e+01
-5.537386894226074219e+00 7.506524324417114258e-01 -6.861243844032287598e-01 1.000000000000000000e+01
-7.968211650848388672e+00 1.081593155860901101e+00 -7.035211324691772461e-01 1.000000000000000000e+00
-3.395811462402343750e+01 4.633570194244384766e+00 -5.982335805892944336e-01 1.900000000000000000e+01
-2.491700410842895952e+00 3.435359597206115723e-01 -6.739647984504699707e-01 1.500000000000000000e+01
-4.479824829101563211e+01 6.184396266937255859e+00 7.893723249435424805e-01 4.900000000000000000e+01
-2.887856721878052202e+00 3.991821408271790106e-01 -6.730535626411437988e-01 1.200000000000000000e+01
-4.487604141235352273e+01 6.211099624633789062e+00 2.374273061752318892e+00 3.500000000000000000e+01
-3.424644947052001953e+00 4.739903807640076239e-01 -6.720292568206787109e-01 1.200000000000000000e+01
-4.484448242187500000e+01 6.214708805084229404e+00 3.960879802703856978e+00 5.400000000000000000e+01
-4.234145641326904297e+00 5.875362753868103027e-01 -6.770483851432800293e-01 9.000000000000000000e+00
-4.489829254150391336e+01 6.238140106201171875e+00 5.565773010253906250e+00 7.800000000000000000e+01
-5.538665294647216797e+00 7.705240249633789062e-01 -6.866118907928466797e-01 1.000000000000000000e+01
-7.980174541473388672e+00 1.111599922180176003e+00 -7.049156427383422852e-01 1.000000000000000000e+00
-3.398331832885742188e+01 4.757900238037109375e+00 -5.989665985107421875e-01 1.900000000000000000e+01
-2.500050067901610884e+00 3.535842001438140869e-01 -6.765530109405517578e-01 1.700000000000000000e+01
-4.476846694946289062e+01 6.339612483978270596e+00 7.892327308654785156e-01 4.900000000000000000e+01
-2.872939586639403853e+00 4.073452353477478027e-01 -6.699042320251464844e-01 1.200000000000000000e+01
-4.486595153808593750e+01 6.369392871856688565e+00 2.374901056289672852e+00 3.500000000000000000e+01
-3.424913406372069868e+00 4.862176775932312012e-01 -6.724109053611755371e-01 1.200000000000000000e+01
-4.486591339111328125e+01 6.377376079559326172e+00 3.964714765548706055e+00 5.400000000000000000e+01
-4.224246501922607422e+00 6.011992692947387695e-01 -6.757968664169311523e-01 7.000000000000000000e+00
-4.490572357177733664e+01 6.399027347564697266e+00 5.569428920745849609e+00 7.800000000000000000e+01
-5.530046463012695312e+00 7.890117168426513672e-01 -6.858806610107421875e-01 1.200000000000000000e+01
-7.972301006317138672e+00 1.138885617256164995e+00 -7.045670151710510254e-01 1.000000000000000000e+00
-1.455333995819091975e+01 2.084206104278564009e+00 -7.704899311065673828e-01 4.000000000000000000e+00
-3.401599121093750000e+01 4.883599758148193359e+00 -5.998392105102539062e-01 1.900000000000000000e+01
-2.494976758956909180e+00 3.617544174194335938e-01 -6.755176782608032227e-01 1.400000000000000000e+01
-4.477772903442382812e+01 6.500441551208496094e+00 7.897912263870239258e-01 4.900000000000000000e+01
-2.877285718917847124e+00 4.182120859622954767e-01 -6.712539196014404297e-01 1.200000000000000000e+01
-4.484344482421875000e+01 6.525965213775634766e+00 2.374901056289672852e+00 3.500000000000000000e+01
-3.413481473922729048e+00 4.967562556266785223e-01 -6.705027818679809570e-01 1.200000000000000000e+01
-4.485914993286132812e+01 6.536246776580811435e+00 3.966109275817871094e+00 5.400000000000000000e+01
-4.227986335754395419e+00 6.167964935302734375e-01 -6.767355203628540039e-01 9.000000000000000000e+00
-4.487525558471679688e+01 6.554590702056884766e+00 5.568454265594482422e+00 7.800000000000000000e+01
-5.525294303894042969e+00 8.080230951309204102e-01 -6.856369376182556152e-01 1.200000000000000000e+01
-7.972219467163085938e+00 1.167284488677978960e+00 -7.049156427383422852e-01 2.000000000000000000e+00
-1.447483730316161932e+01 2.124552488327025923e+00 -7.667217850685119629e-01 4.000000000000000000e+00
-3.398290634155272727e+01 4.999979496002197266e+00 -5.995599627494812012e-01 1.900000000000000000e+01
-2.485991001129149947e+00 3.697597086429595947e-01 -6.734471321105957031e-01 1.400000000000000000e+01
-4.479711532592772727e+01 6.670996189117431641e+00 7.905591130256652832e-01 4.900000000000000000e+01
-2.864168882369995117e+00 4.270308613777161200e-01 -6.685545444488525391e-01 1.300000000000000000e+01
-4.483502578735352273e+01 6.692639827728270596e+00 2.375738382339477983e+00 3.500000000000000000e+01
-3.413579463958739790e+00 5.095537900924682617e-01 -6.708844304084777832e-01 1.300000000000000000e+01
-4.489400863647460938e+01 6.709454536437988281e+00 3.971338510513306108e+00 5.400000000000000000e+01
-4.231557846069335938e+00 6.331656575202941895e-01 -6.776741147041320801e-01 9.000000000000000000e+00
-4.488822937011718750e+01 6.724610805511474609e+00 5.573085308074951172e+00 7.800000000000000000e+01
-5.520332336425781250e+00 8.279744386672973633e-01 -6.853932142257690430e-01 1.200000000000000000e+01
-7.979709625244140625e+00 1.198271512985229048e+00 -7.059615254402160645e-01 1.000000000000000000e+00
-1.446695327758789062e+01 2.177591323852539062e+00 -7.667217850685119629e-01 4.000000000000000000e+00
-3.393271636962891336e+01 5.119725704193115234e+00 -5.990014672279357910e-01 1.900000000000000000e+01
-2.477045774459838867e+00 3.772716522216796875e-01 -6.713765859603881836e-01 1.500000000000000000e+01
-4.478541946411132812e+01 6.829135417938232422e+00 7.907685637474060059e-01 5.000000000000000000e+01
-2.887704372406005859e+00 4.408493041992188055e-01 -6.744032502174377441e-01 1.200000000000000000e+01
-4.482323837280272727e+01 6.850913047790527344e+00 2.376366376876831055e+00 3.500000000000000000e+01
-3.409839391708374023e+00 5.211696624755859375e-01 -6.705027818679809570e-01 1.200000000000000000e+01
-4.487031555175781250e+01 6.866123199462890625e+00 3.971338510513306108e+00 5.400000000000000000e+01
-4.215653896331787109e+00 6.458387374877929688e-01 -6.754840016365051270e-01 9.000000000000000000e+00
-4.488214492797852273e+01 6.883967399597167969e+00 5.575278759002686435e+00 7.800000000000000000e+01
-5.515446662902832031e+00 8.469376564025878906e-01 -6.851494312286376953e-01 1.000000000000000000e+01
-7.932154655456542969e+00 1.219458222389220969e+00 -7.021266818046569824e-01 0.000000000000000000e+00
-1.445926380157471058e+01 2.228076934814453125e+00 -7.667217850685119629e-01 4.000000000000000000e+00
-3.394823455810546875e+01 5.243330955505371094e+00 -5.995948910713195801e-01 1.300000000000000000e+01
-2.479531288146973100e+00 3.865109384059906006e-01 -6.724118590354919434e-01 1.500000000000000000e+01
-4.476130676269531250e+01 6.985424041748046875e+00 7.907685637474060059e-01 5.000000000000000000e+01
-2.876520872116088867e+00 4.494225084781646729e-01 -6.721537709236145020e-01 1.300000000000000000e+01
-4.484763336181641336e+01 7.006914138793945312e+00 2.378878593444824219e+00 3.500000000000000000e+01
-3.407999277114868164e+00 5.330690741539001465e-01 -6.705027818679809570e-01 1.200000000000000000e+01
-4.488544082641602273e+01 7.028872489929199219e+00 3.974824905395507812e+00 5.400000000000000000e+01
-4.205567836761474609e+00 6.593263745307922363e-01 -6.742325425148010254e-01 1.000000000000000000e+01
-4.487156677246093750e+01 7.042747974395751953e+00 5.576984882354736328e+00 7.800000000000000000e+01
-5.508534431457520419e+00 8.655686974525451660e-01 -6.846619844436645508e-01 1.000000000000000000e+01
-7.912104129791259766e+00 1.244662165641784890e+00 -7.007321715354919434e-01 1.000000000000000000e+00
-1.438037395477294922e+01 2.267337322235106978e+00 -7.629535794258117676e-01 4.000000000000000000e+00
-3.393762588500977273e+01 5.363049030303955078e+00 -5.997344851493835449e-01 1.300000000000000000e+01
-2.478167057037353960e+00 3.951637744903563898e-01 -6.724118590354919434e-01 1.600000000000000000e+01
-4.481563949584960938e+01 7.154236793518066406e+00 7.921647429466247559e-01 5.000000000000000000e+01
-2.865313053131103960e+00 4.579229950904846191e-01 -6.699042320251464844e-01 1.300000000000000000e+01
-4.482559585571289062e+01 7.171873092651367188e+00 2.379087924957274947e+00 3.500000000000000000e+01
-3.411933660507202148e+00 5.458924770355224609e-01 -6.716476678848266602e-01 1.200000000000000000e+01
-4.492358779907227273e+01 7.195592880249023438e+00 3.980402708053588867e+00 5.400000000000000000e+01
-4.201290130615234375e+00 6.736897230148315430e-01 -6.739196777343750000e-01 1.000000000000000000e+01
-4.487023162841796875e+01 7.203111648559570312e+00 5.579909801483154297e+00 7.800000000000000000e+01
-5.495679855346679688e+00 8.832169175148010254e-01 -6.834432482719421387e-01 1.200000000000000000e+01
-7.901809692382813388e+00 1.271323561668395996e+00 -7.002092599868774414e-01 2.000000000000000000e+00
-3.389501190185546875e+01 5.477652549743652344e+00 -5.993156433105468750e-01 1.300000000000000000e+01
-2.488283395767211914e+00 4.052426815032958984e-01 -6.755176782608032227e-01 1.300000000000000000e+01
-4.479956436157227273e+01 7.304098606109619141e+00 7.923043370246887207e-01 5.000000000000000000e+01
-2.871471881866455078e+00 4.686778783798217773e-01 -6.717038750648498535e-01 1.300000000000000000e+01
-4.481861114501953125e+01 7.315235137939453125e+00 2.379925251007080078e+00 3.500000000000000000e+01
-3.404291868209838867e+00 5.562540888786315918e-01 -6.705027818679809570e-01 1.200000000000000000e+01
-4.486801910400391336e+01 7.339379310607910156e+00 3.977613687515258789e+00 5.400000000000000000e+01
-4.195134162902832031e+00 6.869795322418212891e-01 -6.732939481735229492e-01 1.000000000000000000e+01
-4.488919448852539062e+01 7.358932495117188388e+00 5.585271835327148438e+00 7.900000000000000000e+01
-5.496638774871826172e+00 9.020793437957763672e-01 -6.839307546615600586e-01 1.200000000000000000e+01
-7.907380580902099609e+00 1.299134969711303933e+00 -7.010807991027832031e-01 1.000000000000000000e+00
-3.386482238769531250e+01 5.588068962097167969e+00 -5.991061925888061523e-01 1.300000000000000000e+01
-2.479231119155883789e+00 4.126572012901306152e-01 -6.734471321105957031e-01 1.500000000000000000e+01
-4.480535507202147727e+01 7.465692520141601562e+00 7.928628325462341309e-01 5.000000000000000000e+01
-2.864051818847655806e+00 4.777364432811737061e-01 -6.703541278839111328e-01 1.300000000000000000e+01
-4.485584640502929688e+01 7.482151985168457031e+00 2.383274793624877930e+00 3.600000000000000000e+01
-3.381028652191162109e+00 5.645769834518432617e-01 -6.663050055503845215e-01 1.100000000000000000e+01
-4.486177825927733664e+01 7.499238014221191406e+00 3.979357004165648970e+00 5.400000000000000000e+01
-4.208296775817871094e+00 7.042273879051208496e-01 -6.757968664169311523e-01 1.000000000000000000e+01
-4.488672637939453125e+01 7.519515991210938388e+00 5.588196754455566406e+00 7.900000000000000000e+01
-5.481709957122802734e+00 9.192907810211181641e-01 -6.824682950973510742e-01 1.200000000000000000e+01
-7.873324394226074219e+00 1.321780920028686968e+00 -6.984661221504211426e-01 2.000000000000000000e+00
-1.423021125793457031e+01 2.394088506698607954e+00 -7.562545537948608398e-01 4.000000000000000000e+00
-3.381356048583983664e+01 5.700925827026367188e+00 -5.985477566719055176e-01 1.300000000000000000e+01
-2.462539434432982954e+00 4.187181591987609863e-01 -6.693060398101806641e-01 1.600000000000000000e+01
-4.481056213378906250e+01 7.627415657043457031e+00 7.934213280677795410e-01 5.000000000000000000e+01
-2.870051145553588867e+00 4.890402853488922119e-01 -6.721537709236145020e-01 1.300000000000000000e+01
-4.486749649047852273e+01 7.653223514556884766e+00 2.385368108749390093e+00 3.600000000000000000e+01
-3.390649080276488814e+00 5.783562064170837402e-01 -6.685947179794311523e-01 1.200000000000000000e+01
-4.486282348632813211e+01 7.660484313964843750e+00 3.981797218322753906e+00 5.400000000000000000e+01
-4.201918601989746094e+00 7.182471156120300293e-01 -6.751711368560791016e-01 1.000000000000000000e+01
-4.488368606567382812e+01 7.680171489715576172e+00 5.591121673583984375e+00 3.900000000000000000e+01
-5.486293792724609375e+00 9.397605061531066895e-01 -6.834432482719421387e-01 1.200000000000000000e+01
-7.878481388092041016e+00 1.350939512252808061e+00 -6.993376612663269043e-01 1.000000000000000000e+00
-1.422176742553710938e+01 2.443746566772460938e+00 -7.562545537948608398e-01 4.000000000000000000e+00
-3.382498550415039062e+01 5.824351787567138672e+00 -5.991061925888061523e-01 6.000000000000000000e+00
-2.462966203689575195e+00 4.276419281959534247e-01 -6.698237061500549316e-01 1.600000000000000000e+01
-4.481124496459960938e+01 7.788581371307373047e+00 7.939099669456481934e-01 5.000000000000000000e+01
-2.852967262268065962e+00 4.963833391666411798e-01 -6.685545444488525391e-01 1.300000000000000000e+01
-4.483793640136718750e+01 7.801282405853270596e+00 2.385158777236938032e+00 3.600000000000000000e+01
-3.392477750778197798e+00 5.908619761466979980e-01 -6.693579554557800293e-01 1.200000000000000000e+01
-4.485543823242188211e+01 7.820459842681884766e+00 3.983540296554564986e+00 5.400000000000000000e+01
-4.164358615875244141e+00 7.267969250679016113e-01 -6.695395112037658691e-01 1.000000000000000000e+01
-4.490158081054688211e+01 7.844655990600585938e+00 5.596727848052979404e+00 7.900000000000000000e+01
-5.479069232940673828e+00 9.582215547561645508e-01 -6.829558014869689941e-01 1.200000000000000000e+01
-7.846241950988770419e+00 1.373622179031372070e+00 -6.968973278999328613e-01 1.000000000000000000e+00
-1.421315097808838068e+01 2.493375062942504883e+00 -7.562545537948608398e-01 4.000000000000000000e+00
-3.381232452392578125e+01 5.943772315979003906e+00 -5.992458462715148926e-01 1.300000000000000000e+01
-2.469067335128784180e+00 4.375851750373839777e-01 -6.718942523002624512e-01 1.500000000000000000e+01
-4.480347442626953125e+01 7.948447227478027344e+00 7.942590117454528809e-01 5.000000000000000000e+01
-2.845461130142211914e+00 5.053167939186096191e-01 -6.672048568725585938e-01 1.400000000000000000e+01
-4.484976196289063211e+01 7.964733123779296875e+00 2.387252330780028853e+00 3.600000000000000000e+01
-3.394260644912720171e+00 6.033875346183776855e-01 -6.701211929321289062e-01 1.100000000000000000e+01
-4.488671112060546875e+01 7.987458705902099609e+00 3.988769769668579102e+00 5.400000000000000000e+01
-4.167630672454833984e+00 7.423681020736694336e-01 -6.704781055450439453e-01 9.000000000000000000e+00
-4.487196731567382812e+01 8.000995635986328125e+00 5.596484184265136719e+00 7.900000000000000000e+01
-5.458103179931640625e+00 9.742020368576049805e-01 -6.807621717453002930e-01 1.200000000000000000e+01
-7.845322132110595703e+00 1.401703238487244096e+00 -6.972459554672241211e-01 1.000000000000000000e+00
-3.369295883178710938e+01 6.044108867645263672e+00 -5.975005626678466797e-01 1.300000000000000000e+01
-2.471326828002930132e+00 4.468886852264403742e-01 -6.729295253753662109e-01 1.500000000000000000e+01
-4.480694198608397727e+01 8.110490798950195312e+00 7.948175072669982910e-01 5.000000000000000000e+01
-2.843679904937744141e+00 5.152462124824523926e-01 -6.672048568725585938e-01 1.300000000000000000e+01
-4.483740615844727273e+01 8.124088287353515625e+00 2.388089656829833984e+00 3.600000000000000000e+01
-3.382474899291992188e+00 6.134802699089050293e-01 -6.682131290435791016e-01 1.000000000000000000e+01
-4.489776611328125000e+01 8.151211738586425781e+00 3.992255926132202148e+00 5.400000000000000000e+01
-4.165013790130615234e+00 7.569112777709960938e-01 -6.704781055450439453e-01 1.000000000000000000e+01
-4.488087463378906250e+01 8.164329528808593750e+00 5.601115226745604581e+00 7.900000000000000000e+01
-5.439045429229736328e+00 9.904034733772277832e-01 -6.788122653961181641e-01 1.200000000000000000e+01
-7.824700355529785156e+00 1.426221847534179910e+00 -6.958514451980590820e-01 1.000000000000000000e+00
-1.405000495910645064e+01 2.565986633300780806e+00 -7.485088706016540527e-01 4.000000000000000000e+00
-3.375426864624022727e+01 6.176800727844238281e+00 -5.989665985107421875e-01 1.300000000000000000e+01
-2.466031551361083984e+00 4.543813169002532959e-01 -6.718942523002624512e-01 1.400000000000000000e+01
-4.482699584960938211e+01 8.267736434936523438e+00 7.956551909446716309e-01 5.000000000000000000e+01
-2.845788240432738814e+00 5.253809690475463867e-01 -6.681046485900878906e-01 1.100000000000000000e+01
-4.482986068725585938e+01 8.276355743408203125e+00 2.389136314392089844e+00 3.600000000000000000e+01
-3.366908073425292969e+00 6.221962571144104004e-01 -6.655417680740356445e-01 1.100000000000000000e+01
-4.487048721313477273e+01 8.300053596496582031e+00 3.992255926132202148e+00 5.400000000000000000e+01
-4.164423465728759766e+00 7.710784673690795898e-01 -6.707909703254699707e-01 1.000000000000000000e+01
-4.489844512939453125e+01 8.321434974670410156e+00 5.606720924377441406e+00 8.000000000000000000e+01
-5.441586494445800781e+00 1.009520888328552024e+00 -6.795434355735778809e-01 1.200000000000000000e+01
-7.804256916046142578e+00 1.449251413345336914e+00 -6.944569349288940430e-01 1.000000000000000000e+00
-1.399036598205566051e+01 2.603065013885498047e+00 -7.457873821258544922e-01 4.000000000000000000e+00
-3.371787643432617188e+01 6.285768032073974609e+00 -5.986873507499694824e-01 1.300000000000000000e+01
-2.453038692474364790e+00 4.608464539051055908e-01 -6.687884330749511719e-01 1.600000000000000000e+01
-4.481751632690429688e+01 8.427857398986816406e+00 7.960042357444763184e-01 5.000000000000000000e+01
-2.857342720031737837e+00 5.378347635269165039e-01 -6.712539196014404297e-01 1.200000000000000000e+01
-4.485565567016602273e+01 8.443135261535644531e+00 2.392067193984984907e+00 3.600000000000000000e+01
-3.368574380874633789e+00 6.346721649169921875e-01 -6.663050055503845215e-01 1.100000000000000000e+01
-4.488039779663085938e+01 8.464015007019042969e+00 3.995742082595825195e+00 5.400000000000000000e+01
-4.165588378906250000e+00 7.863431572914123535e-01 -6.714166998863220215e-01 1.000000000000000000e+01
-4.489448165893554688e+01 8.482900619506835938e+00 5.609889507293701172e+00 8.000000000000000000e+01
-5.451683044433593750e+00 1.031091690063477007e+00 -6.812496185302734375e-01 1.000000000000000000e+01
-7.744337081909179688e+00 1.466107726097106934e+00 -6.895762085914611816e-01 1.000000000000000000e+00
-1.398119449615479049e+01 2.651884794235229048e+00 -7.457873821258544922e-01 4.000000000000000000e+00
-3.374091339111328125e+01 6.412014007568359375e+00 -5.994901657104492188e-01 1.900000000000000000e+01
-2.458922386169434038e+00 4.712888002395629883e-01 -6.708589792251586914e-01 1.500000000000000000e+01
-4.479025268554688211e+01 8.592818260192871094e+00 7.960740923881530762e-01 5.000000000000000000e+01
-2.845783472061156782e+00 5.464663505554199219e-01 -6.690044403076171875e-01 1.400000000000000000e+01
-4.485429000854492188e+01 8.621337890625000000e+00 2.393742084503173828e+00 3.600000000000000000e+01
-3.362369537353516069e+00 6.462731957435607910e-01 -6.655417680740356445e-01 1.100000000000000000e+01
-4.486472702026367188e+01 8.631464004516601562e+00 3.997136592864989790e+00 5.400000000000000000e+01
-4.137461662292479581e+00 7.967495918273925781e-01 -6.673493981361389160e-01 9.000000000000000000e+00
-4.490207290649414062e+01 8.654904365539550781e+00 5.614764213562011719e+00 8.000000000000000000e+01
-5.447867393493652344e+00 1.051066160202025923e+00 -6.812496185302734375e-01 1.000000000000000000e+01
-7.781949043273925781e+00 1.502793312072753906e+00 -6.934111118316650391e-01 1.000000000000000000e+00
-1.397138118743895951e+01 2.703110456466674805e+00 -7.457873821258544922e-01 4.000000000000000000e+00
-3.365240097045897727e+01 6.523079872131347656e+00 -5.983383059501647949e-01 1.900000000000000000e+01
-2.461054325103760210e+00 4.806097149848937988e-01 -6.718942523002624512e-01 1.500000000000000000e+01
-4.478746032714843750e+01 8.754484176635742188e+00 7.965627312660217285e-01 5.000000000000000000e+01
-2.834296226501464844e+00 5.545257925987243652e-01 -6.667549014091491699e-01 1.200000000000000000e+01
-4.485136032104492188e+01 8.783229827880859375e+00 2.395207405090332031e+00 3.600000000000000000e+01
-3.365873098373413086e+00 6.591380238533020020e-01 -6.666866540908813477e-01 1.200000000000000000e+01
-4.487733840942382812e+01 8.796449661254882812e+00 4.000971317291259766e+00 5.400000000000000000e+01
-4.142409324645996094e+00 8.127083778381347656e-01 -6.686009168624877930e-01 9.000000000000000000e+00
-4.489301681518554688e+01 8.815796852111816406e+00 5.617445468902587891e+00 8.000000000000000000e+01
-5.432478427886962891e+00 1.067779302597045898e+00 -6.797872185707092285e-01 1.000000000000000000e+01
-7.745377063751220703e+00 1.523794531822205034e+00 -6.906220912933349609e-01 1.000000000000000000e+00
-1.376590442657471058e+01 2.713240623474121094e+00 -7.353202104568481445e-01 4.000000000000000000e+00
-3.358626556396483664e+01 6.631986618041992188e+00 -5.975704193115234375e-01 1.300000000000000000e+01
-2.455572128295897993e+00 4.884436726570128839e-01 -6.708589792251586914e-01 1.500000000000000000e+01
-4.479977416992188211e+01 8.919358253479003906e+00 7.973306179046630859e-01 5.100000000000000000e+01
-2.830432176589965820e+00 5.640351176261901855e-01 -6.663050055503845215e-01 1.400000000000000000e+01
-4.483218002319335938e+01 8.942080497741699219e+00 2.395835399627685991e+00 3.600000000000000000e+01
-3.365477085113524947e+00 6.712670922279357910e-01 -6.670682430267333984e-01 1.200000000000000000e+01
-4.488543701171875000e+01 8.960848808288574219e+00 4.004457950592041016e+00 5.400000000000000000e+01
-4.141484260559082031e+00 8.275501728057861328e-01 -6.689137816429138184e-01 1.000000000000000000e+01
-4.488143539428710938e+01 8.976342201232910156e+00 5.619883060455322266e+00 8.000000000000000000e+01
-5.417038917541503906e+00 1.084397792816162109e+00 -6.783247590065002441e-01 1.000000000000000000e+01
-7.736104011535645419e+00 1.550038814544677956e+00 -6.902734637260437012e-01 1.000000000000000000e+00
-1.388167476654052912e+01 2.786432266235352007e+00 -7.420191764831542969e-01 4.000000000000000000e+00
-3.369622039794921875e+01 6.775991439819335938e+00 -5.999439358711242676e-01 6.000000000000000000e+00
-2.444385290145874023e+00 4.950947761535645086e-01 -6.682707667350769043e-01 1.500000000000000000e+01
-4.479188537597656250e+01 9.080451965332031250e+00 7.977495193481445312e-01 5.100000000000000000e+01
-2.830355882644652876e+00 5.742992758750915527e-01 -6.667549014091491699e-01 1.300000000000000000e+01
-4.484766769409179688e+01 9.108059883117675781e+00 2.398347616195679155e+00 3.600000000000000000e+01
-3.349645614624022993e+00 6.802755594253540039e-01 -6.643969416618347168e-01 1.200000000000000000e+01
-4.486169433593750000e+01 9.119061470031738281e+00 4.005155086517333984e+00 5.400000000000000000e+01
-4.130827426910400391e+00 8.404263257980346680e-01 -6.676623225212097168e-01 1.000000000000000000e+01
-4.486928176879882812e+01 9.136913299560546875e+00 5.622320175170898438e+00 8.100000000000000000e+01
-5.399605274200438565e+00 1.100525021553039995e+00 -6.766185760498046875e-01 1.200000000000000000e+01
-7.699410915374755859e+00 1.570661664009094016e+00 -6.874845027923583984e-01 2.000000000000000000e+00
-1.374662685394286932e+01 2.809278011322021040e+00 -7.353202104568481445e-01 4.000000000000000000e+00
-3.367628097534179688e+01 6.894373893737792969e+00 -6.000137329101562500e-01 1.300000000000000000e+01
-2.436965942382812944e+00 5.024539232254028320e-01 -6.667178869247436523e-01 1.400000000000000000e+01
-4.481083679199218750e+01 9.247257232666015625e+00 7.986570000648498535e-01 5.100000000000000000e+01
-2.839784622192382812e+00 5.865406394004821777e-01 -6.694543361663818359e-01 1.300000000000000000e+01
-4.480191040039063211e+01 9.261721611022949219e+00 2.397614717483520952e+00 3.600000000000000000e+01
-3.347250699996947798e+00 6.919638514518737793e-01 -6.643969416618347168e-01 1.200000000000000000e+01
-4.127868652343750000e+00 8.548404574394226074e-01 -6.676623225212097168e-01 1.000000000000000000e+01
-5.405449390411376953e+00 1.121382594108581987e+00 -6.778373122215270996e-01 1.000000000000000000e+01
-7.693881511688232422e+00 1.597527980804442915e+00 -6.874845027923583984e-01 2.000000000000000000e+00
-1.373673725128174006e+01 2.857245445251464844e+00 -7.353202104568481445e-01 4.000000000000000000e+00
-3.363634872436522727e+01 7.008621215820313388e+00 -5.997344851493835449e-01 6.000000000000000000e+00
-2.446541309356689009e+00 5.133377313613891602e-01 -6.698237061500549316e-01 1.500000000000000000e+01
-4.477828216552733664e+01 9.403619766235351562e+00 7.986570000648498535e-01 5.100000000000000000e+01
-2.824370384216309038e+00 5.936438441276550293e-01 -6.663050055503845215e-01 1.400000000000000000e+01
-3.358263254165648970e+00 7.064728140830993652e-01 -6.670682430267333984e-01 1.200000000000000000e+01
-4.117127895355224609e+00 8.676149249076843262e-01 -6.664108037948608398e-01 1.000000000000000000e+01
-5.399559497833251953e+00 1.139834284782409890e+00 -6.775935292243957520e-01 1.200000000000000000e+01
-7.660967350006104404e+00 1.618608951568603960e+00 -6.850441098213195801e-01 1.000000000000000000e+00
-3.364297866821289062e+01 7.132627010345458984e+00 -6.002929806709289551e-01 1.300000000000000000e+01
-2.443027257919311968e+00 5.206185579299926758e-01 -6.693060398101806641e-01 1.500000000000000000e+01
-2.820585727691649947e+00 6.021071076393127441e-01 -6.658551096916198730e-01 1.300000000000000000e+01
-3.354107379913330078e+00 7.166094183921813965e-01 -6.666866540908813477e-01 1.200000000000000000e+01
-4.114381790161132812e+00 8.805449604988098145e-01 -6.664108037948608398e-01 1.000000000000000000e+01
-5.395952224731445312e+00 1.156791925430298074e+00 -6.775935292243957520e-01 1.200000000000000000e+01
-7.663636684417724609e+00 1.644340395927428977e+00 -6.857413649559020996e-01 1.000000000000000000e+00
-3.361258697509766336e+01 7.236600399017333984e+00 -6.001533269882202148e-01 1.300000000000000000e+01
-2.441195011138916016e+00 5.291431546211242676e-01 -6.693060398101806641e-01 1.500000000000000000e+01
-2.816562414169311968e+00 6.115356683731079102e-01 -6.654052138328552246e-01 1.400000000000000000e+01
-3.345829963684082031e+00 7.270624041557312012e-01 -6.655417680740356445e-01 1.300000000000000000e+01
-4.122864246368408203e+00 8.974223136901855469e-01 -6.682880520820617676e-01 1.000000000000000000e+01
-5.376365184783936435e+00 1.172237157821655051e+00 -6.756436228752136230e-01 1.200000000000000000e+01
-7.638384342193604404e+00 1.666833758354187012e+00 -6.839982867240905762e-01 1.000000000000000000e+00
-3.363400268554688211e+01 7.364151000976563388e+00 -6.009910702705383301e-01 1.300000000000000000e+01
-2.435559988021851030e+00 5.368296504020690918e-01 -6.682707667350769043e-01 1.500000000000000000e+01
-2.823925256729125977e+00 6.234641671180725098e-01 -6.676547527313232422e-01 1.300000000000000000e+01
-3.329852581024169922e+00 7.357720136642456055e-01 -6.628704667091369629e-01 1.200000000000000000e+01
-4.115849018096923828e+00 9.109545350074768066e-01 -6.676623225212097168e-01 1.000000000000000000e+01
-5.348984241485595703e+00 1.185841202735901101e+00 -6.727187633514404297e-01 1.200000000000000000e+01
-7.632519721984863281e+00 1.693486452102660911e+00 -6.839982867240905762e-01 1.000000000000000000e+00
-1.369656848907471058e+01 3.043980836868286133e+00 -7.353202104568481445e-01 4.000000000000000000e+00
-3.363151550292968750e+01 7.486724853515625000e+00 -6.014099121093750000e-01 1.300000000000000000e+01
-2.422360658645629883e+00 5.427936315536499023e-01 -6.651649475097656250e-01 1.600000000000000000e+01
-2.823633193969727007e+00 6.337444782257080078e-01 -6.681046485900878906e-01 1.400000000000000000e+01
-3.331094980239868164e+00 7.482514381408691406e-01 -6.636337041854858398e-01 1.300000000000000000e+01
-4.110716819763183594e+00 9.248824119567871094e-01 -6.673493981361389160e-01 1.000000000000000000e+01
-5.352558135986328125e+00 1.206251025199889915e+00 -6.736937165260314941e-01 1.400000000000000000e+01
-7.634335994720458984e+00 1.721872091293334961e+00 -6.846955418586730957e-01 1.000000000000000000e+00
-3.370659637451171875e+01 7.627024173736572266e+00 -6.032249927520751953e-01 1.300000000000000000e+01
-2.420354843139647993e+00 5.516683459281921387e-01 -6.651649475097656250e-01 1.700000000000000000e+01
-2.817491769790648970e+00 6.432219147682189941e-01 -6.672048568725585938e-01 1.300000000000000000e+01
-3.345555543899536133e+00 7.643911242485046387e-01 -6.670682430267333984e-01 1.300000000000000000e+01
-4.093820095062255859e+00 9.368580579757690430e-01 -6.651593446731567383e-01 1.000000000000000000e+01
-5.344231128692626953e+00 1.224974036216736062e+00 -6.732062697410583496e-01 1.200000000000000000e+01
-7.604670047760009766e+00 1.744495987892151101e+00 -6.826037764549255371e-01 1.000000000000000000e+00
-3.353810501098632812e+01 7.718224048614501953e+00 -6.007118225097656250e-01 1.300000000000000000e+01
-2.425942659378052202e+00 5.618571639060974121e-01 -6.672354936599731445e-01 1.900000000000000000e+01
-2.803839206695557085e+00 6.504107117652893066e-01 -6.645054221153259277e-01 1.300000000000000000e+01
-3.329480171203612837e+00 7.729568481445312500e-01 -6.643969416618347168e-01 1.200000000000000000e+01
-4.094373226165770596e+00 9.520372152328491211e-01 -6.657850742340087891e-01 1.000000000000000000e+01
-5.343789577484130859e+00 1.244521975517272949e+00 -6.736937165260314941e-01 1.200000000000000000e+01
-7.590773105621337891e+00 1.769221544265747070e+00 -6.819065213203430176e-01 1.000000000000000000e+00
-3.353043365478516336e+01 7.839799404144287109e+00 -6.010608673095703125e-01 2.000000000000000000e+01
-2.425946712493896040e+00 5.703409314155578613e-01 -6.677531599998474121e-01 2.100000000000000000e+01
-2.795976400375366211e+00 6.583650708198547363e-01 -6.631557345390319824e-01 1.200000000000000000e+01
-3.319255113601685014e+00 7.821922898292541504e-01 -6.628704667091369629e-01 1.200000000000000000e+01
-4.096961021423339844e+00 9.669706821441650391e-01 -6.667236685752868652e-01 9.000000000000000000e+00
-5.320314407348632812e+00 1.257669091224669966e+00 -6.712563633918762207e-01 1.200000000000000000e+01
-7.584864139556884766e+00 1.794383764266967995e+00 -6.819065213203430176e-01 1.000000000000000000e+00
-3.364822769165039062e+01 7.985115051269531250e+00 -6.036438345909118652e-01 2.000000000000000000e+01
-2.422061920166016069e+00 5.783568620681762695e-01 -6.672354936599731445e-01 1.900000000000000000e+01
-2.814509391784667969e+00 6.731067895889282227e-01 -6.681046485900878906e-01 1.300000000000000000e+01
-3.318413734436035156e+00 7.942308783531188965e-01 -6.632520556449890137e-01 1.200000000000000000e+01
-4.099323749542236328e+00 9.826472997665405273e-01 -6.676623225212097168e-01 1.000000000000000000e+01
-5.308171272277832031e+00 1.274379134178162065e+00 -6.702814102172851562e-01 1.100000000000000000e+01
-7.539809226989746094e+00 1.811539888381958008e+00 -6.784203052520751953e-01 1.000000000000000000e+00
-1.325299167633056996e+01 3.189101934432982954e+00 -7.143858075141906738e-01 4.000000000000000000e+00
-3.360459899902343750e+01 8.098773002624511719e+00 -6.033645868301391602e-01 1.300000000000000000e+01
-2.397499084472655806e+00 5.813450217247009277e-01 -6.610238552093505859e-01 2.000000000000000000e+01
-2.802674293518065962e+00 6.806277632713317871e-01 -6.658551096916198730e-01 1.300000000000000000e+01
-3.306082487106322798e+00 8.034912347793579102e-01 -6.613439917564392090e-01 1.300000000000000000e+01
-4.076675415039063388e+00 9.922788739204406738e-01 -6.645336151123046875e-01 1.000000000000000000e+01
-5.303690433502197266e+00 1.292900323867798074e+00 -6.702814102172851562e-01 1.100000000000000000e+01
-7.560538768768311435e+00 1.844458699226378950e+00 -6.808606386184692383e-01 0.000000000000000000e+00
-3.358000946044921875e+01 8.216976165771484375e+00 -6.034343838691711426e-01 1.300000000000000000e+01
-2.410461902618408203e+00 5.934046506881713867e-01 -6.651649475097656250e-01 1.900000000000000000e+01
-2.802173376083374023e+00 6.908732652664184570e-01 -6.663050055503845215e-01 1.200000000000000000e+01
-3.312788248062133789e+00 8.173782229423522949e-01 -6.632520556449890137e-01 1.200000000000000000e+01
-4.071269035339354581e+00 1.006029248237610085e+00 -6.642207503318786621e-01 9.000000000000000000e+00
-5.302999019622802734e+00 1.312359571456908958e+00 -6.707688570022583008e-01 1.200000000000000000e+01
-7.530846595764160156e+00 1.865091085433959961e+00 -6.787689328193664551e-01 2.000000000000000000e+00
-3.360546112060546875e+01 8.347640037536621094e+00 -6.044117212295532227e-01 6.000000000000000000e+00
-2.412229537963867188e+00 6.023308038711547852e-01 -6.662002205848693848e-01 1.800000000000000000e+01
-2.786633253097534180e+00 6.968524456024169922e-01 -6.631557345390319824e-01 1.200000000000000000e+01
-3.315773010253905806e+00 8.297891616821289062e-01 -6.643969416618347168e-01 1.300000000000000000e+01
-4.060245990753173828e+00 1.017603516578674094e+00 -6.629692912101745605e-01 1.000000000000000000e+01
-5.275513172149658203e+00 1.324138522148132102e+00 -6.678439974784851074e-01 1.300000000000000000e+01
-7.509161472320556641e+00 1.886170983314513938e+00 -6.773744225502014160e-01 2.000000000000000000e+00
-1.309548759460449041e+01 3.294219017028809038e+00 -7.076867818832397461e-01 4.000000000000000000e+00
-3.367842864990233664e+01 8.484436035156250000e+00 -6.062268018722534180e-01 6.000000000000000000e+00
-2.415730237960814986e+00 6.121710538864135742e-01 -6.677531599998474121e-01 1.900000000000000000e+01
-2.786072731018065962e+00 7.070547342300415039e-01 -6.636056303977966309e-01 1.400000000000000000e+01
-3.297633647918701172e+00 8.374922275543212891e-01 -6.613439917564392090e-01 1.300000000000000000e+01
-4.060498237609863281e+00 1.032744050025939941e+00 -6.635950207710266113e-01 1.000000000000000000e+01
-5.274706363677979404e+00 1.343525409698486106e+00 -6.683315038681030273e-01 1.100000000000000000e+01
-7.498670578002929688e+00 1.911387085914612038e+00 -6.770257949829101562e-01 1.000000000000000000e+00
-1.301424121856688920e+01 3.322126865386962891e+00 -7.039186358451843262e-01 4.000000000000000000e+00
-3.372222900390625000e+01 8.620764732360839844e+00 -6.075531840324401855e-01 1.300000000000000000e+01
-2.404223680496215820e+00 6.181943416595458984e-01 -6.651649475097656250e-01 1.900000000000000000e+01
-2.783587694168090820e+00 7.167756557464599609e-01 -6.636056303977966309e-01 1.400000000000000000e+01
-3.290887832641602007e+00 8.480182290077209473e-01 -6.605807542800903320e-01 1.200000000000000000e+01
-4.056868553161621094e+00 1.046911597251892090e+00 -6.635950207710266113e-01 1.000000000000000000e+01
-5.250764846801757812e+00 1.356962442398071067e+00 -6.658940911293029785e-01 1.100000000000000000e+01
-7.480379104614257812e+00 1.934557557106018066e+00 -6.759799122810363770e-01 1.000000000000000000e+00
-1.300256538391112926e+01 3.367534875869750977e+00 -7.039186358451843262e-01 4.000000000000000000e+00
-3.375387191772460938e+01 8.754489898681640625e+00 -6.086701154708862305e-01 1.300000000000000000e+01
-2.388966083526610884e+00 6.231696009635925293e-01 -6.615414619445800781e-01 1.800000000000000000e+01
-2.790496110916138139e+00 7.289504408836364746e-01 -6.658551096916198730e-01 1.300000000000000000e+01
-3.293605804443358931e+00 8.609899878501892090e-01 -6.617255806922912598e-01 1.300000000000000000e+01
-4.055100440979003906e+00 1.061566591262816939e+00 -6.639078855514526367e-01 1.000000000000000000e+01
-6.088668060302733664e+01 1.595060825347900035e+01 7.728222370147705078e+00 6.300000000000000000e+01
-5.257517814636229581e+00 1.378303170204163042e+00 -6.673565506935119629e-01 1.100000000000000000e+01
-7.485143661499023438e+00 1.963690757751465066e+00 -6.770257949829101562e-01 1.000000000000000000e+00
-1.299073123931884943e+01 3.412901639938354048e+00 -7.039186358451843262e-01 4.000000000000000000e+00
-3.374631118774414062e+01 8.878364562988281250e+00 -6.090889573097229004e-01 1.300000000000000000e+01
-2.394246578216553178e+00 6.334813833236694336e-01 -6.636120080947875977e-01 1.800000000000000000e+01
-2.782283306121826172e+00 7.371893525123596191e-01 -6.645054221153259277e-01 1.300000000000000000e+01
-3.284887313842772993e+00 8.709720969200134277e-01 -6.605807542800903320e-01 1.300000000000000000e+01
-6.084421920776367188e+01 1.614391899108887074e+01 5.507371425628662109e+00 5.400000000000000000e+01
-4.036096096038818359e+00 1.071659564971924050e+00 -6.614049077033996582e-01 1.000000000000000000e+01
-6.092655944824218750e+01 1.618853378295898082e+01 7.740409374237061435e+00 6.300000000000000000e+01
-5.237327098846436435e+00 1.392566204071044922e+00 -6.654066443443298340e-01 1.100000000000000000e+01
-7.455139160156250000e+00 1.983659148216248003e+00 -6.749340891838073730e-01 1.000000000000000000e+00
-1.288224315643311080e+01 3.432515382766724077e+00 -6.986849904060363770e-01 4.000000000000000000e+00
-3.370738601684570312e+01 8.994045257568359375e+00 -6.089493632316589355e-01 1.300000000000000000e+01
-2.393886566162108931e+00 6.423356533050537109e-01 -6.641296744346618652e-01 1.900000000000000000e+01
-2.777811050415039062e+00 7.463911175727844238e-01 -6.640555262565612793e-01 1.400000000000000000e+01
-3.295098543167113814e+00 8.860016465187072754e-01 -6.632520556449890137e-01 1.300000000000000000e+01
-4.032330989837645596e+00 1.085741639137268066e+00 -6.614049077033996582e-01 1.000000000000000000e+01
-5.226684093475341797e+00 1.409289002418518066e+00 -6.646754145622253418e-01 9.000000000000000000e+00
-7.440474987030029297e+00 2.007594108581542969e+00 -6.742368340492248535e-01 1.000000000000000000e+00
-1.287018299102783025e+01 3.477461814880371094e+00 -6.986849904060363770e-01 4.000000000000000000e+00
-3.371825408935546875e+01 9.123141288757324219e+00 -6.097172498703002930e-01 1.400000000000000000e+01
-2.402928352355957031e+00 6.533115506172180176e-01 -6.672354936599731445e-01 1.900000000000000000e+01
-2.765919208526610884e+00 7.530390024185180664e-01 -6.618059873580932617e-01 1.300000000000000000e+01
-3.286459684371947798e+00 8.953755497932434082e-01 -6.621072292327880859e-01 1.300000000000000000e+01
-6.092514419555664062e+01 1.661010169982910156e+01 5.524802684783936435e+00 5.300000000000000000e+01
-4.032519817352294922e+00 1.100147247314452903e+00 -6.620306372642517090e-01 1.000000000000000000e+01
-5.212407588958740234e+00 1.423997879028320090e+00 -6.634566783905029297e-01 1.100000000000000000e+01
-7.441463947296142578e+00 2.034358263015747070e+00 -6.749340891838073730e-01 1.000000000000000000e+00
-1.276226139068604049e+01 3.493753910064696822e+00 -6.934514045715332031e-01 4.000000000000000000e+00
-3.375724411010742188e+01 9.253937721252441406e+00 -6.109738349914550781e-01 7.000000000000000000e+00
-2.395045995712279829e+00 6.601553559303283691e-01 -6.656825542449951172e-01 1.700000000000000000e+01
-2.776423215866088867e+00 7.663186192512512207e-01 -6.649553179740905762e-01 1.400000000000000000e+01
-3.273852109909058061e+00 9.042285680770874023e-01 -6.601991057395935059e-01 1.400000000000000000e+01
-4.032462596893311435e+00 1.115269780158997026e+00 -6.626563668251037598e-01 1.000000000000000000e+01
-5.215057373046875000e+00 1.444303154945373979e+00 -6.644316315650939941e-01 1.100000000000000000e+01
-7.430477619171142578e+00 2.059257268905640093e+00 -6.745854616165161133e-01 1.000000000000000000e+00
-3.369005584716796875e+01 9.362078666687011719e+00 -6.103455424308776855e-01 7.000000000000000000e+00
-2.381563425064086914e+00 6.653925776481628418e-01 -6.625767350196838379e-01 1.900000000000000000e+01
-2.762471437454224077e+00 7.728552818298339844e-01 -6.622558832168579102e-01 1.400000000000000000e+01
-3.270675897598267046e+00 9.156509637832641602e-01 -6.601991057395935059e-01 1.400000000000000000e+01
-4.017132759094238281e+00 1.126139640808105025e+00 -6.607791781425476074e-01 1.000000000000000000e+01
-5.202339172363281250e+00 1.460352301597594993e+00 -6.634566783905029297e-01 1.100000000000000000e+01
-7.377208232879638672e+00 2.072250604629517046e+00 -6.704019904136657715e-01 1.000000000000000000e+00
-1.266834354400634943e+01 3.563296794891356978e+00 -6.896832585334777832e-01 4.000000000000000000e+00
-3.352243423461914062e+01 9.441672325134277344e+00 -6.079022288322448730e-01 6.000000000000000000e+00
-2.379226446151732954e+00 6.737017035484313965e-01 -6.625767350196838379e-01 2.000000000000000000e+01
-2.763506412506103960e+00 7.835565805435180664e-01 -6.631557345390319824e-01 1.300000000000000000e+01
-3.275014400482178178e+00 9.292056560516357422e-01 -6.617255806922912598e-01 1.400000000000000000e+01
-3.997976064682006836e+00 1.135836482048034890e+00 -6.582762002944946289e-01 9.000000000000000000e+00
-5.193391323089599609e+00 1.477416634559630904e+00 -6.629692316055297852e-01 1.100000000000000000e+01
-7.346934795379638672e+00 2.091443061828612837e+00 -6.683102250099182129e-01 2.000000000000000000e+00
-1.265582847595215021e+01 3.607495784759521040e+00 -6.896832585334777832e-01 4.000000000000000000e+00
-3.358541488647460938e+01 9.586072921752929688e+00 -6.096474528312683105e-01 1.400000000000000000e+01
-2.386144876480102983e+00 6.846667528152465820e-01 -6.651649475097656250e-01 1.900000000000000000e+01
-2.745770692825316939e+00 7.888932228088378906e-01 -6.595565080642700195e-01 1.400000000000000000e+01
-3.267977476119995117e+00 9.395470023155212402e-01 -6.609623432159423828e-01 1.400000000000000000e+01
-4.005376338958740234e+00 1.153063893318176047e+00 -6.601534485816955566e-01 9.000000000000000000e+00
-5.180572509765625000e+00 1.493336677551269975e+00 -6.619942784309387207e-01 1.100000000000000000e+01
-7.354904174804688388e+00 2.121493577957152876e+00 -6.697047352790832520e-01 2.000000000000000000e+00
-1.258943176269531072e+01 3.636133193969727007e+00 -6.867524385452270508e-01 4.000000000000000000e+00
-3.360169601440429688e+01 9.717693328857421875e+00 -6.105549931526184082e-01 7.000000000000000000e+00
-2.389305591583251953e+00 6.946096420288085938e-01 -6.667178869247436523e-01 2.000000000000000000e+01
-2.748613357543944868e+00 8.001068830490112305e-01 -6.609061956405639648e-01 1.300000000000000000e+01
-3.253368377685546875e+00 9.476543664932250977e-01 -6.586726307868957520e-01 1.300000000000000000e+01
-3.986156225204468218e+00 1.162613511085510032e+00 -6.576504707336425781e-01 9.000000000000000000e+00
-5.169611930847167969e+00 1.509741663932800071e+00 -6.612630486488342285e-01 9.000000000000000000e+00
-7.320680618286132812e+00 2.139329910278319868e+00 -6.672643423080444336e-01 2.000000000000000000e+00
-1.250765514373778942e+01 3.659863948822021040e+00 -6.829842329025268555e-01 4.000000000000000000e+00
-3.346010208129882812e+01 9.803440093994140625e+00 -6.086003184318542480e-01 6.000000000000000000e+00
-2.381306886672974077e+00 7.013083696365356445e-01 -6.651649475097656250e-01 2.100000000000000000e+01
-2.751411199569702148e+00 8.113500475883483887e-01 -6.622558832168579102e-01 1.400000000000000000e+01
-3.250040531158446822e+00 9.590049386024475098e-01 -6.586726307868957520e-01 1.200000000000000000e+01
-3.993440151214600053e+00 1.179878950119018999e+00 -6.595277190208435059e-01 9.000000000000000000e+00
-5.156696319580078125e+00 1.525525212287903054e+00 -6.602880954742431641e-01 1.100000000000000000e+01
-7.332272529602050781e+00 2.170526266098022017e+00 -6.690074801445007324e-01 2.000000000000000000e+00
-1.253310108184813920e+01 3.714853286743164062e+00 -6.850776672363281250e-01 4.000000000000000000e+00
-3.347168731689453125e+01 9.933832168579101562e+00 -6.094380617141723633e-01 7.000000000000000000e+00
-2.375141859054564986e+00 7.085119485855102539e-01 -6.641296744346618652e-01 2.100000000000000000e+01
-2.746695280075072798e+00 8.203915953636169434e-01 -6.618059873580932617e-01 1.500000000000000000e+01
-3.241030216217041016e+00 9.686573147773742676e-01 -6.575278043746948242e-01 1.200000000000000000e+01
-3.996867179870605025e+00 1.196076750755310059e+00 -6.607791781425476074e-01 1.000000000000000000e+01
-5.155142784118652344e+00 1.544655799865723100e+00 -6.607756018638610840e-01 1.100000000000000000e+01
-7.297933101654052734e+00 2.188096523284912109e+00 -6.665671467781066895e-01 2.000000000000000000e+00
-1.251240634918213068e+01 3.756282329559326172e+00 -6.846590042114257812e-01 4.000000000000000000e+00
-3.343680953979492188e+01 1.005060958862305043e+01 -6.094380617141723633e-01 7.000000000000000000e+00
-2.359709024429320845e+00 7.128875851631164551e-01 -6.605061888694763184e-01 1.900000000000000000e+01
-2.745680093765258789e+00 8.305385708808898926e-01 -6.622558832168579102e-01 1.400000000000000000e+01
-3.239508152008057085e+00 9.805334806442260742e-01 -6.579093933105468750e-01 1.200000000000000000e+01
-3.966201305389403853e+00 1.202000141143799050e+00 -6.563990116119384766e-01 9.000000000000000000e+00
-5.155418395996093750e+00 1.564370393753051980e+00 -6.615067720413208008e-01 1.100000000000000000e+01
-7.282624721527099609e+00 2.211242198944091797e+00 -6.658698916435241699e-01 2.000000000000000000e+00
-1.239985084533691051e+01 3.769726991653441939e+00 -6.792160272598266602e-01 3.000000000000000000e+00
-3.347421646118164062e+01 1.018939304351806996e+01 -6.107644438743591309e-01 7.000000000000000000e+00
-2.375679731369018999e+00 7.267715930938720703e-01 -6.656825542449951172e-01 2.000000000000000000e+01
-2.724131345748900923e+00 8.344104290008544922e-01 -6.577568650245666504e-01 1.400000000000000000e+01
