5.908426761627197266e+00 5.620622634887695312e+00 -4.273754060268402100e-01 2.000000000000000000e+00
9.727876663208007812e+00 9.247556686401367188e+00 -2.342811077833175937e-01 2.000000000000000000e+00
1.623798251152039018e+00 1.538773894309998003e+00 -5.994248986244201660e-01 1.500000000000000000e+01
1.859270691871643066e+00 1.760685324668884055e+00 -5.911713838577270508e-01 1.300000000000000000e+01
2.157151222229003906e+00 2.042057037353516069e+00 -5.773880481719970703e-01 1.300000000000000000e+01
2.554338693618773970e+00 2.416362762451171875e+00 -5.569067001342773438e-01 9.000000000000000000e+00
3.176507949829102007e+00 3.002824306488037109e+00 -5.367125868797302246e-01 1.000000000000000000e+01
4.109700679779052734e+00 3.883634090423583984e+00 -4.946959912776947021e-01 8.000000000000000000e+00
5.937700271606445312e+00 5.607157230377197266e+00 -4.280034601688385010e-01 1.000000000000000000e+00
9.787883758544921875e+00 9.236544609069824219e+00 -2.349093854427337924e-01 2.000000000000000000e+00
1.633380293846129927e+00 1.537068128585814986e+00 -6.009778380393981934e-01 1.500000000000000000e+01
1.865405321121216042e+00 1.754184484481811968e+00 -5.911713838577270508e-01 1.300000000000000000e+01
2.159974813461304155e+00 2.030480861663817915e+00 -5.762431621551513672e-01 1.300000000000000000e+01
2.565637350082397017e+00 2.410136699676514116e+00 -5.575324296951293945e-01 9.000000000000000000e+00
3.176839113235474077e+00 2.982207298278809038e+00 -5.350064039230346680e-01 9.000000000000000000e+00
4.131948947906494141e+00 3.877445220947266069e+00 -4.957418739795684814e-01 9.000000000000000000e+00
5.957236766815186435e+00 5.586396694183349609e+00 -4.280034601688385010e-01 2.000000000000000000e+00
9.793800354003906250e+00 9.177709579467773438e+00 -2.342811077833175937e-01 2.000000000000000000e+00
1.635378956794738992e+00 1.529290199279784934e+00 -5.999425649642944336e-01 1.700000000000000000e+01
1.873754739761352983e+00 1.750976562500000000e+00 -5.920711755752563477e-01 1.400000000000000000e+01
2.164908409118651900e+00 2.022344827651977983e+00 -5.758615732192993164e-01 1.200000000000000000e+01
2.576084375381470171e+00 2.404760599136352983e+00 -5.581581592559814453e-01 9.000000000000000000e+00
3.190547227859497070e+00 2.976274490356444868e+00 -5.357376337051391602e-01 1.000000000000000000e+01
4.141195774078369141e+00 3.861727476119995117e+00 -4.953932464122772217e-01 9.000000000000000000e+00
5.995213985443115234e+00 5.586716175079345703e+00 -4.294688701629639227e-01 1.000000000000000000e+00
9.822585105895996094e+00 9.146896362304687500e+00 -2.342811077833175937e-01 2.000000000000000000e+00
1.640707254409790039e+00 1.523572325706481934e+00 -5.999425649642944336e-01 1.600000000000000000e+01
1.878426909446716087e+00 1.743099808692931907e+00 -5.916212797164916992e-01 1.200000000000000000e+01
2.176272630691527876e+00 2.018781185150146040e+00 -5.770063996315002441e-01 1.400000000000000000e+01
2.581565380096435991e+00 2.393067836761475053e+00 -5.575324296951293945e-01 9.000000000000000000e+00
3.205285549163817915e+00 2.969166278839110884e+00 -5.364688634872436523e-01 9.000000000000000000e+00
4.147341251373291016e+00 3.840479850769042969e+00 -4.945216774940490723e-01 9.000000000000000000e+00
6.026406288146972656e+00 5.576607227325438565e+00 -4.303062260150908869e-01 2.000000000000000000e+00
9.889690399169921875e+00 9.145136833190917969e+00 -2.351188212633132935e-01 2.000000000000000000e+00
1.640862584114074929e+00 1.512024760246277078e+00 -5.978720188140869141e-01 1.800000000000000000e+01
1.886539578437804954e+00 1.737194299697875977e+00 -5.920711755752563477e-01 1.200000000000000000e+01
2.179674863815308061e+00 2.006421089172362837e+00 -5.758615732192993164e-01 1.300000000000000000e+01
2.584919691085814986e+00 2.377788305282593218e+00 -5.562809705734252930e-01 9.000000000000000000e+00
3.215201377868651900e+00 2.955493688583374023e+00 -5.362251400947570801e-01 1.000000000000000000e+01
4.162056922912597656e+00 3.824527025222777876e+00 -4.945216774940490723e-01 8.000000000000000000e+00
6.033063411712645596e+00 5.539917945861816406e+00 -4.292595088481903076e-01 2.000000000000000000e+00
9.880530357360839844e+00 9.066535949707031250e+00 -2.340716719627380094e-01 2.000000000000000000e+00
1.657532334327697976e+00 1.516721129417418990e+00 -6.020131111145019531e-01 1.900000000000000000e+01
1.882525086402893066e+00 1.721393227577209029e+00 -5.889218449592590332e-01 1.300000000000000000e+01
2.193910598754882812e+00 2.005423307418822798e+00 -5.777696371078491211e-01 1.300000000000000000e+01
2.587370157241820845e+00 2.363421678543090820e+00 -5.550295114517211914e-01 9.000000000000000000e+00
3.226964473724364790e+00 2.945590734481811968e+00 -5.364688634872436523e-01 9.000000000000000000e+00
4.188627243041992188e+00 3.822062015533446822e+00 -4.960905015468596857e-01 9.000000000000000000e+00
6.031702995300292969e+00 5.499984264373779297e+00 -4.277940988540648859e-01 2.000000000000000000e+00
9.944636344909667969e+00 9.061621665954589844e+00 -2.348395884037018100e-01 2.000000000000000000e+00
1.663718342781066895e+00 1.512805938720702903e+00 -6.025307178497314453e-01 1.900000000000000000e+01
1.893692731857300027e+00 1.720712661743164062e+00 -5.907214879989624023e-01 1.500000000000000000e+01
2.192933797836304155e+00 1.991920828819274902e+00 -5.758615732192993164e-01 1.300000000000000000e+01
2.609408855438231978e+00 2.368558406829833984e+00 -5.581581592559814453e-01 9.000000000000000000e+00
3.230321168899536133e+00 2.930103778839110884e+00 -5.354939103126525879e-01 9.000000000000000000e+00
4.197662353515625000e+00 3.806207656860352007e+00 -4.957418739795684814e-01 9.000000000000000000e+00
6.075592517852783203e+00 5.505147933959960938e+00 -4.296782016754149836e-01 2.000000000000000000e+00
9.978984832763671875e+00 9.035703659057617188e+00 -2.349791973829269132e-01 2.000000000000000000e+00
1.664687395095824973e+00 1.503105282783508079e+00 -6.009778380393981934e-01 2.000000000000000000e+01
1.906921744346619096e+00 1.720619320869446023e+00 -5.929709672927856445e-01 1.400000000000000000e+01
2.201331377029418945e+00 1.985568881034851074e+00 -5.762431621551513672e-01 1.300000000000000000e+01
2.620595455169678178e+00 2.362080574035644975e+00 -5.587838888168334961e-01 1.000000000000000000e+01
3.246429204940795898e+00 2.924124240875244141e+00 -5.364688634872436523e-01 9.000000000000000000e+00
4.203519344329833984e+00 3.784866094589232954e+00 -4.948703050613402765e-01 9.000000000000000000e+00
6.082894325256347656e+00 5.473218917846679688e+00 -4.288408160209655762e-01 2.000000000000000000e+00
9.968828201293945312e+00 8.963378906250000000e+00 -2.340018600225448886e-01 2.000000000000000000e+00
1.658676743507385032e+00 1.486678600311279075e+00 -5.968367457389831543e-01 1.900000000000000000e+01
1.913215279579163042e+00 1.713618516921997070e+00 -5.929709672927856445e-01 1.400000000000000000e+01
2.205668926239014116e+00 1.974868059158324973e+00 -5.754799246788024902e-01 1.500000000000000000e+01
2.632179498672484907e+00 2.355093955993651900e+00 -5.594096183776855469e-01 9.000000000000000000e+00
3.254165172576903853e+00 2.909559488296508789e+00 -5.359813570976257324e-01 1.000000000000000000e+01
4.217363357543945312e+00 3.769433975219727007e+00 -4.948703050613402765e-01 9.000000000000000000e+00
6.132706165313720703e+00 5.477496623992919922e+00 -4.309342503547667902e-01 2.000000000000000000e+00
1.001354885101318004e+01 8.937434196472167969e+00 -2.342811077833175937e-01 2.000000000000000000e+00
1.672514557838439941e+00 1.488585948944092019e+00 -5.999425649642944336e-01 1.900000000000000000e+01
1.917729139328002930e+00 1.705634713172913042e+00 -5.925210714340209961e-01 1.300000000000000000e+01
2.215483427047729048e+00 1.969765782356261985e+00 -5.762431621551513672e-01 1.500000000000000000e+01
2.637430906295775923e+00 2.343267679214477983e+00 -5.587838888168334961e-01 9.000000000000000000e+00
3.277661800384521040e+00 2.910044193267821822e+00 -5.381750464439392090e-01 1.000000000000000000e+01
4.246887207031250000e+00 3.769237518310546875e+00 -4.967877268791198730e-01 9.000000000000000000e+00
6.145811557769775391e+00 5.450755119323729581e+00 -4.305155873298645020e-01 2.000000000000000000e+00
1.008658790588379084e+01 8.939563751220703125e+00 -2.352584451436995905e-01 2.000000000000000000e+00
1.680595517158508079e+00 1.485297322273253950e+00 -6.009778380393981934e-01 1.900000000000000000e+01
1.917828679084778054e+00 1.693770170211791992e+00 -5.907214879989624023e-01 1.200000000000000000e+01
2.225289106369018999e+00 1.964619040489196999e+00 -5.770063996315002441e-01 1.500000000000000000e+01
2.642631769180297852e+00 2.331433296203612837e+00 -5.581581592559814453e-01 9.000000000000000000e+00
3.278865337371826172e+00 2.890708684921265093e+00 -5.367125868797302246e-01 1.000000000000000000e+01
4.254039287567138672e+00 3.749120950698852983e+00 -4.960905015468596857e-01 9.000000000000000000e+00
6.149812221527099609e+00 5.416068553924561435e+00 -4.294688701629639227e-01 2.000000000000000000e+00
1.010572242736816051e+01 8.893731117248535156e+00 -2.349791973829269132e-01 2.000000000000000000e+00
3.612347030639647727e+01 3.179114151000976918e+01 1.289384746551514027e+01 1.400000000000000000e+01
1.691578030586242898e+00 1.484519004821776900e+00 -6.030483841896057129e-01 1.900000000000000000e+01
1.922264218330383079e+00 1.685780525207519975e+00 -5.902715921401977539e-01 1.300000000000000000e+01
2.223275661468505859e+00 1.949074149131774902e+00 -5.747166872024536133e-01 1.300000000000000000e+01
2.652239799499512163e+00 2.323496103286743164e+00 -5.584710240364074707e-01 1.100000000000000000e+01
3.284455060958861861e+00 2.875323057174683061e+00 -5.359813570976257324e-01 1.000000000000000000e+01
4.279095172882080078e+00 3.744745492935181108e+00 -4.974849820137023926e-01 9.000000000000000000e+00
6.159659862518311435e+00 5.386680126190186435e+00 -4.288408160209655762e-01 2.000000000000000000e+00
3.620796585083007812e+01 3.165305328369140980e+01 1.110313415527343928e+01 1.400000000000000000e+01
1.019392395019531072e+01 8.908404350280761719e+00 -2.363055795431137085e-01 2.000000000000000000e+00
1.687754273414612038e+00 1.471284747123718040e+00 -5.999425649642944336e-01 1.800000000000000000e+01
1.930782675743103027e+00 1.681956768035888894e+00 -5.911713838577270508e-01 1.200000000000000000e+01
2.232687950134276900e+00 1.944269299507140891e+00 -5.754799246788024902e-01 1.300000000000000000e+01
2.661420345306396040e+00 2.315984964370727983e+00 -5.587838888168334961e-01 1.000000000000000000e+01
3.295469999313354048e+00 2.865718126296997070e+00 -5.362251400947570801e-01 1.000000000000000000e+01
4.277956485748291016e+00 3.718770742416381836e+00 -4.959161877632141113e-01 9.000000000000000000e+00
6.198597908020020419e+00 5.384561538696289062e+00 -4.303062260150908869e-01 2.000000000000000000e+00
3.635393142700195312e+01 3.156858634948730113e+01 1.111573123931884943e+01 1.400000000000000000e+01
1.022340965270995916e+01 8.874550819396972656e+00 -2.363055795431137085e-01 2.000000000000000000e+00
3.546662139892578125e+01 3.078722000122069957e+01 1.258430004119873047e+01 1.400000000000000000e+01
1.687037110328674094e+00 1.460326910018920898e+00 -5.978720188140869141e-01 1.700000000000000000e+01
1.944011330604553001e+00 1.681581258773803933e+00 -5.934208631515502930e-01 1.300000000000000000e+01
2.232035875320435014e+00 1.930043339729309082e+00 -5.735718607902526855e-01 1.300000000000000000e+01
2.669488430023192915e+00 2.306680917739868164e+00 -5.587838888168334961e-01 9.000000000000000000e+00
3.682470703125000000e+01 3.180867385864258168e+01 5.974766254425048828e+00 4.900000000000000000e+01
3.309960365295410156e+00 2.858089447021483931e+00 -5.369563102722167969e-01 9.000000000000000000e+00
4.281861782073974609e+00 3.696004152297974077e+00 -4.948703050613402765e-01 9.000000000000000000e+00
6.235504150390625000e+00 5.378545761108398438e+00 -4.315623044967650812e-01 2.000000000000000000e+00
3.642258071899414062e+01 3.140586280822753906e+01 1.110313415527343928e+01 1.400000000000000000e+01
1.016344451904297053e+01 8.760476112365722656e+00 -2.342112958431243896e-01 2.000000000000000000e+00
3.583680343627929688e+01 3.087896347045898082e+01 1.267540359497069957e+01 1.400000000000000000e+01
1.697729706764220969e+00 1.459762573242187944e+00 -5.999425649642944336e-01 1.700000000000000000e+01
1.945142745971679910e+00 1.671315550804137962e+00 -5.920711755752563477e-01 1.100000000000000000e+01
2.250338315963745117e+00 1.932864546775818093e+00 -5.766248106956481934e-01 1.200000000000000000e+01
2.683118820190430132e+00 2.302962064743041992e+00 -5.600354075431823730e-01 1.000000000000000000e+01
3.692998504638671875e+01 3.168638420104980113e+01 5.974766254425048828e+00 4.900000000000000000e+01
3.328460693359375000e+00 2.854851722717285156e+00 -5.384187698364257812e-01 9.000000000000000000e+00
4.304682731628417969e+00 3.690862655639647993e+00 -4.960905015468596857e-01 9.000000000000000000e+00
6.235105514526367188e+00 5.342244625091552734e+00 -4.303062260150908869e-01 2.000000000000000000e+00
1.021978187561034979e+01 8.750134468078613281e+00 -2.348395884037018100e-01 2.000000000000000000e+00
3.596591949462891336e+01 3.079386901855469105e+01 1.268679237365723012e+01 1.400000000000000000e+01
1.710160970687865989e+00 1.460099339485168013e+00 -6.025307178497314453e-01 1.700000000000000000e+01
1.943552374839782937e+00 1.658191323280334029e+00 -5.898216366767883301e-01 1.300000000000000000e+01
2.255577802658081055e+00 1.923723697662353960e+00 -5.762431621551513672e-01 1.000000000000000000e+01
2.688134431838988814e+00 2.291019439697266069e+00 -5.594096183776855469e-01 1.500000000000000000e+01
3.332360506057738814e+00 2.838067531585692915e+00 -5.374438166618347168e-01 9.000000000000000000e+00
4.329676151275634766e+00 3.686146497726439986e+00 -4.974849820137023926e-01 9.000000000000000000e+00
6.253715515136718750e+00 5.320447444915770596e+00 -4.303062260150908869e-01 2.000000000000000000e+00
1.023807525634765980e+01 8.704045295715332031e+00 -2.345603406429291049e-01 2.000000000000000000e+00
3.607318878173828125e+01 3.066813659667969105e+01 1.268679237365723012e+01 1.400000000000000000e+01
1.718194484710692915e+00 1.456619381904602051e+00 -6.035659909248352051e-01 1.700000000000000000e+01
1.949328660964966042e+00 1.651396989822387917e+00 -5.898216366767883301e-01 1.200000000000000000e+01
2.257784366607666016e+00 1.912032246589661089e+00 -5.750983357429504395e-01 8.000000000000000000e+00
2.705162525177001953e+00 2.289278745651245117e+00 -5.612868666648864746e-01 1.100000000000000000e+01
3.339215517044066939e+00 2.823854446411132812e+00 -5.369563102722167969e-01 9.000000000000000000e+00
4.354689598083496094e+00 3.681300878524779829e+00 -4.988794624805449884e-01 9.000000000000000000e+00
6.275300979614257812e+00 5.301163196563720703e+00 -4.305155873298645020e-01 2.000000000000000000e+00
1.023172283172607067e+01 8.637296676635742188e+00 -2.337226271629332941e-01 2.000000000000000000e+00
3.650425720214843750e+01 3.080483055114746094e+01 1.279860210418700994e+01 1.400000000000000000e+01
1.720312595367432085e+00 1.448124647140502930e+00 -6.025307178497314453e-01 1.700000000000000000e+01
1.965520262718200906e+00 1.653363704681396040e+00 -5.929709672927856445e-01 1.200000000000000000e+01
2.253926753997803178e+00 1.895294666290282981e+00 -5.724269747734069824e-01 7.000000000000000000e+00
2.720698833465576172e+00 2.286175966262816939e+00 -5.628511905670166016e-01 1.000000000000000000e+01
3.344491481781005859e+00 2.808351755142211914e+00 -5.362251400947570801e-01 1.000000000000000000e+01
4.358356952667236328e+00 3.658391952514647993e+00 -4.978336095809937079e-01 9.000000000000000000e+00
6.309069156646729404e+00 5.292061328887938565e+00 -4.315623044967650812e-01 1.000000000000000000e+00
1.029859066009520951e+01 8.632358551025390625e+00 -2.345603406429291049e-01 2.000000000000000000e+00
1.713248968124390093e+00 1.432498455047606978e+00 -5.983896255493164062e-01 1.800000000000000000e+01
1.968001365661621094e+00 1.644337654113769975e+00 -5.920711755752563477e-01 1.100000000000000000e+01
2.267733335494995117e+00 1.894102692604064941e+00 -5.743350982666015625e-01 7.000000000000000000e+00
2.713099479675292969e+00 2.264483451843262163e+00 -5.597225427627563477e-01 1.000000000000000000e+01
3.365981578826903853e+00 2.807417154312133789e+00 -5.381750464439392090e-01 1.000000000000000000e+01
4.352101325988770419e+00 3.628608465194702148e+00 -4.957418739795684814e-01 9.000000000000000000e+00
6.338859558105468750e+00 5.281338691711425781e+00 -4.323996603488922119e-01 2.000000000000000000e+00
1.033945369720458984e+01 8.608395576477050781e+00 -2.348395884037018100e-01 2.000000000000000000e+00
3.609836196899414062e+01 3.004401206970214844e+01 1.258430004119873047e+01 1.400000000000000000e+01
1.724184274673461914e+00 1.431445360183716042e+00 -6.004601716995239258e-01 1.900000000000000000e+01
1.976728796958922896e+00 1.639946579933166948e+00 -5.929709672927856445e-01 1.400000000000000000e+01
2.281887054443358931e+00 1.892441630363463911e+00 -5.762431621551513672e-01 9.000000000000000000e+00
2.714903831481934038e+00 2.249957323074340820e+00 -5.584710240364074707e-01 1.000000000000000000e+01
3.371174097061156782e+00 2.791852235794066939e+00 -5.374438166618347168e-01 1.000000000000000000e+01
4.375483989715576172e+00 3.622288465499877930e+00 -4.969620406627655029e-01 9.000000000000000000e+00
6.341866970062255859e+00 5.246448516845703125e+00 -4.313529431819915771e-01 2.000000000000000000e+00
1.035711002349854049e+01 8.562058448791503906e+00 -2.345603406429291049e-01 2.000000000000000000e+00
3.634895324707031250e+01 3.003842353820801137e+01 1.263502788543700994e+01 1.400000000000000000e+01
1.732151865959167036e+00 1.427875757217407005e+00 -6.014954447746276855e-01 1.700000000000000000e+01
1.971912264823914018e+00 1.624363303184509055e+00 -5.898216366767883301e-01 1.300000000000000000e+01
2.296056747436522993e+00 1.890704870223999023e+00 -5.781512856483459473e-01 1.300000000000000000e+01
2.734943866729735884e+00 2.250508069992064986e+00 -5.609740018844604492e-01 1.000000000000000000e+01
3.376299142837523970e+00 2.776285171508789062e+00 -5.367125868797302246e-01 1.000000000000000000e+01
4.403492927551270419e+00 3.619644641876221147e+00 -4.987051486968994141e-01 9.000000000000000000e+00
6.344708442687988281e+00 5.211602210998535156e+00 -4.303062260150908869e-01 2.000000000000000000e+00
1.037456893920898082e+01 8.515704154968261719e+00 -2.342811077833175937e-01 2.000000000000000000e+00
3.644836425781250000e+01 2.991772079467773082e+01 1.263502788543700994e+01 1.400000000000000000e+01
1.740115404129028098e+00 1.424267888069153054e+00 -6.025307178497314453e-01 1.700000000000000000e+01
1.985112547874450906e+00 1.623638987541198953e+00 -5.920711755752563477e-01 1.300000000000000000e+01
2.299602746963500977e+00 1.880193233489990012e+00 -5.773880481719970703e-01 1.400000000000000000e+01
2.742782831192017046e+00 2.240947723388671875e+00 -5.609740018844604492e-01 1.000000000000000000e+01
3.384431838989257812e+00 2.763227462768555132e+00 -5.364688634872436523e-01 9.000000000000000000e+00
4.431536197662354404e+00 3.616849422454833984e+00 -5.004482865333557129e-01 1.100000000000000000e+01
6.381434917449951172e+00 5.204571247100830078e+00 -4.315623044967650812e-01 2.000000000000000000e+00
1.041663169860840021e+01 8.489544868469238281e+00 -2.345603406429291049e-01 2.000000000000000000e+00
3.630316162109375000e+01 2.957649612426758168e+01 1.254702949523925959e+01 1.400000000000000000e+01
1.745076417922974077e+00 1.418185114860534890e+00 -6.025307178497314453e-01 1.800000000000000000e+01
1.989255309104918990e+00 1.615471243858336958e+00 -5.916212797164916992e-01 1.200000000000000000e+01
2.297006368637084961e+00 1.864730358123779075e+00 -5.750983357429504395e-01 1.300000000000000000e+01
2.756724834442139116e+00 2.236337900161743164e+00 -5.622254610061645508e-01 1.000000000000000000e+01
3.387888669967650923e+00 2.746396541595458984e+00 -5.354939103126525879e-01 9.000000000000000000e+00
4.425559520721436435e+00 3.586305856704711914e+00 -4.983565509319304865e-01 1.100000000000000000e+01
6.411980628967285156e+00 5.192319393157958984e+00 -4.323996603488922119e-01 2.000000000000000000e+00
3.677769088745117188e+01 2.977136039733887074e+01 1.092407321929931996e+01 1.300000000000000000e+01
1.041822147369384943e+01 8.430489540100097656e+00 -2.339320629835129062e-01 2.000000000000000000e+00
3.650916671752929688e+01 2.954344367980957031e+01 1.258430004119873047e+01 1.400000000000000000e+01
1.747009277343750000e+00 1.409658789634705034e+00 -6.014954447746276855e-01 2.000000000000000000e+01
2.002467393875122070e+00 1.614633679389954057e+00 -5.938707590103149414e-01 1.200000000000000000e+01
2.306558609008789062e+00 1.859165072441101074e+00 -5.758615732192993164e-01 1.400000000000000000e+01
2.761437416076660156e+00 2.224223136901855025e+00 -5.615997314453125000e-01 1.100000000000000000e+01
3.414465188980102983e+00 2.748245239257812944e+00 -5.381750464439392090e-01 1.000000000000000000e+01
4.448916912078857422e+00 3.579578638076781782e+00 -4.995767176151276190e-01 1.100000000000000000e+01
6.411387443542479581e+00 5.154887676239013672e+00 -4.311436116695404053e-01 2.000000000000000000e+00
3.688138961791992188e+01 2.964280128479003906e+01 1.092407321929931996e+01 1.300000000000000000e+01
1.047564601898193004e+01 8.416616439819335938e+00 -2.345603406429291049e-01 2.000000000000000000e+00
1.750411629676819070e+00 1.402344107627869096e+00 -6.009778380393981934e-01 2.100000000000000000e+01
2.003527402877808061e+00 1.603980183601378950e+00 -5.925210714340209961e-01 1.300000000000000000e+01
2.323764085769652876e+00 1.859689235687256081e+00 -5.785328745841979980e-01 1.400000000000000000e+01
2.758385658264160156e+00 2.205934286117554155e+00 -5.594096183776855469e-01 9.000000000000000000e+00
3.416283845901488814e+00 2.730113506317139116e+00 -5.369563102722167969e-01 9.000000000000000000e+00
4.458271503448486328e+00 3.561540126800537109e+00 -4.992280900478363037e-01 9.000000000000000000e+00
6.451194763183593750e+00 5.149921417236328125e+00 -4.326090216636658270e-01 2.000000000000000000e+00
1.050496101379395064e+01 8.379998207092285156e+00 -2.345603406429291049e-01 2.000000000000000000e+00
1.756807923316956010e+00 1.397428035736083984e+00 -6.014954447746276855e-01 2.000000000000000000e+01
2.001486539840697798e+00 1.590913891792296919e+00 -5.902715921401977539e-01 1.100000000000000000e+01
2.330241441726685014e+00 1.851566433906554954e+00 -5.785328745841979980e-01 1.400000000000000000e+01
2.773803949356079102e+00 2.202434062957764116e+00 -5.609740018844604492e-01 1.000000000000000000e+01
3.432013034820557085e+00 2.723107099533081055e+00 -5.379312634468078613e-01 1.000000000000000000e+01
4.462871551513671875e+00 3.539765596389770952e+00 -4.983565509319304865e-01 1.100000000000000000e+01
6.469132423400878906e+00 5.127370834350585938e+00 -4.326090216636658270e-01 2.000000000000000000e+00
1.054982471466063920e+01 8.355693817138671875e+00 -2.349093854427337924e-01 2.000000000000000000e+00
3.772735977172852273e+01 2.987018775939941051e+01 1.289384746551514027e+01 1.400000000000000000e+01
1.762948155403136985e+00 1.392792224884032981e+00 -6.020131111145019531e-01 1.900000000000000000e+01
2.014398813247681108e+00 1.590305566787719949e+00 -5.925210714340209961e-01 1.200000000000000000e+01
2.336368560791016069e+00 1.843828916549683061e+00 -5.785328745841979980e-01 1.500000000000000000e+01
2.787296772003173828e+00 2.198116540908813032e+00 -5.622254610061645508e-01 1.000000000000000000e+01
3.433228731155395952e+00 2.705567836761475053e+00 -5.367125868797302246e-01 1.000000000000000000e+01
4.463629722595214844e+00 3.516316175460814986e+00 -4.971363544464110773e-01 1.300000000000000000e+01
6.476683616638183594e+00 5.098477840423583984e+00 -4.319809973239899237e-01 2.000000000000000000e+00
1.061519527435302912e+01 8.350336074829101562e+00 -2.357470989227294922e-01 2.000000000000000000e+00
1.766279101371764915e+00 1.385437607765197976e+00 -6.014954447746276855e-01 1.700000000000000000e+01
2.015336513519287109e+00 1.579657793045043945e+00 -5.911713838577270508e-01 1.100000000000000000e+01
2.339699745178223100e+00 1.833240509033202903e+00 -5.777696371078491211e-01 1.300000000000000000e+01
2.798063278198242188e+00 2.190809249877930132e+00 -5.628511905670166016e-01 1.000000000000000000e+01
3.441088438034058061e+00 2.692343711853026900e+00 -5.364688634872436523e-01 9.000000000000000000e+00
4.480585098266601562e+00 3.504396200180054155e+00 -4.976592957973480225e-01 1.300000000000000000e+01
6.507030487060546875e+00 5.085678577423095703e+00 -4.328183531761168878e-01 2.000000000000000000e+00
1.062851905822754084e+01 8.300922393798828125e+00 -2.353980541229248047e-01 2.000000000000000000e+00
3.856935501098632812e+01 3.011200523376464844e+01 1.311125564575194957e+01 1.500000000000000000e+01
1.768056035041809082e+00 1.376889705657958984e+00 -6.004601716995239258e-01 1.700000000000000000e+01
2.030066013336182085e+00 1.579794287681580034e+00 -5.938707590103149414e-01 1.200000000000000000e+01
2.342985630035399947e+00 1.822651386260986106e+00 -5.770063996315002441e-01 1.400000000000000000e+01
2.801014661788939986e+00 2.177391767501831055e+00 -5.619125962257385254e-01 9.000000000000000000e+00
3.458303928375244141e+00 2.686404705047606978e+00 -5.376875400543212891e-01 1.000000000000000000e+01
4.473906517028808594e+00 3.474071025848389116e+00 -4.955675601959229071e-01 1.100000000000000000e+01
6.534210681915283203e+00 5.070280075073242188e+00 -4.334463775157927912e-01 2.000000000000000000e+00
1.064478778839110973e+01 8.253968238830566406e+00 -2.351188212633132935e-01 2.000000000000000000e+00
3.711484909057617188e+01 2.877885246276855113e+01 1.258430004119873047e+01 1.400000000000000000e+01
1.774379849433898926e+00 1.371891379356384055e+00 -6.009778380393981934e-01 1.900000000000000000e+01
2.038652181625366211e+00 1.575081229209899902e+00 -5.947706103324890137e-01 1.100000000000000000e+01
2.353994846343994141e+00 1.818061828613281028e+00 -5.781512856483459473e-01 1.300000000000000000e+01
2.805470705032349077e+00 2.165187120437622070e+00 -5.612868666648864746e-01 9.000000000000000000e+00
3.481807470321654829e+00 2.685227155685424805e+00 -5.398811697959899902e-01 9.000000000000000000e+00
4.482850074768066406e+00 3.456000089645386186e+00 -4.952189326286315918e-01 9.000000000000000000e+00
6.545540332794188565e+00 5.042564868927001953e+00 -4.330277144908905029e-01 1.000000000000000000e+00
1.068304157257080078e+01 8.224080085754394531e+00 -2.353282421827316007e-01 2.000000000000000000e+00
1.783277034759521040e+00 1.369840741157531960e+00 -6.025307178497314453e-01 1.900000000000000000e+01
2.031223773956298828e+00 1.559176206588744895e+00 -5.911713838577270508e-01 1.200000000000000000e+01
2.365925073623656782e+00 1.815438270568848100e+00 -5.796777009963989258e-01 1.300000000000000000e+01
2.816961765289307085e+00 2.159968852996826172e+00 -5.622254610061645508e-01 1.000000000000000000e+01
3.487074851989746094e+00 2.671860694885253906e+00 -5.393937230110168457e-01 9.000000000000000000e+00
4.547463893890380859e+00 3.483091115951538086e+00 -5.011455416679382324e-01 9.000000000000000000e+00
6.558177947998046875e+00 5.019548892974854404e+00 -4.328183531761168878e-01 2.000000000000000000e+00
1.072153282165526988e+01 8.200196266174316406e+00 -2.356074899435043057e-01 2.000000000000000000e+00
3.592386245727539062e+01 2.747580146789551137e+01 1.211842536926270064e+01 1.200000000000000000e+01
1.791120052337646040e+00 1.365950584411621094e+00 -6.035659909248352051e-01 1.800000000000000000e+01
2.036653995513916016e+00 1.552076339721679910e+00 -5.911713838577270508e-01 1.200000000000000000e+01
2.361315727233887163e+00 1.798840522766113059e+00 -5.770063996315002441e-01 1.200000000000000000e+01
2.822912454605102983e+00 2.148926258087158203e+00 -5.619125962257385254e-01 9.000000000000000000e+00
3.490060329437255859e+00 2.654865026473999023e+00 -5.384187698364257812e-01 9.000000000000000000e+00
4.546906948089599609e+00 3.457548379898070845e+00 -4.997510313987731934e-01 9.000000000000000000e+00
6.562937259674072266e+00 4.986958980560302734e+00 -4.319809973239899237e-01 2.000000000000000000e+00
1.074372100830077947e+01 8.157884597778320312e+00 -2.354678660631180087e-01 2.000000000000000000e+00
1.793270587921143022e+00 1.356731891632080078e+00 -6.025307178497314453e-01 1.800000000000000000e+01
2.048816442489624023e+00 1.548945665359497070e+00 -5.929709672927856445e-01 1.100000000000000000e+01
2.366639137268065962e+00 1.788576841354369895e+00 -5.766248106956481934e-01 1.100000000000000000e+01
2.843753814697266069e+00 2.147594928741455078e+00 -5.644155740737915039e-01 9.000000000000000000e+00
3.495474815368651900e+00 2.637857198715209961e+00 -5.376875400543212891e-01 9.000000000000000000e+00
4.571283340454101562e+00 3.448463201522827148e+00 -5.009711980819702148e-01 9.000000000000000000e+00
6.594796657562255859e+00 4.971340656280517578e+00 -4.328183531761168878e-01 2.000000000000000000e+00
1.077496623992919922e+01 8.116571426391601562e+00 -2.354678660631180087e-01 2.000000000000000000e+00
1.791816830635071023e+00 1.345823168754578081e+00 -6.004601716995239258e-01 1.700000000000000000e+01
2.060445070266724077e+00 1.546463727951050027e+00 -5.947706103324890137e-01 1.200000000000000000e+01
2.371297597885131836e+00 1.779126644134521040e+00 -5.762431621551513672e-01 1.000000000000000000e+01
2.841749906539916992e+00 2.130545377731322798e+00 -5.625383257865905762e-01 9.000000000000000000e+00
3.506250143051147017e+00 2.626829862594604048e+00 -5.379312634468078613e-01 9.000000000000000000e+00
4.597645759582520419e+00 3.443234443664550781e+00 -5.025399923324584961e-01 9.000000000000000000e+00
6.628100395202636719e+00 4.960257053375244141e+00 -4.338650703430175781e-01 2.000000000000000000e+00
1.080963802337645951e+01 8.083700180053710938e+00 -2.356074899435043057e-01 2.000000000000000000e+00
1.803777575492859109e+00 1.345964074134827104e+00 -6.030483841896057129e-01 1.900000000000000000e+01
2.055919885635375977e+00 1.532993674278259055e+00 -5.920711755752563477e-01 1.200000000000000000e+01
2.384745597839355025e+00 1.777534604072571023e+00 -5.781512856483459473e-01 1.100000000000000000e+01
2.843676567077637163e+00 2.118067502975463867e+00 -5.615997314453125000e-01 1.000000000000000000e+01
3.524039745330810991e+00 2.622913122177124023e+00 -5.393937230110168457e-01 9.000000000000000000e+00
4.582864284515380859e+00 3.409744739532471147e+00 -4.997510313987731934e-01 9.000000000000000000e+00
6.656473159790039062e+00 4.948943138122558594e+00 -4.347024559974669855e-01 2.000000000000000000e+00
3.145202445983887074e+01 2.337537193298339844e+01 9.047081947326660156e+00 1.200000000000000000e+01
1.083498001098632990e+01 8.049700736999511719e+00 -2.356074899435043057e-01 2.000000000000000000e+00
3.217595672607421875e+01 2.390468788146973012e+01 1.074047279357909979e+01 9.000000000000000000e+00
1.810017108917236106e+00 1.340809464454651101e+00 -6.035659909248352051e-01 1.900000000000000000e+01
2.061258316040039062e+00 1.525807857513427956e+00 -5.920711755752563477e-01 1.200000000000000000e+01
2.394092321395874023e+00 1.771535038948059082e+00 -5.789144635200500488e-01 1.100000000000000000e+01
2.847876071929932085e+00 2.105779409408568892e+00 -5.609740018844604492e-01 1.000000000000000000e+01
3.528384447097777876e+00 2.607057094573975053e+00 -5.386624932289123535e-01 7.000000000000000000e+00
4.628394126892089844e+00 3.418584823608397993e+00 -5.034115910530090332e-01 9.000000000000000000e+00
6.644782066345214844e+00 4.904328346252441406e+00 -4.328183531761168878e-01 2.000000000000000000e+00
3.150206565856933949e+01 2.324230384826660156e+01 9.038083076477050781e+00 1.200000000000000000e+01
1.087588787078857067e+01 8.021326065063476562e+00 -2.358867228031157892e-01 2.000000000000000000e+00
3.225298309326171875e+01 2.378764152526855113e+01 1.073840236663818004e+01 1.900000000000000000e+01
1.814686417579651101e+00 1.334483146667480025e+00 -6.035659909248352051e-01 1.700000000000000000e+01
2.071282863616942915e+00 1.522065281867980957e+00 -5.934208631515502930e-01 1.300000000000000000e+01
2.409754991531372070e+00 1.770141005516052024e+00 -5.812041759490966797e-01 1.200000000000000000e+01
2.866356134414672852e+00 2.104007720947266069e+00 -5.631640553474426270e-01 1.100000000000000000e+01
3.532661199569702148e+00 2.591202497482299805e+00 -5.379312634468078613e-01 9.000000000000000000e+00
4.622624397277832031e+00 3.389448642730712891e+00 -5.014941692352294922e-01 9.000000000000000000e+00
6.671527385711669922e+00 4.888186454772949219e+00 -4.334463775157927912e-01 2.000000000000000000e+00
3.150753974914551137e+01 2.307692718505859020e+01 9.016488075256347656e+00 1.200000000000000000e+01
1.090059471130370916e+01 7.980950832366943359e+00 -2.358169108629226962e-01 2.000000000000000000e+00
3.237635040283203125e+01 2.370458412170410156e+01 1.075186061859131037e+01 9.000000000000000000e+00
1.822454214096068892e+00 1.330418705940247026e+00 -6.046012639999389648e-01 1.700000000000000000e+01
2.068711519241333008e+00 1.509083509445189986e+00 -5.911713838577270508e-01 1.100000000000000000e+01
2.396883726119995117e+00 1.747837662696837935e+00 -5.766248106956481934e-01 1.100000000000000000e+01
2.873682975769042969e+00 2.093989610671997070e+00 -5.631640553474426270e-01 1.100000000000000000e+01
3.552917957305908203e+00 2.587034940719604048e+00 -5.396374464035034180e-01 1.000000000000000000e+01
4.594156265258789062e+00 3.343979358673096147e+00 -4.971363544464110773e-01 9.000000000000000000e+00
6.695010662078857422e+00 4.869567871093750000e+00 -4.338650703430175781e-01 2.000000000000000000e+00
3.165725326538085938e+01 2.301722908020019887e+01 9.036283493041992188e+00 1.200000000000000000e+01
1.095103263854979936e+01 7.959311485290527344e+00 -2.363055795431137085e-01 2.000000000000000000e+00
3.218794250488281250e+01 2.338590812683105113e+01 1.066075611114501953e+01 9.000000000000000000e+00
1.823958516120911089e+00 1.321781873703002930e+00 -6.035659909248352051e-01 1.900000000000000000e+01
2.088171958923339844e+00 1.512139797210692915e+00 -5.952205061912536621e-01 1.200000000000000000e+01
2.406150817871094194e+00 1.741762757301331010e+00 -5.773880481719970703e-01 1.100000000000000000e+01
2.876173257827758789e+00 2.080472469329833984e+00 -5.622254610061645508e-01 1.300000000000000000e+01
3.558709144592285156e+00 2.572291374206542969e+00 -5.391499996185302734e-01 1.000000000000000000e+01
4.673628330230712891e+00 3.376931190490723100e+00 -5.044574141502380371e-01 9.000000000000000000e+00
6.728160858154296875e+00 4.857860088348388672e+00 -4.349117875099182129e-01 1.000000000000000000e+00
3.185117721557616832e+01 2.298869895935058949e+01 9.068676948547363281e+00 1.200000000000000000e+01
1.097874927520751953e+01 7.921036720275878906e+00 -2.363055795431137085e-01 2.000000000000000000e+00
3.184858512878417969e+01 2.297837448120116832e+01 1.052306461334229049e+01 1.800000000000000000e+01
1.830129623413085938e+00 1.316535115242003950e+00 -6.040836572647094727e-01 1.900000000000000000e+01
2.088690519332886186e+00 1.501429200172424094e+00 -5.938707590103149414e-01 1.100000000000000000e+01
2.413810253143310991e+00 1.734498739242553933e+00 -5.777696371078491211e-01 1.200000000000000000e+01
2.883417844772338867e+00 2.070420026779174805e+00 -5.622254610061645508e-01 1.300000000000000000e+01
3.574117898941040039e+00 2.564482450485229048e+00 -5.401249527931213379e-01 1.000000000000000000e+01
3.160591888427734020e+01 2.266935920715332031e+01 6.160389423370361328e+00 1.400000000000000000e+01
4.703196525573729581e+00 3.373369932174683061e+00 -5.063748359680175781e-01 9.000000000000000000e+00
6.725596427917479581e+00 4.820382595062255859e+00 -4.336557388305664062e-01 1.000000000000000000e+00
1.103234386444091975e+01 7.901295185089111328e+00 -2.368640601634978970e-01 2.000000000000000000e+00
1.834713935852051003e+00 1.310138702392577903e+00 -6.040836572647094727e-01 1.900000000000000000e+01
2.078055620193481001e+00 1.482810020446776900e+00 -5.893717408180236816e-01 1.100000000000000000e+01
2.424645185470581055e+00 1.729482531547545943e+00 -5.789144635200500488e-01 1.200000000000000000e+01
2.887410402297974077e+00 2.058049440383911133e+00 -5.615997314453125000e-01 1.200000000000000000e+01
3.576580286026000977e+00 2.547384500503540039e+00 -5.391499996185302734e-01 1.000000000000000000e+01
4.727927684783936435e+00 3.366176843643188032e+00 -5.077693462371826172e-01 6.000000000000000000e+00
6.755401134490966797e+00 4.806139469146729404e+00 -4.344930946826934814e-01 2.000000000000000000e+00
3.236979675292968750e+01 2.302102661132812855e+01 9.170354843139648438e+00 1.200000000000000000e+01
1.105985736846924006e+01 7.862737178802490234e+00 -2.368640601634978970e-01 2.000000000000000000e+00
1.839276075363158958e+00 1.303726434707642046e+00 -6.040836572647094727e-01 1.900000000000000000e+01
2.083219051361083984e+00 1.475547194480895996e+00 -5.893717408180236816e-01 1.200000000000000000e+01
2.433871984481811968e+00 1.723277449607848899e+00 -5.796777009963989258e-01 1.200000000000000000e+01
2.905864715576171875e+00 2.055944442749022993e+00 -5.637897849082946777e-01 1.100000000000000000e+01
3.252600479125977273e+01 2.300413703918457031e+01 4.891591548919677734e+00 2.100000000000000000e+01
3.588692188262939009e+00 2.537176132202147993e+00 -5.396374464035034180e-01 1.000000000000000000e+01
3.172146606445312855e+01 2.241851615905762074e+01 6.152254581451416016e+00 1.400000000000000000e+01
4.747784137725830078e+00 3.355402231216431108e+00 -5.086408853530883789e-01 8.000000000000000000e+00
6.785188198089599609e+00 4.791746139526367188e+00 -4.353304803371428888e-01 2.000000000000000000e+00
1.106109428405762074e+01 7.805635452270507812e+00 -2.363055795431137085e-01 2.000000000000000000e+00
3.202195739746093750e+01 2.258900451660155895e+01 1.050028896331786932e+01 9.000000000000000000e+00
1.848782539367676003e+00 1.300310492515563965e+00 -6.056365370750427246e-01 1.900000000000000000e+01
2.107745409011840820e+00 1.481348395347594993e+00 -5.947706103324890137e-01 1.400000000000000000e+01
2.430533170700072798e+00 1.707573652267456055e+00 -5.773880481719970703e-01 1.200000000000000000e+01
2.916614055633544922e+00 2.047550201416016069e+00 -5.644155740737915039e-01 1.100000000000000000e+01
3.256785583496093750e+01 2.285512161254883168e+01 4.885254383087158203e+00 2.100000000000000000e+01
3.597967386245727983e+00 2.524005889892578125e+00 -5.396374464035034180e-01 1.000000000000000000e+01
3.179952812194823863e+01 2.230765151977539062e+01 6.152254581451416016e+00 1.400000000000000000e+01
4.777994632720947266e+00 3.350561380386352983e+00 -5.105583667755126953e-01 8.000000000000000000e+00
6.792891502380371094e+00 4.759968280792236328e+00 -4.347024559974669855e-01 2.000000000000000000e+00
3.151537704467773082e+01 2.207550239562987926e+01 8.883316993713378906e+00 1.200000000000000000e+01
1.111256217956542969e+01 7.781099796295166016e+00 -2.367942482233046930e-01 2.000000000000000000e+00
3.242423248291016336e+01 2.269526100158691051e+01 1.060485172271729049e+01 9.000000000000000000e+00
1.845390081405640093e+00 1.288319826126099077e+00 -6.030483841896057129e-01 1.900000000000000000e+01
2.112903594970703125e+00 1.473981857299804910e+00 -5.947706103324890137e-01 1.300000000000000000e+01
2.439699649810791016e+00 1.701325058937072976e+00 -5.781512856483459473e-01 1.100000000000000000e+01
2.917260885238647017e+00 2.032839298248291016e+00 -5.631640553474426270e-01 1.100000000000000000e+01
3.600239515304564986e+00 2.506893873214722124e+00 -5.386624932289123535e-01 1.000000000000000000e+01
4.781485080718994141e+00 3.328171491622924805e+00 -5.096867680549621582e-01 9.000000000000000000e+00
6.799627304077148438e+00 4.729384899139404297e+00 -4.340744316577910822e-01 2.000000000000000000e+00
3.028343200683594105e+01 2.105537414550780895e+01 8.515296936035156250e+00 1.100000000000000000e+01
1.113965511322020951e+01 7.742262363433837891e+00 -2.367942482233046930e-01 2.000000000000000000e+00
3.246517944335938211e+01 2.255548667907714844e+01 1.059242820739745916e+01 9.000000000000000000e+00
1.853051662445067915e+00 1.284070968627929910e+00 -6.040836572647094727e-01 1.900000000000000000e+01
2.111627340316772017e+00 1.462159991264343040e+00 -5.929709672927856445e-01 1.300000000000000000e+01
2.448852062225341797e+00 1.695033311843872070e+00 -5.789144635200500488e-01 1.100000000000000000e+01
2.927588224411011186e+00 2.024891138076781782e+00 -5.637897849082946777e-01 1.100000000000000000e+01
3.178937911987305043e+01 2.197919082641601918e+01 4.745348453521729404e+00 2.000000000000000000e+01
3.620399475097655806e+00 2.502212047576903853e+00 -5.403686761856079102e-01 9.000000000000000000e+00
4.793073177337645596e+00 3.311460733413695845e+00 -5.096867680549621582e-01 9.000000000000000000e+00
6.802945613861083984e+00 4.696543693542479581e+00 -4.332370460033416748e-01 2.000000000000000000e+00
3.036957550048828125e+01 2.095839118957519887e+01 8.518896102905273438e+00 1.100000000000000000e+01
1.120282554626465021e+01 7.728312015533447266e+00 -2.375621497631072998e-01 2.000000000000000000e+00
1.855930924415587935e+00 1.276500105857848899e+00 -6.035659909248352051e-01 1.700000000000000000e+01
2.118324279785155806e+00 1.455883979797363059e+00 -5.934208631515502930e-01 1.500000000000000000e+01
2.461226463317871094e+00 1.690921783447266069e+00 -5.804409384727478027e-01 1.200000000000000000e+01
2.931381464004517046e+00 2.012423515319824219e+00 -5.631640553474426270e-01 1.100000000000000000e+01
3.252060699462891336e+01 2.231738281250000000e+01 4.842844009399414062e+00 2.000000000000000000e+01
3.622564077377318892e+00 2.485067605972290039e+00 -5.393937230110168457e-01 1.000000000000000000e+01
4.812819004058837891e+00 3.300343513488769975e+00 -5.105583667755126953e-01 9.000000000000000000e+00
6.829183578491210938e+00 4.679542064666748047e+00 -4.338650703430175781e-01 2.000000000000000000e+00
3.048435020446776988e+01 2.088088607788085938e+01 8.530593872070312500e+00 1.100000000000000000e+01
1.121653461456299006e+01 7.680121421813964844e+00 -2.372829169034957886e-01 2.000000000000000000e+00
3.243055343627929688e+01 2.219734954833984020e+01 1.053031158447265980e+01 9.000000000000000000e+00
1.869948506355286089e+00 1.276549100875854048e+00 -6.066718697547912598e-01 1.700000000000000000e+01
2.118563890457152876e+00 1.445186257362365945e+00 -5.920711755752563477e-01 1.300000000000000000e+01
2.459003686904906782e+00 1.676789879798888938e+00 -5.785328745841979980e-01 1.200000000000000000e+01
2.948182821273804155e+00 2.008852958679199219e+00 -5.650413036346435547e-01 1.100000000000000000e+01
3.627934694290161133e+00 2.470172882080078125e+00 -5.389062166213989258e-01 9.000000000000000000e+00
4.829251289367675781e+00 3.286886692047119141e+00 -5.110812783241271973e-01 9.000000000000000000e+00
6.858688831329345703e+00 4.664660930633544922e+00 -4.347024559974669855e-01 2.000000000000000000e+00
3.058283805847167969e+01 2.079187965393066051e+01 8.537792205810546875e+00 1.100000000000000000e+01
1.124658298492431996e+01 7.643169879913330078e+00 -2.373527288436889926e-01 2.000000000000000000e+00
3.267335128784179688e+01 2.220478630065917969e+01 1.058518123626708984e+01 9.000000000000000000e+00
1.867995858192444070e+00 1.265679478645324929e+00 -6.046012639999389648e-01 1.900000000000000000e+01
2.126822948455810991e+00 1.439967274665832964e+00 -5.929709672927856445e-01 1.400000000000000000e+01
2.463216066360474077e+00 1.667095661163330078e+00 -5.781512856483459473e-01 1.200000000000000000e+01
2.955177068710327148e+00 1.998549580574036089e+00 -5.650413036346435547e-01 1.100000000000000000e+01
3.648048400878905806e+00 2.465274333953856978e+00 -5.406123995780944824e-01 1.000000000000000000e+01
3.179495048522948863e+01 2.147827529907226918e+01 6.077166080474854404e+00 1.400000000000000000e+01
4.852252006530761719e+00 3.277816295623778853e+00 -5.123014450073242188e-01 8.000000000000000000e+00
6.871618747711181641e+00 4.638456344604492188e+00 -4.344930946826934814e-01 2.000000000000000000e+00
1.126987838745117010e+01 7.601628780364990234e+00 -2.372829169034957886e-01 2.000000000000000000e+00
3.087083816528319957e+01 2.081480598449707031e+01 9.976438522338867188e+00 8.000000000000000000e+00
1.868757486343384011e+00 1.257647514343261941e+00 -6.035659909248352051e-01 1.900000000000000000e+01
2.145889997482299805e+00 1.443065762519835982e+00 -5.970200896263122559e-01 1.300000000000000000e+01
2.470070600509643999e+00 1.660444378852844016e+00 -5.785328745841979980e-01 1.200000000000000000e+01
2.959801435470581055e+00 1.988154292106627974e+00 -5.647284388542175293e-01 1.000000000000000000e+01
3.659071683883666992e+00 2.456014156341553178e+00 -5.410999059677124023e-01 1.000000000000000000e+01
4.864180088043212891e+00 3.263666629791260210e+00 -5.124757885932922363e-01 9.000000000000000000e+00
3.234872817993164062e+01 2.169648933410644887e+01 7.571300983428955078e+00 6.300000000000000000e+01
6.899428367614746094e+00 4.625743389129638672e+00 -4.353304803371428888e-01 2.000000000000000000e+00
1.132028484344482067e+01 7.583993911743164062e+00 -2.378413975238800049e-01 2.000000000000000000e+00
1.863497376441956010e+00 1.244678735733032005e+00 -6.004601716995239258e-01 1.900000000000000000e+01
3.240499114990233664e+01 2.163596343994140980e+01 6.801202893257141113e-01 3.300000000000000000e+01
2.142809867858887163e+00 1.430157423019408958e+00 -5.947706103324890137e-01 1.100000000000000000e+01
2.482383966445922852e+00 1.656170368194580078e+00 -5.800593495368957520e-01 1.200000000000000000e+01
2.958505153656005859e+00 1.972331762313842995e+00 -5.631640553474426270e-01 9.000000000000000000e+00
3.670926570892333984e+00 2.445427656173706055e+00 -5.415873527526855469e-01 1.000000000000000000e+01
3.192025756835937855e+01 2.125598335266112926e+01 6.074037551879882812e+00 1.400000000000000000e+01
4.868909358978270596e+00 3.242250204086304155e+00 -5.117785334587097168e-01 9.000000000000000000e+00
6.912207603454589844e+00 4.599418640136718750e+00 -4.351211488246917725e-01 2.000000000000000000e+00
3.202165985107421875e+01 2.129931640625000000e+01 8.878818511962890625e+00 1.200000000000000000e+01
1.133336734771729049e+01 7.535574913024902344e+00 -2.375621497631072998e-01 2.000000000000000000e+00
3.268145751953125000e+01 2.172173118591308949e+01 1.051478290557860973e+01 9.000000000000000000e+00
1.885542988777161089e+00 1.249907612800597922e+00 -6.061542034149169922e-01 1.800000000000000000e+01
2.138041019439696822e+00 1.416211962699889915e+00 -5.920711755752563477e-01 1.100000000000000000e+01
2.488150119781494141e+00 1.647495150566101074e+00 -5.800593495368957520e-01 1.200000000000000000e+01
2.970314264297484907e+00 1.965262651443481001e+00 -5.641027092933654785e-01 1.000000000000000000e+01
3.679440498352050781e+00 2.432598829269409180e+00 -5.415873527526855469e-01 1.000000000000000000e+01
4.898481369018554688e+00 3.237318515777587891e+00 -5.136959552764892578e-01 8.000000000000000000e+00
3.168037033081055043e+01 2.092904472351073863e+01 7.380491733551025391e+00 6.200000000000000000e+01
6.908220767974854404e+00 4.562055110931395596e+00 -4.338650703430175781e-01 2.000000000000000000e+00
3.213159179687500000e+01 2.121102905273437855e+01 8.888715744018554688e+00 1.200000000000000000e+01
1.134624958038330078e+01 7.487157344818115234e+00 -2.372829169034957886e-01 2.000000000000000000e+00
3.295970153808593750e+01 2.174942970275878906e+01 1.058104038238525035e+01 9.000000000000000000e+00
1.886666655540466087e+00 1.241194605827331987e+00 -6.051189303398132324e-01 1.800000000000000000e+01
2.142971515655518022e+00 1.408740162849426047e+00 -5.920711755752563477e-01 1.000000000000000000e+01
2.495526552200316939e+00 1.639878034591675027e+00 -5.804409384727478027e-01 1.300000000000000000e+01
2.977156162261962891e+00 1.954882383346558061e+00 -5.641027092933654785e-01 1.000000000000000000e+01
3.504440307617188211e+01 2.300236320495605113e+01 5.147029876708984375e+00 2.800000000000000000e+01
