-4.357002735137938565e+00 2.008984535932540894e-01 -6.908146142959594727e-01 1.000000000000000000e+01
-5.716854572296142578e+00 2.656001448631287176e-01 -7.026986479759216309e-01 1.100000000000000000e+01
-8.339049339294433594e+00 3.888836503028870184e-01 -7.303650975227355957e-01 2.000000000000000000e+00
-1.590659904479979936e+01 7.473537921905517578e-01 -8.345491290092468262e-01 4.000000000000000000e+00
-3.437627029418945312e+01 1.627156853675842063e+00 -6.007118225097656250e-01 1.300000000000000000e+01
-2.545091867446898970e+00 1.240305006504058977e-01 -6.827646493911743164e-01 2.400000000000000000e+01
-4.476966094970703125e+01 2.189601659774779829e+00 7.823913693428039551e-01 4.800000000000000000e+01
-2.937113046646118164e+00 1.441626399755477905e-01 -6.789022684097290039e-01 1.200000000000000000e+01
-3.494282722473144975e+00 1.721215993165970126e-01 -6.800432801246643066e-01 1.100000000000000000e+01
-4.483179855346679688e+01 2.216171264648437944e+00 3.927063465118408203e+00 5.400000000000000000e+01
-4.348382949829101562e+00 2.157145142555237094e-01 -6.895630955696105957e-01 1.000000000000000000e+01
-5.723823070526123047e+00 2.859502732753754217e-01 -7.036736011505126953e-01 1.100000000000000000e+01
-8.307792663574218750e+00 4.164935946464539129e-01 -7.277504801750183105e-01 3.000000000000000000e+00
-3.433243560791016336e+01 1.745213747024535911e+00 -6.000486612319946289e-01 1.900000000000000000e+01
-2.552360296249390093e+00 1.333168447017669955e-01 -6.848351955413818359e-01 2.100000000000000000e+01
-4.472979354858397727e+01 2.344189167022705078e+00 7.818328738212585449e-01 4.800000000000000000e+01
-2.940484046936035156e+00 1.546188592910766879e-01 -6.798020601272583008e-01 1.200000000000000000e+01
-3.501502752304077148e+00 1.847316175699234009e-01 -6.815697550773620605e-01 1.100000000000000000e+01
-4.483572769165039062e+01 2.373281955718994141e+00 3.928109407424927202e+00 5.400000000000000000e+01
-4.335767745971679688e+00 2.302633225917815885e-01 -6.876859068870544434e-01 1.000000000000000000e+01
-5.718825817108154297e+00 3.057164847850800116e-01 -7.031860947608947754e-01 1.100000000000000000e+01
-8.308277130126953125e+00 4.455973803997039795e-01 -7.279247641563415527e-01 3.000000000000000000e+00
-1.580526542663574041e+01 8.532159924507141113e-01 -8.295249342918395996e-01 4.000000000000000000e+00
-3.436407089233397727e+01 1.867106914520263894e+00 -6.007118225097656250e-01 1.300000000000000000e+01
-2.551879405975341797e+00 1.422254294157027921e-01 -6.848351955413818359e-01 2.800000000000000000e+01
-4.476526260375977273e+01 2.502766609191894975e+00 7.826008200645446777e-01 4.800000000000000000e+01
-2.932143688201903853e+00 1.644456386566162109e-01 -6.780024766921997070e-01 1.200000000000000000e+01
-3.508677005767821822e+00 1.973941177129744928e-01 -6.830962300300598145e-01 1.100000000000000000e+01
-4.483512496948242188e+01 2.530222415924071822e+00 3.928806543350220171e+00 5.400000000000000000e+01
-4.327048778533936435e+00 2.449499964714050015e-01 -6.864344477653503418e-01 1.000000000000000000e+01
-5.705832481384277344e+00 3.249997198581696112e-01 -7.017236948013305664e-01 1.100000000000000000e+01
-8.294736862182617188e+00 4.739140570163726807e-01 -7.268788814544677734e-01 2.000000000000000000e+00
-1.580219078063965021e+01 9.083814620971679688e-01 -8.295249342918395996e-01 4.000000000000000000e+00
-3.433139419555664062e+01 1.985547542572021040e+00 -6.002580523490905762e-01 1.900000000000000000e+01
-2.553295850753784180e+00 1.512465327978133878e-01 -6.853528022766113281e-01 2.300000000000000000e+01
-4.474427413940429688e+01 2.658299684524536133e+00 7.823913693428039551e-01 4.800000000000000000e+01
-2.927661180496215820e+00 1.744479089975357056e-01 -6.771026849746704102e-01 1.200000000000000000e+01
-3.492288589477539062e+00 2.087035477161406916e-01 -6.800432801246643066e-01 1.100000000000000000e+01
-4.485386276245117188e+01 2.688379526138306108e+00 3.931246995925902876e+00 5.400000000000000000e+01
-4.334054470062255859e+00 2.605268359184265137e-01 -6.876859068870544434e-01 1.000000000000000000e+01
-5.700700283050537109e+00 3.446752130985260010e-01 -7.012361884117126465e-01 1.100000000000000000e+01
-8.265189170837402344e+00 5.011769533157348633e-01 -7.244385480880737305e-01 3.000000000000000000e+00
-1.579892349243164062e+01 9.635358452796936035e-01 -8.295249342918395996e-01 4.000000000000000000e+00
-3.434221649169921875e+01 2.106476306915283203e+00 -6.005722284317016602e-01 1.300000000000000000e+01
-2.545040130615233931e+00 1.596744060516356867e-01 -6.832822561264038086e-01 1.800000000000000000e+01
-4.475468063354492188e+01 2.815725803375244141e+00 7.827404141426086426e-01 4.800000000000000000e+01
-2.934813976287841797e+00 1.851570904254913053e-01 -6.789022684097290039e-01 1.300000000000000000e+01
-3.485660791397095171e+00 2.205207645893096924e-01 -6.788983941078186035e-01 1.200000000000000000e+01
-4.482432174682617188e+01 2.843671083450316939e+00 3.929503917694091797e+00 5.400000000000000000e+01
-4.329175949096679688e+00 2.754031121730803888e-01 -6.870601773262023926e-01 1.000000000000000000e+01
-5.691538333892822266e+00 3.640653789043427069e-01 -7.002612352371215820e-01 1.000000000000000000e+01
-8.247483253479003906e+00 5.290045142173767090e-01 -7.230440378189086914e-01 3.000000000000000000e+00
-1.579546356201172053e+01 1.018678545951843040e+00 -8.295249342918395996e-01 4.000000000000000000e+00
-3.432467651367188211e+01 2.225693225860596147e+00 -6.003977060317993164e-01 1.900000000000000000e+01
-2.529075384140015093e+00 1.670943200588226041e-01 -6.791411638259887695e-01 1.600000000000000000e+01
-4.476904296875000000e+01 2.965708494186400923e+00 7.831593155860900879e-01 4.800000000000000000e+01
-2.934183835983275923e+00 1.948882639408112127e-01 -6.789022684097290039e-01 1.200000000000000000e+01
-3.479033708572388139e+00 2.316870540380477905e-01 -6.777535676956176758e-01 1.200000000000000000e+01
-4.483452606201171875e+01 2.993625640869141069e+00 3.931246995925902876e+00 5.400000000000000000e+01
-4.336122989654541016e+00 2.902854382991790771e-01 -6.883116364479064941e-01 1.000000000000000000e+01
-5.674454689025878906e+00 3.818708956241608221e-01 -6.983113288879394531e-01 1.000000000000000000e+01
-8.213877677917480469e+00 5.542052388191223145e-01 -7.202550768852233887e-01 2.000000000000000000e+00
-1.559273052215575994e+01 1.057537674903870073e+00 -8.190577030181884766e-01 4.000000000000000000e+00
-3.435501480102539062e+01 2.342089891433715820e+00 -6.010608673095703125e-01 2.000000000000000000e+01
-2.518840789794921875e+00 1.752509921789169034e-01 -6.765530109405517578e-01 1.400000000000000000e+01
-4.473846817016602273e+01 3.120572090148925781e+00 7.828102111816406250e-01 4.800000000000000000e+01
-2.927653551101685014e+00 2.047214806079865057e-01 -6.775525808334350586e-01 1.200000000000000000e+01
-3.493871212005614790e+00 2.449280619621277133e-01 -6.808065176010131836e-01 1.100000000000000000e+01
-4.484765243530272727e+01 3.151785135269165039e+00 3.933338642120360884e+00 5.400000000000000000e+01
-4.317348957061767578e+00 3.041701316833496094e-01 -6.854958534240722656e-01 1.000000000000000000e+01
-5.673087120056152344e+00 4.016761183738707941e-01 -6.983113288879394531e-01 1.000000000000000000e+01
-8.219842910766601562e+00 5.834379196166992188e-01 -7.209523320198059082e-01 2.000000000000000000e+00
-3.432069778442382812e+01 2.460138320922852007e+00 -6.006070971488952637e-01 1.900000000000000000e+01
-2.533627510070800781e+00 1.851688176393508911e-01 -6.806941032409667969e-01 1.400000000000000000e+01
-4.471134948730468750e+01 3.275550603866577148e+00 7.825310230255126953e-01 4.800000000000000000e+01
-2.907486200332642046e+00 2.135124355554580966e-01 -6.730535626411437988e-01 1.300000000000000000e+01
-3.489079236984252930e+00 2.568342089653015137e-01 -6.800432801246643066e-01 1.100000000000000000e+01
-4.491188430786132812e+01 3.313884735107421875e+00 3.939962625503540039e+00 5.400000000000000000e+01
-4.314290523529052734e+00 3.190929293632506769e-01 -6.851829290390014648e-01 1.000000000000000000e+01
-4.496796035766602273e+01 3.333805084228516069e+00 5.536524295806884766e+00 3.800000000000000000e+01
-5.667691230773925781e+00 4.211822152137755793e-01 -6.978238821029663086e-01 1.000000000000000000e+01
-8.217756271362304688e+00 6.121269464492797852e-01 -7.209523320198059082e-01 2.000000000000000000e+00
-3.432785415649414062e+01 2.581124305725098100e+00 -6.008863449096679688e-01 2.000000000000000000e+01
-2.534891843795775923e+00 1.941592395305634100e-01 -6.812117099761962891e-01 1.300000000000000000e+01
-4.476344299316406250e+01 3.436500549316405806e+00 7.836479544639587402e-01 4.800000000000000000e+01
-2.914494991302489790e+00 2.242581695318222046e-01 -6.748531460762023926e-01 1.300000000000000000e+01
-4.491679763793945312e+01 3.464045286178588867e+00 2.360979557037353960e+00 3.500000000000000000e+01
-3.476416826248168945e+00 2.681060433387755793e-01 -6.777535676956176758e-01 1.100000000000000000e+01
-4.487223052978516336e+01 3.468486547470093218e+00 3.937522172927856001e+00 5.400000000000000000e+01
-4.311181068420410156e+00 3.339980840682982843e-01 -6.848700642585754395e-01 1.000000000000000000e+01
-4.495605087280272727e+01 3.490752220153809038e+00 5.536524295806884766e+00 3.800000000000000000e+01
-5.646395206451416016e+00 4.394233524799346924e-01 -6.953864693641662598e-01 1.000000000000000000e+01
-8.203651428222656250e+00 6.398789286613464355e-01 -7.199064493179321289e-01 2.000000000000000000e+00
-3.434455108642578125e+01 2.702974796295166016e+00 -6.013401150703430176e-01 2.000000000000000000e+01
-2.524605512619018999e+00 2.017945498228073120e-01 -6.786235570907592773e-01 1.200000000000000000e+01
-4.471990966796875000e+01 3.582367658615111861e+00 7.830894589424133301e-01 4.800000000000000000e+01
-2.925390243530272993e+00 2.348574399948120117e-01 -6.775525808334350586e-01 1.400000000000000000e+01
-3.475508451461791992e+00 2.796327769756317139e-01 -6.777535676956176758e-01 1.100000000000000000e+01
-4.482870864868164062e+01 3.614706993103026900e+00 3.934733152389525923e+00 5.400000000000000000e+01
-4.312018871307373047e+00 3.484517633914948065e-01 -6.851829290390014648e-01 1.000000000000000000e+01
-4.486508178710938211e+01 3.633403301239014116e+00 5.526774883270263672e+00 3.800000000000000000e+01
-5.656778812408447266e+00 4.591085612773895264e-01 -6.968489289283752441e-01 1.200000000000000000e+01
-8.193540573120117188e+00 6.664336323738098145e-01 -7.192091941833496094e-01 2.000000000000000000e+00
-3.432942199707031250e+01 2.816360235214232954e+00 -6.012353897094726562e-01 2.000000000000000000e+01
-2.521960496902465820e+00 2.104451954364776889e-01 -6.781058907508850098e-01 1.400000000000000000e+01
-4.469916152954102273e+01 3.737781047821044922e+00 7.829498648643493652e-01 4.800000000000000000e+01
-2.918726921081542969e+00 2.445793449878692905e-01 -6.762028932571411133e-01 1.500000000000000000e+01
-3.468642234802246094e+00 2.912700176239014227e-01 -6.766086816787719727e-01 1.000000000000000000e+01
-4.481581878662108664e+01 3.771166324615478960e+00 3.934733152389525923e+00 5.400000000000000000e+01
-4.302902698516845703e+00 3.628374636173247736e-01 -6.839314699172973633e-01 1.000000000000000000e+01
-4.484817123413085938e+01 3.789655208587646040e+00 5.526287078857421875e+00 3.800000000000000000e+01
-5.643273353576660156e+00 4.778466820716857910e-01 -6.953864693641662598e-01 1.000000000000000000e+01
-8.151459693908691406e+00 6.916613578796386719e-01 -7.157229781150817871e-01 1.000000000000000000e+00
-3.428551101684570312e+01 2.933277130126953125e+00 -6.006420254707336426e-01 1.900000000000000000e+01
-2.515436887741088867e+00 2.187451124191283902e-01 -6.765530109405517578e-01 1.300000000000000000e+01
-4.470576477050781250e+01 3.895523309707642046e+00 7.832989096641540527e-01 4.800000000000000000e+01
-2.919796705245972124e+00 2.549356222152709961e-01 -6.766527891159057617e-01 1.400000000000000000e+01
-3.477383136749268022e+00 3.042316138744354248e-01 -6.785168051719665527e-01 1.100000000000000000e+01
-4.486192321777343750e+01 3.932799816131591797e+00 3.939962625503540039e+00 5.400000000000000000e+01
-4.277996063232421875e+00 3.757809400558472235e-01 -6.801770329475402832e-01 1.000000000000000000e+01
-4.487421798706054688e+01 3.949662446975708008e+00 5.531161785125732422e+00 3.800000000000000000e+01
-5.661345481872558594e+00 4.992863833904265802e-01 -6.978238821029663086e-01 1.000000000000000000e+01
-8.176780700683593750e+00 7.225663661956787109e-01 -7.181633114814758301e-01 2.000000000000000000e+00
-3.431091308593750000e+01 3.056131601333618164e+00 -6.012703180313110352e-01 2.000000000000000000e+01
-2.518506050109862837e+00 2.278724461793900091e-01 -6.775882840156555176e-01 1.400000000000000000e+01
-4.472774124145507812e+01 4.054801464080811435e+00 7.839272022247314453e-01 4.800000000000000000e+01
-2.907244443893433061e+00 2.640683650970458984e-01 -6.739533543586730957e-01 1.400000000000000000e+01
-3.472389698028564009e+00 3.160122334957122803e-01 -6.777535676956176758e-01 1.100000000000000000e+01
-4.491141510009766336e+01 4.095162391662597656e+00 3.945540428161621094e+00 5.400000000000000000e+01
-4.296330451965332031e+00 3.925088644027709961e-01 -6.833057403564453125e-01 1.000000000000000000e+01
-4.486411285400391336e+01 4.106640338897705078e+00 5.531649589538574219e+00 3.800000000000000000e+01
-5.627939224243164062e+00 5.161444544792175293e-01 -6.939240694046020508e-01 1.000000000000000000e+01
-8.148416519165039062e+00 7.487342357635498047e-01 -7.158972620964050293e-01 2.000000000000000000e+00
-1.536360740661620916e+01 1.417125582695007102e+00 -8.085905313491821289e-01 4.000000000000000000e+00
-3.430999374389647727e+01 3.176802158355712891e+00 -6.014448404312133789e-01 2.000000000000000000e+01
-2.527312040328979048e+00 2.375662773847579956e-01 -6.801764369010925293e-01 1.500000000000000000e+01
-4.474914932250977273e+01 4.214280605316162109e+00 7.845554947853088379e-01 4.800000000000000000e+01
-2.902424812316894975e+00 2.738488316535950262e-01 -6.730535626411437988e-01 1.400000000000000000e+01
-3.471265554428101030e+00 3.281311988830565851e-01 -6.777535676956176758e-01 1.100000000000000000e+01
-4.483337402343750000e+01 4.245896816253662109e+00 3.939962625503540039e+00 5.400000000000000000e+01
-4.294933795928955078e+00 4.075034558773040771e-01 -6.833057403564453125e-01 1.000000000000000000e+01
-4.486926651000977273e+01 4.265099048614501953e+00 5.534086704254150391e+00 3.800000000000000000e+01
-5.626103401184082031e+00 5.357864499092102051e-01 -6.939240694046020508e-01 1.000000000000000000e+01
-8.153686523437500000e+00 7.779299020767211914e-01 -7.165945172309875488e-01 2.000000000000000000e+00
-1.515975093841552912e+01 1.451707124710083008e+00 -7.981233596801757812e-01 4.000000000000000000e+00
-3.429272460937500000e+01 3.295973062515258789e+00 -6.013401150703430176e-01 2.000000000000000000e+01
-2.522621870040893999e+00 2.460117787122725885e-01 -6.791411638259887695e-01 1.600000000000000000e+01
-4.476601028442382812e+01 4.373569488525390625e+00 7.851139307022094727e-01 4.900000000000000000e+01
-2.901451110839844194e+00 2.839785218238831122e-01 -6.730535626411437988e-01 1.400000000000000000e+01
-3.454467773437500000e+00 3.387135267257689875e-01 -6.747006177902221680e-01 1.100000000000000000e+01
-4.491742324829102273e+01 4.412106990814208984e+00 3.948678016662598100e+00 5.400000000000000000e+01
-4.301348686218261719e+00 4.232668876647949219e-01 -6.845571994781494141e-01 1.000000000000000000e+01
-4.486595535278320312e+01 4.422864437103270596e+00 5.535549163818359375e+00 3.800000000000000000e+01
-5.636051654815673828e+00 5.565925240516662598e-01 -6.953864693641662598e-01 1.200000000000000000e+01
-8.121180534362792969e+00 8.034445047378540039e-01 -7.139798402786254883e-01 2.000000000000000000e+00
-3.424519348144531250e+01 3.412088155746459961e+00 -6.007118225097656250e-01 1.300000000000000000e+01
-2.508293390274047852e+00 2.534563243389130194e-01 -6.755176782608032227e-01 1.400000000000000000e+01
-4.478031539916992188e+01 4.532826423645020419e+00 7.856375575065612793e-01 4.900000000000000000e+01
-2.912075042724608931e+00 2.952843010425568182e-01 -6.757529377937316895e-01 1.400000000000000000e+01
-3.453264474868773970e+00 3.507698178291320801e-01 -6.747006177902221680e-01 1.100000000000000000e+01
-4.483435440063477273e+01 4.562013626098632812e+00 3.942751407623291016e+00 5.400000000000000000e+01
-4.272332668304443359e+00 4.354744851589202881e-01 -6.801770329475402832e-01 1.000000000000000000e+01
-4.487789154052733664e+01 4.582271575927734375e+00 5.538961887359619141e+00 7.600000000000000000e+01
-5.622225761413574219e+00 5.750507116317749023e-01 -6.939240694046020508e-01 1.000000000000000000e+01
-8.098505973815917969e+00 8.297570943832397461e-01 -7.122367024421691895e-01 2.000000000000000000e+00
-3.426490020751953125e+01 3.534888744354248047e+00 -6.012703180313110352e-01 1.300000000000000000e+01
-2.517000198364257812e+00 2.632150053977965753e-01 -6.781058907508850098e-01 1.400000000000000000e+01
-4.476819610595703125e+01 4.689527988433837891e+00 7.857073545455932617e-01 4.900000000000000000e+01
-2.914902687072753906e+00 3.058542609214783270e-01 -6.766527891159057617e-01 1.300000000000000000e+01
-3.463734149932860884e+00 3.640531301498413086e-01 -6.769903302192687988e-01 1.100000000000000000e+01
-4.484193420410156250e+01 4.720990180969238281e+00 3.944843292236328125e+00 5.400000000000000000e+01
-4.270786285400390625e+00 4.503850340843201239e-01 -6.801770329475402832e-01 1.000000000000000000e+01
-4.485767364501953125e+01 4.738479614257813388e+00 5.538474082946777344e+00 3.800000000000000000e+01
-5.612287998199462891e+00 5.938369035720825195e-01 -6.929491162300109863e-01 1.000000000000000000e+01
-8.103486061096191406e+00 8.588610887527465820e-01 -7.129339575767517090e-01 3.000000000000000000e+00
-1.514371776580811080e+01 1.610377192497252974e+00 -7.981233596801757812e-01 4.000000000000000000e+00
-3.424042129516602273e+01 3.653201103210449219e+00 -6.010608673095703125e-01 1.300000000000000000e+01
-2.506462812423706055e+00 2.709611952304840088e-01 -6.755176782608032227e-01 1.400000000000000000e+01
-4.477938842773438211e+01 4.848783493041992188e+00 7.861959934234619141e-01 4.900000000000000000e+01
-2.894443511962891069e+00 3.139260709285736084e-01 -6.721537709236145020e-01 1.400000000000000000e+01
-3.454635143280028853e+00 3.752934634685515802e-01 -6.754638552665710449e-01 1.100000000000000000e+01
-4.483706665039063211e+01 4.878782272338867188e+00 3.945888996124268022e+00 5.400000000000000000e+01
-4.277043342590332031e+00 4.661462306976317804e-01 -6.814285516738891602e-01 1.000000000000000000e+01
-4.485664749145507812e+01 4.896756649017333984e+00 5.540423870086669922e+00 7.600000000000000000e+01
-5.606234073638916016e+00 6.129922866821289062e-01 -6.924616098403930664e-01 1.000000000000000000e+01
-8.086574554443359375e+00 8.856239318847656250e-01 -7.117137908935546875e-01 2.000000000000000000e+00
-1.501094436645507990e+01 1.649268627166748047e+00 -7.914243340492248535e-01 4.000000000000000000e+00
-3.420758438110352273e+01 3.770509481430054155e+00 -6.007118225097656250e-01 1.300000000000000000e+01
-2.518941164016724077e+00 2.812090814113616943e-01 -6.791411638259887695e-01 1.300000000000000000e+01
-4.478603744506835938e+01 5.007729530334472656e+00 7.866148352622985840e-01 4.900000000000000000e+01
-2.893330097198485884e+00 3.240276575088500977e-01 -6.721537709236145020e-01 1.400000000000000000e+01
-3.449401855468750000e+00 3.869124352931975763e-01 -6.747006177902221680e-01 1.100000000000000000e+01
-4.490291976928710938e+01 5.044605255126953125e+00 3.953210115432738814e+00 5.400000000000000000e+01
-4.269501209259033203e+00 4.804104268550872803e-01 -6.804898977279663086e-01 9.000000000000000000e+00
-4.486295318603516336e+01 5.055973529815673828e+00 5.543348789215087891e+00 7.600000000000000000e+01
-5.588279724121093750e+00 6.307767629623413086e-01 -6.905117034912109375e-01 1.000000000000000000e+01
-8.093333244323730469e+00 9.149650931358337402e-01 -7.125853300094604492e-01 2.000000000000000000e+00
-1.493365192413330078e+01 1.693554520606995073e+00 -7.876561284065246582e-01 4.000000000000000000e+00
-3.419421386718750000e+01 3.889893293380736861e+00 -6.007118225097656250e-01 1.300000000000000000e+01
-2.508348464965819868e+00 2.888949513435363770e-01 -6.765530109405517578e-01 1.400000000000000000e+01
-4.478417587280272727e+01 5.165864467620849609e+00 7.868940830230712891e-01 4.900000000000000000e+01
-2.899924993515015093e+00 3.350198566913604736e-01 -6.739533543586730957e-01 1.300000000000000000e+01
-3.442179679870605025e+00 3.982737660408020020e-01 -6.735557317733764648e-01 1.200000000000000000e+01
-4.490483093261718750e+01 5.203608512878417969e+00 3.954953193664550781e+00 5.400000000000000000e+01
-4.263873577117919922e+00 4.948553740978240967e-01 -6.798641681671142578e-01 9.000000000000000000e+00
-4.486672210693358664e+01 5.215065002441406250e+00 5.546030044555664062e+00 7.700000000000000000e+01
-5.582100391387938565e+00 6.498205661773681641e-01 -6.900241971015930176e-01 1.000000000000000000e+01
-8.062383651733398438e+00 9.399803280830383301e-01 -7.101449966430664062e-01 2.000000000000000000e+00
-1.492764949798583984e+01 1.745672345161437988e+00 -7.876561284065246582e-01 4.000000000000000000e+00
-3.414467620849608664e+01 4.005036354064941406e+00 -6.000835299491882324e-01 1.900000000000000000e+01
-2.493896007537841797e+00 2.960548102855681818e-01 -6.729295253753662109e-01 1.500000000000000000e+01
-4.479367065429688211e+01 5.325464248657226562e+00 7.873827815055847168e-01 4.900000000000000000e+01
-2.894867658615111861e+00 3.446796536445618231e-01 -6.730535626411437988e-01 1.200000000000000000e+01
-3.442717790603638139e+00 4.105192422866820734e-01 -6.739373803138732910e-01 1.100000000000000000e+01
-4.484682464599608664e+01 5.355598926544188565e+00 3.951467037200928178e+00 5.400000000000000000e+01
-4.258197784423828125e+00 5.092669129371643066e-01 -6.792384386062622070e-01 9.000000000000000000e+00
-4.487386703491210938e+01 5.374716281890869141e+00 5.549198627471923828e+00 7.700000000000000000e+01
-5.575856208801270419e+00 6.688289642333984375e-01 -6.895367503166198730e-01 1.000000000000000000e+01
-8.055097579956054688e+00 9.676423072814941406e-01 -7.097963690757751465e-01 1.000000000000000000e+00
-1.482231903076172053e+01 1.785823583602905051e+00 -7.824225425720214844e-01 4.000000000000000000e+00
-3.415629959106445312e+01 4.127317905426025391e+00 -6.005373001098632812e-01 1.900000000000000000e+01
-2.504352807998656782e+00 3.061649203300476074e-01 -6.760353446006774902e-01 1.500000000000000000e+01
-4.476686859130858664e+01 5.480818748474121094e+00 7.872431278228759766e-01 4.900000000000000000e+01
-2.889778375625609907e+00 3.543082177639008123e-01 -6.721537709236145020e-01 1.200000000000000000e+01
-3.441263914108275923e+00 4.225340783596038818e-01 -6.739373803138732910e-01 1.200000000000000000e+01
-4.489509201049804688e+01 5.520378112792968750e+00 3.957393646240233931e+00 5.400000000000000000e+01
-4.254433155059813565e+00 5.238862633705139160e-01 -6.789255738258361816e-01 1.000000000000000000e+01
-4.487453460693358664e+01 5.533751964569091797e+00 5.551636219024658203e+00 7.700000000000000000e+01
-5.579397678375244141e+00 6.890181303024291992e-01 -6.902679800987243652e-01 8.000000000000000000e+00
-8.023987770080566406e+00 9.923304319381713867e-01 -7.073560357093811035e-01 2.000000000000000000e+00
-3.410993194580078125e+01 4.242571353912354404e+00 -5.999788045883178711e-01 1.900000000000000000e+01
-2.501352071762084961e+00 3.146637380123137873e-01 -6.755176782608032227e-01 1.500000000000000000e+01
-4.476730346679688211e+01 5.639550209045410156e+00 7.875921726226806641e-01 4.900000000000000000e+01
-2.894324302673339844e+00 3.651249706745148260e-01 -6.735034584999084473e-01 1.200000000000000000e+01
-3.443663597106934038e+00 4.350358843803405762e-01 -6.747006177902221680e-01 1.100000000000000000e+01
-4.489926910400391336e+01 5.680058479309082031e+00 3.959485292434691939e+00 5.400000000000000000e+01
-4.238860607147216797e+00 5.369959473609924316e-01 -6.767355203628540039e-01 9.000000000000000000e+00
-4.485100555419921875e+01 5.689859867095947266e+00 5.551148414611816406e+00 7.700000000000000000e+01
-5.559235095977783203e+00 7.062380909919738770e-01 -6.880742907524108887e-01 1.000000000000000000e+01
-8.012569427490234375e+00 1.019327521324157937e+00 -7.066587805747985840e-01 2.000000000000000000e+00
-3.411276626586914062e+01 4.363894939422607422e+00 -6.002929806709289551e-01 1.300000000000000000e+01
-2.500238418579102007e+00 3.233931660652161200e-01 -6.755176782608032227e-01 1.500000000000000000e+01
-4.479890823364257812e+01 5.802461147308349609e+00 7.884997129440307617e-01 4.900000000000000000e+01
-2.887234449386597124e+00 3.744738698005676270e-01 -6.721537709236145020e-01 1.300000000000000000e+01
-3.430442571640015093e+00 4.455367028713225763e-01 -6.724109053611755371e-01 1.300000000000000000e+01
-4.489102172851563211e+01 5.838293075561523438e+00 3.960531234741210938e+00 5.400000000000000000e+01
-4.252631187438964844e+00 5.538299083709716797e-01 -6.792384386062622070e-01 9.000000000000000000e+00
-4.486236572265625000e+01 5.850492000579833984e+00 5.555048465728759766e+00 7.700000000000000000e+01
-5.560672760009765625e+00 7.261532545089721680e-01 -6.885617971420288086e-01 1.000000000000000000e+01
-8.016864776611328125e+00 1.048323750495911089e+00 -7.073560357093811035e-01 2.000000000000000000e+00
-1.470379066467284979e+01 1.927958965301513894e+00 -7.771889567375183105e-01 4.000000000000000000e+00
-3.405172729492188211e+01 4.476948738098145419e+00 -5.994901657104492188e-01 1.900000000000000000e+01
-2.501009464263916016e+00 3.323731720447539728e-01 -6.760353446006774902e-01 1.400000000000000000e+01
-4.479820251464843750e+01 5.961441040039063388e+00 7.888487577438354492e-01 4.900000000000000000e+01
-2.887841463088988814e+00 3.848073184490203857e-01 -6.726036667823791504e-01 1.300000000000000000e+01
-3.426920413970946822e+00 4.572488069534301758e-01 -6.720292568206787109e-01 1.200000000000000000e+01
-4.489011764526367188e+01 5.997594833374023438e+00 3.962274312973022017e+00 5.400000000000000000e+01
-4.252629756927490234e+00 5.689329504966735840e-01 -6.795513033866882324e-01 9.000000000000000000e+00
-4.486921691894531250e+01 6.010745048522949219e+00 5.558460712432861328e+00 7.700000000000000000e+01
-5.538429737091063565e+00 7.429200410842895508e-01 -6.861243844032287598e-01 1.200000000000000000e+01
-8.007232666015625000e+00 1.075505852699280007e+00 -7.068330645561218262e-01 2.000000000000000000e+00
-1.469697093963623047e+01 1.979272961616515891e+00 -7.771889567375183105e-01 4.000000000000000000e+00
-3.399823760986328125e+01 4.590700149536132812e+00 -5.988269448280334473e-01 1.900000000000000000e+01
-2.490263462066649947e+00 3.397953808307648260e-01 -6.734471321105957031e-01 1.400000000000000000e+01
-4.479693222045897727e+01 6.120486736297607422e+00 7.891978025436401367e-01 4.900000000000000000e+01
-2.884549856185913086e+00 3.946212828159332275e-01 -6.721537709236145020e-01 1.100000000000000000e+01
-4.503109741210938211e+01 6.168493270874023438e+00 2.382018804550170898e+00 3.500000000000000000e+01
-3.429193735122681108e+00 4.697411060333251953e-01 -6.727924942970275879e-01 1.200000000000000000e+01
-4.486495971679688211e+01 6.153712749481201172e+00 3.961925745010375977e+00 5.400000000000000000e+01
-4.238875865936279297e+00 5.821612477302551270e-01 -6.776741147041320801e-01 7.000000000000000000e+00
-4.491285705566406250e+01 6.176255702972412109e+00 5.566504001617431641e+00 7.800000000000000000e+01
-5.555468082427979404e+00 7.649560570716857910e-01 -6.885617971420288086e-01 1.000000000000000000e+01
-7.981718540191650391e+00 1.100456357002258079e+00 -7.049156427383422852e-01 2.000000000000000000e+00
-3.396022033691406250e+01 4.706328392028808594e+00 -5.984430313110351562e-01 1.900000000000000000e+01
-2.487149000167847124e+00 3.482181131839752197e-01 -6.729295253753662109e-01 1.700000000000000000e+01
-4.478321838378906250e+01 6.277930259704589844e+00 7.893374562263488770e-01 4.900000000000000000e+01
-2.887014389038085938e+00 4.052295982837677002e-01 -6.730535626411437988e-01 1.200000000000000000e+01
-4.483128738403320312e+01 6.300626754760742188e+00 2.372598171234130859e+00 3.500000000000000000e+01
-3.419756412506103960e+00 4.806154370307921808e-01 -6.712660193443298340e-01 1.200000000000000000e+01
-4.485898971557617188e+01 6.312504291534423828e+00 3.963320255279541016e+00 5.400000000000000000e+01
-4.240730285644531250e+00 5.975053906440734863e-01 -6.782998442649841309e-01 7.000000000000000000e+00
-4.488119888305664062e+01 6.331606864929199219e+00 5.565285205841063565e+00 7.800000000000000000e+01
-5.550798416137695312e+00 7.840659618377685547e-01 -6.883180737495422363e-01 1.200000000000000000e+01
-7.973883152008056641e+00 1.127753019332885964e+00 -7.045670151710510254e-01 1.000000000000000000e+00
-3.401485443115233664e+01 4.834974288940429688e+00 -5.996996164321899414e-01 1.900000000000000000e+01
-2.493567228317261186e+00 3.579958975315093994e-01 -6.750000715255737305e-01 1.600000000000000000e+01
-4.479269790649414062e+01 6.438766956329345703e+00 7.898958921432495117e-01 4.900000000000000000e+01
-2.870151281356811968e+00 4.130837917327880859e-01 -6.694543361663818359e-01 1.300000000000000000e+01
-4.482483673095703125e+01 6.459357738494873047e+00 2.373435497283935991e+00 3.500000000000000000e+01
-3.433603525161743164e+00 4.947898089885712225e-01 -6.743189692497253418e-01 1.200000000000000000e+01
-4.486823272705078125e+01 6.473605155944824219e+00 3.966109275817871094e+00 5.400000000000000000e+01
-4.234708309173583984e+00 6.117397546768188477e-01 -6.776741147041320801e-01 9.000000000000000000e+00
-4.487257385253906250e+01 6.490221977233886719e+00 5.566991806030273438e+00 7.800000000000000000e+01
-5.526417255401611328e+00 8.003075718879699707e-01 -6.856369376182556152e-01 1.200000000000000000e+01
-7.958067417144775391e+00 1.153864860534667969e+00 -7.035211324691772461e-01 1.000000000000000000e+00
-1.447778987884520951e+01 2.104339838027954102e+00 -7.667217850685119629e-01 4.000000000000000000e+00
-3.397204589843750000e+01 4.949930667877197266e+00 -5.992458462715148926e-01 1.900000000000000000e+01
-2.498036384582519975e+00 3.675415217876433771e-01 -6.765530109405517578e-01 1.500000000000000000e+01
-4.479368972778320312e+01 6.598580837249755859e+00 7.903147935867309570e-01 4.900000000000000000e+01
-2.874475479125977007e+00 4.239529967308043878e-01 -6.708040237426757812e-01 1.200000000000000000e+01
-4.483362960815429688e+01 6.620454311370849609e+00 2.375110387802124023e+00 3.500000000000000000e+01
-3.412433385848999023e+00 5.039043426513671875e-01 -6.705027818679809570e-01 1.200000000000000000e+01
-4.488478469848632812e+01 6.636013031005859375e+00 3.969595432281494141e+00 5.400000000000000000e+01
-4.222776889801025391e+00 6.250717043876647949e-01 -6.761097311973571777e-01 9.000000000000000000e+00
-4.488695526123046875e+01 6.652346134185791016e+00 5.571622848510742188e+00 7.800000000000000000e+01
-5.511808395385742188e+00 8.178452849388122559e-01 -6.841744780540466309e-01 1.000000000000000000e+01
-7.961874485015869141e+00 1.182807803153991921e+00 -7.042183876037597656e-01 1.000000000000000000e+00
-1.447035598754882990e+01 2.154863834381103960e+00 -7.667217850685119629e-01 4.000000000000000000e+00
-3.397433853149414062e+01 5.071437358856201172e+00 -5.995948910713195801e-01 1.900000000000000000e+01
-2.494762182235718218e+00 3.764066100120543878e-01 -6.760353446006774902e-01 1.300000000000000000e+01
-4.478502273559570312e+01 6.765102863311767578e+00 7.905940413475036621e-01 5.000000000000000000e+01
-2.869048833847045898e+00 4.339028298854827881e-01 -6.699042320251464844e-01 1.300000000000000000e+01
-4.481301116943358664e+01 6.785331249237061435e+00 2.375319719314575195e+00 3.500000000000000000e+01
-3.412504911422729048e+00 5.167020559310913086e-01 -6.708844304084777832e-01 1.200000000000000000e+01
-4.488773727416992188e+01 6.804660320281982422e+00 3.972035884857178178e+00 5.400000000000000000e+01
-4.220457553863525391e+00 6.405447721481323242e-01 -6.761097311973571777e-01 9.000000000000000000e+00
-4.490348815917968750e+01 6.823082923889160156e+00 5.576741218566895419e+00 7.800000000000000000e+01
-5.508773803710938388e+00 8.380416035652160645e-01 -6.841744780540466309e-01 1.200000000000000000e+01
-7.949606895446777344e+00 1.210781574249268022e+00 -7.035211324691772461e-01 1.000000000000000000e+00
-3.390808486938477273e+01 5.188665866851806641e+00 -5.987571477890014648e-01 1.300000000000000000e+01
-2.476250171661376953e+00 3.824587464332581122e-01 -6.713765859603881836e-01 1.500000000000000000e+01
-4.480461120605468750e+01 6.928113460540770596e+00 7.913619279861450195e-01 5.000000000000000000e+01
-2.867516756057738814e+00 4.439150393009185791e-01 -6.699042320251464844e-01 1.200000000000000000e+01
-4.478905487060546875e+01 6.941716670989990234e+00 2.375319719314575195e+00 3.500000000000000000e+01
-3.400979995727539062e+00 5.271073579788208008e-01 -6.689763665199279785e-01 1.200000000000000000e+01
-4.489521408081054688e+01 6.966194152832031250e+00 3.974824905395507812e+00 5.400000000000000000e+01
-4.222099781036376953e+00 6.558794379234313965e-01 -6.767355203628540039e-01 1.000000000000000000e+01
-4.488528060913085938e+01 6.980699062347412109e+00 5.577472209930419922e+00 7.800000000000000000e+01
-5.511699199676513672e+00 8.581818938255310059e-01 -6.849057078361511230e-01 1.200000000000000000e+01
-7.929583072662354404e+00 1.236068606376647949e+00 -7.021266818046569824e-01 1.000000000000000000e+00
-1.435589981079101918e+01 2.242940187454224077e+00 -7.614881396293640137e-01 4.000000000000000000e+00
-3.394903182983397727e+01 5.316276550292968750e+00 -5.998042821884155273e-01 1.300000000000000000e+01
-2.476876497268677202e+00 3.909693956375122070e-01 -6.718942523002624512e-01 1.600000000000000000e+01
-4.481101989746093750e+01 7.081334590911865234e+00 7.918854951858520508e-01 5.000000000000000000e+01
-2.867953538894652876e+00 4.537261426448822021e-01 -6.703541278839111328e-01 1.200000000000000000e+01
-4.483285903930664062e+01 7.100827217102050781e+00 2.378878593444824219e+00 3.500000000000000000e+01
-3.405030488967895952e+00 5.393038392066955566e-01 -6.701211929321289062e-01 1.100000000000000000e+01
-4.487186431884766336e+01 7.115033626556395596e+00 3.974824905395507812e+00 5.400000000000000000e+01
-4.196490287780761719e+00 6.661604642868041992e-01 -6.729810833930969238e-01 9.000000000000000000e+00
-4.489521408081054688e+01 7.134801864624023438e+00 5.581615924835205078e+00 7.800000000000000000e+01
-5.508822917938232422e+00 8.764546513557434082e-01 -6.849057078361511230e-01 1.200000000000000000e+01
-7.921505451202392578e+00 1.261730432510375977e+00 -7.017780542373657227e-01 1.000000000000000000e+00
-3.391936874389647727e+01 5.426930904388427734e+00 -5.995948910713195801e-01 1.300000000000000000e+01
-2.477403879165648970e+00 3.999207913875579834e-01 -6.724118590354919434e-01 1.500000000000000000e+01
-4.480182266235352273e+01 7.240263462066650391e+00 7.921647429466247559e-01 5.000000000000000000e+01
-2.860581159591674805e+00 4.628007113933563232e-01 -6.690044403076171875e-01 1.300000000000000000e+01
-4.484723281860352273e+01 7.263666629791259766e+00 2.380971908569335938e+00 3.500000000000000000e+01
-3.399251222610474077e+00 5.505585670471191406e-01 -6.693579554557800293e-01 1.200000000000000000e+01
-4.487822341918945312e+01 7.276724338531494141e+00 3.977613687515258789e+00 5.400000000000000000e+01
-4.198039054870604581e+00 6.814379096031188965e-01 -6.736068129539489746e-01 1.000000000000000000e+01
-4.487983322143554688e+01 7.293064117431640625e+00 5.582834720611572266e+00 7.800000000000000000e+01
-5.497892856597900391e+00 8.944036960601806641e-01 -6.839307546615600586e-01 1.200000000000000000e+01
-7.889522075653076172e+00 1.284890294075011985e+00 -6.993376612663269043e-01 2.000000000000000000e+00
-1.434029960632324041e+01 2.340605020523070845e+00 -7.614881396293640137e-01 4.000000000000000000e+00
-3.384891128540039062e+01 5.536905288696289062e+00 -5.986873507499694824e-01 1.300000000000000000e+01
-2.481639385223389116e+00 4.099428057670593262e-01 -6.739647984504699707e-01 1.400000000000000000e+01
-4.481838607788085938e+01 7.411599636077880859e+00 7.929326295852661133e-01 5.000000000000000000e+01
-2.864633321762084961e+00 4.742369949817656916e-01 -6.703541278839111328e-01 1.300000000000000000e+01
-4.482424926757813211e+01 7.428644180297851562e+00 2.381181240081787109e+00 3.500000000000000000e+01
-3.395273685455321822e+00 5.626927614212036133e-01 -6.689763665199279785e-01 1.200000000000000000e+01
-4.487090682983397727e+01 7.444423675537109375e+00 3.979357004165648970e+00 5.400000000000000000e+01
-4.193564414978027344e+00 6.964962482452392578e-01 -6.732939481735229492e-01 1.000000000000000000e+01
-4.488413238525391336e+01 7.462717056274414062e+00 5.586734294891357422e+00 7.900000000000000000e+01
-5.498494148254395419e+00 9.152003526687622070e-01 -6.844182610511779785e-01 1.200000000000000000e+01
-7.904412746429443359e+00 1.317072868347167969e+00 -7.010807991027832031e-01 1.000000000000000000e+00
-1.423312568664550959e+01 2.376701354980469194e+00 -7.562545537948608398e-01 4.000000000000000000e+00
-3.378894424438477273e+01 5.654329776763916016e+00 -5.979892611503601074e-01 1.300000000000000000e+01
-2.470668792724608931e+00 4.169953167438507080e-01 -6.713765859603881836e-01 1.600000000000000000e+01
-4.479618453979492188e+01 7.568665981292724609e+00 7.930024266242980957e-01 5.000000000000000000e+01
-2.864881992340087891e+00 4.845585227012634277e-01 -6.708040237426757812e-01 1.300000000000000000e+01
-4.483742904663085938e+01 7.591732978820800781e+00 2.383274793624877930e+00 3.600000000000000000e+01
-3.391353130340576172e+00 5.742133259773254395e-01 -6.685947179794311523e-01 1.100000000000000000e+01
-4.489179229736328125e+01 7.608997821807861328e+00 3.983540296554564986e+00 5.400000000000000000e+01
-4.187212944030761719e+00 7.104693651199340820e-01 -6.726682186126708984e-01 1.000000000000000000e+01
-4.488520812988281250e+01 7.624000549316406250e+00 5.590147018432617188e+00 7.900000000000000000e+01
-5.479609966278076172e+00 9.317260384559631348e-01 -6.824682950973510742e-01 1.200000000000000000e+01
-7.860484600067138672e+00 1.337969899177551047e+00 -6.975945830345153809e-01 1.000000000000000000e+00
-1.422474288940430043e+01 2.426369667053223100e+00 -7.562545537948608398e-01 4.000000000000000000e+00
-3.384784317016602273e+01 5.785717964172363281e+00 -5.993854403495788574e-01 1.300000000000000000e+01
-2.465538740158081055e+00 4.241001009941101074e-01 -6.703413128852844238e-01 1.600000000000000000e+01
-4.478401184082031250e+01 7.711395740509033203e+00 7.932118773460388184e-01 5.000000000000000000e+01
-2.863345623016356978e+00 4.935564100742340088e-01 -6.708040237426757812e-01 1.200000000000000000e+01
-4.483045196533203125e+01 7.727448940277099609e+00 2.384112119674683061e+00 3.600000000000000000e+01
-3.385663032531737837e+00 5.841970443725585938e-01 -6.678314805030822754e-01 1.100000000000000000e+01
-4.490693283081054688e+01 7.756773948669433594e+00 3.987026691436768022e+00 5.400000000000000000e+01
-4.184959888458251953e+00 7.236203551292419434e-01 -6.726682186126708984e-01 1.000000000000000000e+01
-4.490211105346679688e+01 7.772083282470703125e+00 5.595265388488770419e+00 7.900000000000000000e+01
-5.472743988037109375e+00 9.482582807540893555e-01 -6.819808483123779297e-01 1.200000000000000000e+01
-7.860168457031250000e+00 1.363338708877563032e+00 -6.979432106018066406e-01 1.000000000000000000e+00
-3.384920120239257812e+01 5.895456314086914062e+00 -5.997344851493835449e-01 1.300000000000000000e+01
-2.464043378829956055e+00 4.327038526535034180e-01 -6.703413128852844238e-01 1.600000000000000000e+01
-4.478045654296875000e+01 7.871828556060791016e+00 7.936307191848754883e-01 5.000000000000000000e+01
-2.861605405807495117e+00 5.035483241081237793e-01 -6.708040237426757812e-01 1.300000000000000000e+01
-4.482936477661132812e+01 7.896559715270996094e+00 2.385577440261840820e+00 3.600000000000000000e+01
-3.391337156295775923e+00 5.973739624023437500e-01 -6.693579554557800293e-01 1.200000000000000000e+01
-4.490705108642578125e+01 7.918324947357177734e+00 3.989466905593872070e+00 5.400000000000000000e+01
-4.168791770935058594e+00 7.358206510543823242e-01 -6.704781055450439453e-01 9.000000000000000000e+00
-4.488252639770507812e+01 7.930155277252197266e+00 5.596240043640136719e+00 7.900000000000000000e+01
-5.481128692626953125e+00 9.694303274154663086e-01 -6.834432482719421387e-01 1.200000000000000000e+01
-7.839666366577148438e+00 1.387988686561584029e+00 -6.965487003326416016e-01 1.000000000000000000e+00
-3.370634841918945312e+01 5.991876602172851562e+00 -5.975704193115234375e-01 1.300000000000000000e+01
-2.477730512619018999e+00 4.440285265445709229e-01 -6.744824051856994629e-01 1.500000000000000000e+01
-4.481175231933593750e+01 8.038685798645019531e+00 7.946778535842895508e-01 5.000000000000000000e+01
-2.842567682266234907e+00 5.104343295097351074e-01 -6.667549014091491699e-01 1.300000000000000000e+01
-4.482259368896483664e+01 8.048706054687500000e+00 2.386624336242675781e+00 3.600000000000000000e+01
-3.400825023651123047e+00 6.112922430038452148e-01 -6.716476678848266602e-01 1.100000000000000000e+01
-4.491051483154296875e+01 8.080677032470703125e+00 3.992255926132202148e+00 5.400000000000000000e+01
-4.172029972076416016e+00 7.514184117317199707e-01 -6.714166998863220215e-01 1.000000000000000000e+01
-4.487996673583983664e+01 8.091355323791503906e+00 5.599408626556395596e+00 7.900000000000000000e+01
-5.467943668365479404e+00 9.867943525314331055e-01 -6.822245717048645020e-01 1.200000000000000000e+01
-7.846537590026854581e+00 1.417470932006835938e+00 -6.975945830345153809e-01 1.000000000000000000e+00
-1.400292015075683949e+01 2.534664392471313032e+00 -7.457873821258544922e-01 4.000000000000000000e+00
-3.374425506591796875e+01 6.120203495025634766e+00 -5.986175537109375000e-01 1.900000000000000000e+01
-2.476165294647216797e+00 4.526746869087219238e-01 -6.744824051856994629e-01 1.400000000000000000e+01
-4.482669448852539062e+01 8.202978134155273438e+00 7.954457998275756836e-01 5.000000000000000000e+01
-2.844602346420288086e+00 5.210558772087097168e-01 -6.676547527313232422e-01 1.300000000000000000e+01
-4.482958602905272727e+01 8.211594581604003906e+00 2.388508319854735884e+00 3.600000000000000000e+01
-3.389015197753905806e+00 6.213892698287963867e-01 -6.697395443916320801e-01 1.200000000000000000e+01
-4.488203430175781250e+01 8.237394332885742188e+00 3.992255926132202148e+00 5.400000000000000000e+01
-4.163553237915039062e+00 7.649061679840087891e-01 -6.704781055450439453e-01 9.000000000000000000e+00
-4.486316299438477273e+01 8.250120162963867188e+00 5.600871086120604581e+00 7.900000000000000000e+01
-5.446895599365234375e+00 1.002640724182128906e+00 -6.800309419631958008e-01 1.200000000000000000e+01
-7.798435211181640625e+00 1.436909079551696999e+00 -6.937597393989562988e-01 1.000000000000000000e+00
-1.399398708343506037e+01 2.583528280258179155e+00 -7.457873821258544922e-01 4.000000000000000000e+00
-3.372661972045897727e+01 6.238682746887207031e+00 -5.986873507499694824e-01 1.300000000000000000e+01
-2.464994192123413086e+00 4.599753916263579767e-01 -6.718942523002624512e-01 1.500000000000000000e+01
-4.481598281860352273e+01 8.370892524719238281e+00 7.957948446273803711e-01 5.000000000000000000e+01
-2.852251052856444868e+00 5.332690477371215820e-01 -6.699042320251464844e-01 1.100000000000000000e+01
-4.480950546264647727e+01 8.385870933532714844e+00 2.389136314392089844e+00 3.600000000000000000e+01
-3.369347095489501953e+00 6.305561661720275879e-01 -6.663050055503845215e-01 1.100000000000000000e+01
-4.489854049682617188e+01 8.410644531250000000e+00 3.996439456939696822e+00 5.400000000000000000e+01
-4.170429229736328125e+00 7.819814682006835938e-01 -6.720424890518188477e-01 1.000000000000000000e+01
-4.486188888549804688e+01 8.419989585876464844e+00 5.604527473449707031e+00 8.000000000000000000e+01
-5.445135116577148438e+00 1.022964358329772949e+00 -6.802746653556823730e-01 1.000000000000000000e+01
-7.789199829101563388e+00 1.464745759963989036e+00 -6.934111118316650391e-01 1.000000000000000000e+00
-1.398442459106444957e+01 2.634801387786864790e+00 -7.457873821258544922e-01 4.000000000000000000e+00
-3.374282455444335938e+01 6.369673728942871094e+00 -5.993854403495788574e-01 1.300000000000000000e+01
-2.457680225372314009e+00 4.674940407276154120e-01 -6.703413128852844238e-01 1.500000000000000000e+01
-4.482184982299804688e+01 8.534010887145996094e+00 7.964231371879577637e-01 5.000000000000000000e+01
-2.846543788909912109e+00 5.424923896789550781e-01 -6.690044403076171875e-01 1.100000000000000000e+01
-4.484423065185546875e+01 8.546383857727050781e+00 2.392485857009888139e+00 3.600000000000000000e+01
-3.363268613815308061e+00 6.415777802467346191e-01 -6.655417680740356445e-01 1.100000000000000000e+01
-4.486108016967772727e+01 8.565823554992675781e+00 3.995742082595825195e+00 5.400000000000000000e+01
-4.161853313446044922e+00 7.954217195510864258e-01 -6.711038351058959961e-01 9.000000000000000000e+00
-4.488876724243164062e+01 8.587351799011230469e+00 5.611595630645751953e+00 8.000000000000000000e+01
-5.441530704498291016e+00 1.041965246200561968e+00 -6.802746653556823730e-01 1.000000000000000000e+01
-7.752731323242188388e+00 1.485925436019897017e+00 -6.906220912933349609e-01 1.000000000000000000e+00
-3.368111419677733664e+01 6.479863643646240234e+00 -5.986873507499694824e-01 1.300000000000000000e+01
-2.452323198318481001e+00 4.749068319797515869e-01 -6.693060398101806641e-01 1.400000000000000000e+01
-4.480900955200195312e+01 8.685643196105957031e+00 7.967023253440856934e-01 5.100000000000000000e+01
-2.848555326461791992e+00 5.526711940765380859e-01 -6.699042320251464844e-01 1.300000000000000000e+01
-4.484701538085938211e+01 8.701131820678710938e+00 2.394160747528076172e+00 3.600000000000000000e+01
-3.382322311401367188e+00 6.568442583084106445e-01 -6.697395443916320801e-01 1.200000000000000000e+01
-4.489110183715820312e+01 8.725946426391601562e+00 4.000971317291259766e+00 5.400000000000000000e+01
-4.151436805725097656e+00 8.077095150947570801e-01 -6.698523759841918945e-01 9.000000000000000000e+00
-4.489901351928710938e+01 8.743750572204589844e+00 5.616470336914063388e+00 8.000000000000000000e+01
-5.445839405059813565e+00 1.061523437500000000e+00 -6.812496185302734375e-01 1.000000000000000000e+01
-7.755583286285400391e+00 1.513152480125427024e+00 -6.913193464279174805e-01 1.000000000000000000e+00
-3.357897949218750000e+01 6.575762271881104404e+00 -5.972562432289123535e-01 1.900000000000000000e+01
-2.456336498260498047e+00 4.845858812332152765e-01 -6.708589792251586914e-01 1.500000000000000000e+01
-4.479018783569335938e+01 8.844326972961425781e+00 7.969117760658264160e-01 5.100000000000000000e+01
-2.825579404830933061e+00 5.584548711776733398e-01 -6.649553179740905762e-01 1.200000000000000000e+01
-4.485947418212891336e+01 8.866143226623535156e+00 2.396463394165039062e+00 3.600000000000000000e+01
-3.366527318954468218e+00 6.659798026084899902e-01 -6.670682430267333984e-01 1.200000000000000000e+01
-4.487991333007813211e+01 8.886462211608886719e+00 4.002714633941650391e+00 5.400000000000000000e+01
-4.129215240478515625e+00 8.183555603027343750e-01 -6.667236685752868652e-01 9.000000000000000000e+00
-4.489158630371093750e+01 8.905058860778808594e+00 5.619395256042479581e+00 8.000000000000000000e+01
-5.426524162292479581e+00 1.077433705329895020e+00 -6.792997121810913086e-01 1.000000000000000000e+01
-7.742437362670898438e+00 1.538661837577820046e+00 -6.906220912933349609e-01 2.000000000000000000e+00
-1.381159973144531072e+01 2.749804019927978960e+00 -7.380416393280029297e-01 4.000000000000000000e+00
-3.367544555664063211e+01 6.716794967651367188e+00 -5.993854403495788574e-01 6.000000000000000000e+00
